# .PCD v0.7 - Point Cloud Data file format
VERSION 0.7
FIELDS x y z rgb
SIZE 4 4 4 4
TYPE F F F U
COUNT 1 1 1 1
WIDTH 1287
HEIGHT 1
VIEWPOINT 0 0 0 1 0 0 0
POINTS 1287
DATA ascii
1.306972 14.358656 1.646211 15014169
1.185486 14.880448 0.605282 15014169
0.877941 14.567112 0.633573 15014169
1.443183 14.434238 1.329335 15014169
1.130872 14.404136 1.333676 15014169
0.873919 14.902808 1.627381 15014169
1.498522 14.566993 0.354983 15014169
1.533015 14.520667 1.306337 15014169
1.104281 14.305341 1.497219 15014169
1.305466 14.802171 1.070192 15014169
1.465693 14.906592 0.320459 15014169
0.891204 14.462064 0.488626 15014169
1.347304 14.578483 1.538941 15014169
0.973189 14.575696 0.318553 15014169
1.338075 14.613666 0.485609 15014169
1.464314 14.916071 0.423472 15014169
0.910434 14.586756 1.122429 15014169
1.067795 14.757870 0.603913 15014169
1.224633 14.665657 0.913857 15014169
0.947428 14.425037 0.496820 15014169
1.076445 14.459699 1.037317 15014169
1.236377 14.584461 0.761094 15014169
1.243993 14.873601 1.473029 15014169
0.925089 14.492188 0.871658 15014169
1.322240 14.791172 0.924136 15014169
1.142576 14.822259 1.049458 15014169
1.510704 14.321883 0.814061 15014169
1.508640 14.753695 1.552313 15014169
1.041788 14.777946 0.583455 15014169
1.222873 14.444814 0.900256 15014169
1.390833 14.492146 1.153881 15014169
1.159024 14.921259 1.227442 15014169
1.300094 14.533770 1.042892 15014169
0.872560 14.364430 1.597420 15014169
0.902134 14.929798 1.309071 15014169
1.268782 14.803261 0.486260 15014169
1.403827 14.774557 1.063907 15014169
1.186674 14.611938 0.929839 15014169
1.421723 14.454197 0.388031 15014169
1.521185 14.603746 1.349360 15014169
1.337224 14.665206 0.491302 15014169
1.031497 14.596334 1.084706 15014169
1.425921 14.514890 0.870624 15014169
1.476807 14.852980 0.465963 15014169
0.966041 14.743744 1.085025 15014169
1.547809 14.808878 1.412453 15014169
1.018469 14.638142 1.179725 15014169
0.834114 14.648249 0.921544 15014169
1.095802 14.467888 1.573598 15014169
0.876865 14.524235 0.706915 15014169
1.517590 14.273364 0.951437 15014169
1.071360 14.771377 1.272704 15014169
1.336158 14.906507 1.634862 15014169
0.920030 14.351493 0.340196 15014169
1.492660 14.980232 0.820733 15014169
0.904079 14.352236 1.530260 15014169
1.171740 14.400248 1.160304 15014169
1.411140 14.598282 0.357130 15014169
1.108564 14.874350 0.452514 15014169
0.948038 14.810232 0.482562 15014169
0.949077 14.471746 0.714199 15014169
1.086666 14.831842 0.657663 15014169
0.915105 14.377288 0.812909 15014169
0.995107 14.854244 1.151170 15014169
1.065835 14.989408 0.896945 15014169
1.471303 14.485574 0.729892 15014169
1.534953 14.336954 1.538199 15014169
1.506546 14.521304 1.586695 15014169
1.480735 14.969009 0.460717 15014169
1.254003 14.831603 1.315658 15014169
1.432474 14.292506 1.649466 15014169
0.951392 14.285640 1.663585 15014169
0.972256 14.869645 0.311870 15014169
0.874773 14.341590 1.188105 15014169
1.029318 14.568377 1.656272 15014169
0.995958 14.457643 0.975176 15014169
1.047227 14.652274 0.944631 15014169
1.090881 14.301040 1.350775 15014169
1.483646 14.549891 0.966022 15014169
0.895588 14.811160 0.637354 15014169
0.943005 14.353976 0.580243 15014169
1.345944 14.604276 1.273246 15014169
0.934317 14.450650 1.450128 15014169
0.864854 14.447146 1.475782 15014169
1.307902 14.472231 1.443526 15014169
0.978037 14.654402 1.139434 15014169
1.534700 14.754862 0.783297 15014169
1.183646 14.448531 1.677247 15014169
1.148261 14.328146 1.647448 15014169
1.472959 14.675660 0.344916 15014169
1.436148 14.916384 1.180742 15014169
1.051584 14.927229 0.307069 15014169
1.083850 14.525896 1.496566 15014169
0.848618 14.728635 1.080392 15014169
1.090139 14.339196 0.507769 15014169
1.320044 14.320013 0.387206 15014169
1.171464 14.633853 0.319022 15014169
1.236311 14.366619 0.453056 15014169
1.328492 14.502469 1.377511 15014169
0.940463 -11.403107 0.466728 1645029
0.971952 -11.093551 1.221840 1645029
0.440138 -11.593598 1.076035 1645029
0.680470 -11.366393 1.019486 1645029
0.776637 -11.279637 1.189233 1645029
0.707638 -11.293749 1.492215 1645029
0.718736 -11.242459 0.631572 1645029
0.582626 -11.131318 1.271858 1645029
0.828548 -11.325719 0.959278 1645029
0.781918 -11.741931 0.625686 1645029
1.300115 -11.466600 1.084315 1645029
1.103049 -11.756535 1.275681 1645029
0.596634 -11.485692 0.605171 1645029
1.246220 -11.625251 1.230890 1645029
0.634234 -11.450367 0.857211 1645029
0.441334 -11.199144 1.161820 1645029
0.349094 -11.692122 0.941256 1645029
0.973015 -11.073878 1.117651 1645029
1.066602 -11.257958 1.296337 1645029
0.812832 -11.570482 0.896854 1645029
1.009354 -11.660922 1.141081 1645029
0.634895 -11.669798 1.323856 1645029
0.950214 -11.153009 1.282584 1645029
0.779742 -11.806563 0.667598 1645029
0.900317 -11.897723 0.769457 1645029
0.673141 -11.205549 1.124625 1645029
0.909220 -11.697888 0.859196 1645029
0.740225 -11.416453 0.935541 1645029
1.143194 -11.411083 1.053624 1645029
1.074732 -11.565437 1.111072 1645029
0.625483 -11.617834 0.846440 1645029
0.453209 -11.411738 0.640661 1645029
0.607116 -11.418612 1.322567 1645029
0.634090 -11.443706 0.895955 1645029
1.173822 -11.737508 0.938845 1645029
0.746752 -11.435572 1.075601 1645029
0.855286 -11.052891 1.067543 1645029
0.332940 -11.762276 1.071820 1645029
0.846923 -11.427494 1.149689 1645029
0.582678 -11.802057 1.085040 1645029
0.621626 -11.630066 0.501595 1645029
0.426090 -11.485846 0.872432 1645029
1.030204 -11.600007 1.136132 1645029
0.811164 -11.521900 1.192529 1645029
0.662190 -11.313119 0.686786 1645029
0.919865 -11.339861 0.672786 1645029
0.927040 -11.073577 1.002017 1645029
0.879206 -11.450964 0.890590 1645029
0.715846 -11.471112 0.679457 1645029
1.105359 -11.745957 0.794999 1645029
0.698193 -11.896791 0.974080 1645029
1.205082 -11.520035 0.954733 1645029
0.757703 -11.637842 0.863985 1645029
0.665861 -11.783973 1.339650 1645029
0.715822 -11.340950 0.516755 1645029
1.221247 -11.487627 1.289815 1645029
0.487713 -11.143606 0.740632 1645029
0.513159 -11.262383 0.673518 1645029
0.892425 -11.919879 0.900060 1645029
0.529095 -11.614003 0.857076 1645029
0.831747 -11.896754 0.955478 1645029
0.939348 -11.549160 0.982608 1645029
0.524915 -11.608883 0.999873 1645029
0.680185 -11.223680 0.902491 1645029
0.669169 -10.999464 0.964754 1645029
0.579144 -11.553405 1.417692 1645029
0.674952 -11.611268 1.164590 1645029
0.923900 -11.312560 1.240665 1645029
1.147410 -11.355585 1.141188 1645029
1.244892 -11.378197 1.029580 1645029
0.495961 -11.818174 1.240784 1645029
1.067782 -11.164444 1.041807 1645029
1.190503 -11.493681 1.024703 1645029
0.565058 -11.255834 0.573284 1645029
0.705259 -11.166336 1.246951 1645029
0.814616 -11.065198 1.069586 1645029
0.984171 -11.274661 0.858583 1645029
0.811375 -11.294160 0.533266 1645029
1.102333 -11.463178 1.004697 1645029
1.160441 -11.227914 1.222298 1645029
-4.366817 7.169577 0.463727 10053171
-5.964505 7.104590 0.429300 10053171
-4.434131 6.966279 2.356654 10053171
-5.171590 7.161422 2.884434 10053171
-3.851196 6.993861 0.299496 10053171
-6.697134 6.764158 2.468866 10053171
-4.109733 7.169965 2.551072 10053171
-3.162822 6.953068 1.355648 10053171
-4.403935 6.968962 0.509786 10053171
-3.505838 7.200646 2.563829 10053171
-3.658839 7.176074 2.486622 10053171
-3.271283 6.957654 0.854847 10053171
-3.991884 7.038062 0.168645 10053171
-4.968815 6.801681 1.164765 10053171
-6.812138 6.984869 0.187737 10053171
-4.597466 7.102848 2.218909 10053171
-6.432870 6.971264 1.217703 10053171
-4.675822 6.959255 0.431011 10053171
-6.900151 6.780270 2.820420 10053171
-6.304859 7.231651 2.884478 10053171
-6.071551 7.049928 0.760203 10053171
-6.154256 6.812180 2.803628 10053171
-3.732498 6.867273 2.216975 10053171
-4.808764 7.047060 2.508693 10053171
-6.567554 7.014681 2.625959 10053171
-6.049129 7.134233 1.094661 10053171
-3.413358 7.147313 1.449904 10053171
-4.613299 6.961101 1.340554 10053171
-5.991338 7.219986 2.371310 10053171
-6.685109 7.031566 2.951727 10053171
-6.866086 7.068341 1.122090 10053171
-5.991896 6.753072 0.152330 10053171
-6.138759 7.026391 1.956055 10053171
-3.892718 6.966214 0.591213 10053171
-4.716627 7.158862 0.123196 10053171
-5.873525 7.169143 2.076843 10053171
-4.853923 6.956632 1.404575 10053171
-5.511165 7.220011 2.746168 10053171
-5.065363 6.783449 1.316316 10053171
-6.171623 6.975897 2.533609 10053171
-4.484909 6.911920 2.133888 10053171
-4.107065 7.091587 1.120201 10053171
-3.881700 6.775419 0.883421 10053171
-4.715359 6.930812 2.253478 10053171
-5.554078 6.950598 0.628777 10053171
-3.812173 7.054773 1.161506 10053171
-3.502923 7.046379 2.109777 10053171
-4.292215 7.176945 0.703140 10053171
-4.119174 7.241618 2.566988 10053171
-5.279929 6.975191 1.603112 10053171
-6.742709 7.073816 2.631783 10053171
-5.665241 6.968258 1.206384 10053171
-5.794261 6.853292 2.767588 10053171
-3.551536 6.865814 2.696918 10053171
-3.068115 6.885529 0.620801 10053171
-5.028083 7.042368 2.161197 10053171
-3.522785 7.050699 0.795773 10053171
-5.429899 7.032724 1.609003 10053171
-3.354404 7.073203 2.159691 10053171
-6.463693 7.187194 0.020182 10053171
-6.367276 6.745199 2.585785 10053171
-4.387607 6.940889 2.939557 10053171
-6.321383 6.928283 0.883071 10053171
-3.750488 7.181135 1.042950 10053171
-3.571979 7.072436 2.664602 10053171
-4.183449 6.920652 2.152888 10053171
-6.352140 6.822576 1.064117 10053171
-3.783788 7.001941 1.935114 10053171
-3.899227 7.065343 1.252274 10053171
-5.444873 7.199519 0.701462 10053171
-5.914917 6.957222 2.511183 10053171
-3.278963 6.928725 1.502303 10053171
-6.803319 6.753923 2.294286 10053171
-3.698198 7.002635 1.002044 10053171
-6.494591 7.216466 1.578905 10053171
-5.290988 6.974117 0.860523 10053171
-6.480976 6.870905 0.458851 10053171
-4.542710 7.090501 2.271472 10053171
-6.761220 7.158232 1.139753 10053171
-4.015718 6.900688 0.273426 10053171
-5.776353 7.222606 0.708187 10053171
-6.971611 7.069819 2.922645 10053171
-3.120404 7.064296 2.161777 10053171
-4.147049 7.101024 0.011595 10053171
-4.443159 7.181319 1.360622 10053171
-6.610635 7.230823 0.448440 10053171
-5.836364 6.859910 0.144563 10053171
-3.241334 6.872984 0.144557 10053171
-6.522820 6.904975 1.337046 10053171
-5.966375 6.861013 0.012472 10053171
-5.426434 7.046418 1.780536 10053171
-6.386168 6.992892 2.964981 10053171
-6.077404 6.832608 2.952251 10053171
-4.243821 7.217728 1.424852 10053171
-4.288711 7.095333 2.219054 10053171
-3.921475 7.197875 2.395299 10053171
-5.673629 7.212564 0.415394 10053171
-5.341431 6.908917 0.459873 10053171
-3.330456 6.965164 0.991082 10053171
-6.879240 6.959879 0.245046 10053171
-4.468921 6.793167 1.769274 10053171
-6.210758 7.211978 1.544129 10053171
-3.850800 7.190262 0.869010 10053171
-3.793639 6.964868 2.084178 10053171
-4.801467 7.128456 1.227529 10053171
-5.657270 7.255657 1.600583 10053171
-4.230127 6.961741 0.417382 10053171
-5.529740 7.213588 0.315256 10053171
-3.252709 7.075757 0.139898 10053171
-5.117930 6.769809 1.797078 10053171
-5.631933 7.048991 2.645080 10053171
-5.449427 6.873148 2.366637 10053171
-4.456972 6.924751 0.698837 10053171
-4.760168 6.939142 2.318700 10053171
-6.484529 6.961288 1.155139 10053171
-5.740447 6.796030 1.376878 10053171
-4.571990 6.918690 1.786723 10053171
-4.052051 7.063631 2.554369 10053171
-3.323102 7.046659 0.189646 10053171
-4.650279 6.761170 1.409593 10053171
-3.800764 7.204836 0.831438 10053171
-5.192948 6.865637 0.214487 10053171
-6.432528 6.756831 0.279285 10053171
-5.585242 7.021459 0.832556 10053171
-3.147927 7.190554 1.559441 10053171
-5.387718 7.071168 2.723181 10053171
-5.310531 6.931581 2.695714 10053171
-4.405683 6.906415 0.779713 10053171
-6.981452 7.118017 2.667939 10053171
-4.265364 7.055998 2.890247 10053171
-4.864321 6.962229 0.257486 10053171
-6.485514 6.899237 2.241087 10053171
-5.345567 6.904850 1.751628 10053171
-5.248218 7.051623 1.624519 10053171
-4.661925 6.860999 0.814273 10053171
-3.261731 6.850757 0.435562 10053171
-4.006797 6.942786 1.209215 10053171
-3.759719 7.231694 0.785544 10053171
-5.115050 7.038560 2.765650 10053171
-4.748401 7.175728 1.085844 10053171
-5.635737 6.781502 2.543159 10053171
-5.393151 7.161841 2.278671 10053171
-6.063488 6.990274 2.964988 10053171
-3.701061 6.927342 1.071193 10053171
-4.239773 7.092436 2.736553 10053171
-5.936049 7.036314 0.655096 10053171
-4.967894 6.815323 2.312314 10053171
-3.933700 6.830904 1.357362 10053171
-6.018484 7.179141 1.751752 10053171
-3.629554 7.190790 0.398168 10053171
-5.866477 6.917699 2.258428 10053171
-6.568663 6.889265 1.763522 10053171
-4.767679 6.795465 2.787819 10053171
-6.481196 7.160211 1.218349 10053171
-3.585373 6.998655 1.080803 10053171
-6.275170 6.823164 1.540399 10053171
-3.001125 6.834618 1.561211 10053171
-6.387144 7.230136 0.954258 10053171
-4.790927 7.020777 1.232497 10053171
-6.409529 7.091562 0.935693 10053171
-6.902256 6.882708 2.233943 10053171
-3.719130 7.241380 1.813914 10053171
-4.230542 7.181304 0.798131 10053171
-6.337454 6.792516 2.945299 10053171
-3.051697 6.803804 2.283101 10053171
-6.435134 6.931670 1.482976 10053171
-6.311573 6.998593 0.988455 10053171
-5.152855 6.794132 1.219308 10053171
-3.956559 7.170496 0.946668 10053171
-6.423975 7.088927 0.860159 10053171
-6.240215 6.762545 2.100143 10053171
-3.522652 7.043373 0.946962 10053171
-5.310273 6.954099 2.323457 10053171
-4.492963 6.772239 0.602064 10053171
-5.559519 7.195877 0.189462 10053171
-3.609173 6.919157 1.826616 10053171
-7.007086 7.188415 2.101810 10053171
-6.191858 7.159364 1.936327 10053171
-4.698733 6.903498 0.437969 10053171
-5.557927 6.955470 1.725452 10053171
-6.752969 6.777383 1.272498 10053171
-5.581111 6.809573 1.488333 10053171
-6.415935 6.893820 2.028095 10053171
-5.967095 6.766930 1.062918 10053171
-5.772233 6.771409 2.093871 10053171
-5.547621 6.796615 1.548261 10053171
-3.376138 7.064731 2.627093 10053171
-5.023884 7.029691 0.355255 10053171
-4.199361 7.183331 0.542260 10053171
-5.059981 7.136447 0.833190 10053171
-6.401408 6.933348 2.856785 10053171
-6.879239 6.841302 2.548582 10053171
-6.714188 6.742562 0.409901 10053171
-3.263853 7.089330 1.587147 10053171
-6.026081 6.758151 2.608066 10053171
-4.059112 6.930867 1.565212 10053171
-6.718368 7.214190 0.620287 10053171
-6.911178 6.948832 2.968601 10053171
-4.479350 6.920095 1.936953 10053171
-4.885927 7.078777 2.559353 10053171
-3.967515 7.132881 0.788434 10053171
-4.139784 7.243364 0.503199 10053171
-3.899559 6.783791 1.132244 10053171
-3.485521 7.224158 2.465967 10053171
-3.371212 7.183134 0.194528 10053171
-3.156299 6.797086 0.438777 10053171
-4.783245 7.207600 1.107812 10053171
-6.926220 7.081469 0.593840 10053171
-6.259773 6.756430 1.872742 10053171
-6.650642 6.934367 0.617959 10053171
-6.368948 7.174665 1.722823 10053171
-6.427308 6.822247 1.111257 10053171
-4.980879 6.850537 0.297056 10053171
-5.303657 7.029041 1.134542 10053171
-6.005467 7.074842 1.259913 10053171
-3.173827 7.015231 2.071121 10053171
-4.527409 6.916813 0.165428 10053171
-6.060997 6.827807 0.171790 10053171
-3.654295 7.156421 0.325767 10053171
-3.338346 7.196620 2.610397 10053171
-4.033830 6.915188 2.683737 10053171
-4.125057 6.840632 2.979511 10053171
-5.536431 7.103052 1.939608 10053171
-4.323308 7.156768 0.725368 10053171
-4.261122 6.942410 0.583048 10053171
-3.607847 7.142066 0.600239 10053171
-3.726513 6.951829 0.929193 10053171
-4.648026 7.017855 0.626957 10053171
-4.161631 6.943959 0.197632 10053171
-6.534940 6.801214 2.362483 10053171
-4.716243 7.151309 0.514763 10053171
-5.167235 6.981372 1.485427 10053171
-6.454743 7.227745 1.304660 10053171
-6.965147 7.015659 2.086634 10053171
-6.583001 7.237473 1.473886 10053171
-5.035610 7.135674 2.881593 10053171
-4.713993 6.855497 0.726166 10053171
-4.296881 6.910162 1.306843 10053171
-5.439875 6.833879 2.057082 10053171
-4.007950 6.781758 2.813444 10053171
-5.946235 7.019973 1.400726 10053171
-6.729128 6.776426 0.259311 10053171
-3.302406 7.127533 2.693748 10053171
-5.072558 7.063926 1.737283 10053171
-5.861020 7.199484 0.501609 10053171
-6.240854 6.885643 1.077709 10053171
-6.953095 7.065487 1.610304 10053171
-5.731559 7.213143 2.557907 10053171
-6.229585 6.944653 2.049715 10053171
-3.789093 6.949937 1.357150 10053171
-5.721581 7.148435 0.871608 10053171
-3.119404 6.823326 0.970141 10053171
-3.913149 6.849140 1.099276 10053171
-5.353365 7.190427 1.615011 10053171
-3.499985 6.771059 0.840434 10053171
-4.680165 7.262831 1.554692 10053171
-3.656641 7.007487 2.215107 10053171
-4.582857 7.130887 2.692268 10053171
-4.907978 7.092639 2.098805 10053171
-6.902564 6.795034 2.377951 10053171
-3.414356 7.114521 0.858791 10053171
-5.545628 7.074974 2.935248 10053171
-4.819528 6.933806 0.684651 10053171
-4.587233 7.011702 2.183594 10053171
-6.916524 7.018201 2.199943 10053171
-3.650378 6.866642 1.225493 10053171
-4.336699 6.913322 0.820114 10053171
-6.440511 6.794966 2.062170 10053171
-6.053085 6.794724 2.082446 10053171
-4.838630 6.776403 0.952695 10053171
-3.713620 6.863967 0.015417 10053171
-4.878075 7.118034 2.470170 10053171
-3.767872 7.016341 2.486231 10053171
-5.173204 7.084330 1.504004 10053171
-6.248645 6.872534 1.593156 10053171
-6.664917 7.180969 2.911834 10053171
-3.947000 6.935468 0.953076 10053171
-6.252505 7.057620 0.943432 10053171
-4.890458 7.157683 1.512108 10053171
-3.285757 7.214936 0.911659 10053171
-6.350080 7.086257 1.853123 10053171
-5.700580 6.822583 1.317456 10053171
-3.566002 6.914893 0.419836 10053171
-5.630040 6.775651 2.107430 10053171
-4.293346 7.253497 0.449612 10053171
-3.206584 7.004025 1.450808 10053171
-3.102922 6.941118 1.809416 10053171
-4.063031 6.768778 0.893761 10053171
-4.284843 7.207514 1.323023 10053171
-3.093216 6.868966 0.306863 10053171
-4.019558 7.112193 1.442524 10053171
-5.432359 6.925228 1.063187 10053171
-3.993476 6.965358 0.362447 10053171
-3.789279 6.936299 0.169559 10053171
-5.722922 7.245533 1.872272 10053171
-5.697820 7.187837 1.801452 10053171
-6.034245 6.767545 2.365891 10053171
-3.620548 6.946504 0.806353 10053171
-5.221279 7.130221 1.187701 10053171
-5.128847 6.839173 2.494092 10053171
-4.279017 7.199785 0.631476 10053171
-6.971638 7.221184 0.080011 10053171
-4.008988 6.792286 1.109907 10053171
-4.054796 6.797232 1.844138 10053171
-5.402582 6.845431 2.748140 10053171
-3.293344 7.057472 1.531520 10053171
-3.323075 7.219387 0.010960 10053171
-3.225535 6.809174 1.479829 10053171
-4.624756 6.948139 1.575892 10053171
-4.957021 6.836502 0.134284 10053171
-6.809388 6.840629 1.559919 10053171
-5.549775 6.912043 0.149035 10053171
-6.905526 6.917558 1.417409 10053171
-4.203077 6.775734 1.317335 10053171
-6.378425 6.920301 0.206606 10053171
-3.367889 6.747128 2.826859 10053171
-4.117388 6.786818 1.412055 10053171
-4.738048 6.844378 1.919641 10053171
-6.162779 6.797682 0.128201 10053171
-5.192750 7.155380 1.831981 10053171
-6.268034 7.100503 2.268318 10053171
-5.155167 7.079116 1.390521 10053171
-6.460750 6.943873 1.309115 10053171
-5.468265 7.077609 0.295549 10053171
-4.956199 7.202423 1.786655 10053171
-3.855799 6.982842 1.633067 10053171
-5.419753 7.090398 2.738185 10053171
-5.716257 7.071787 2.974519 10053171
-6.831343 7.121486 0.788750 10053171
-4.908916 7.167198 1.112428 10053171
-6.961089 6.937949 0.295135 10053171
-6.752779 6.970776 1.039869 10053171
-4.310164 6.796590 1.952259 10053171
-3.981604 7.163891 0.051905 10053171
-3.122967 7.040459 1.320351 10053171
-3.867753 7.027789 0.409588 10053171
-3.114872 6.752533 1.716823 10053171
-3.482032 6.858867 0.312266 10053171
-6.616310 7.070652 1.205625 10053171
-4.079499 7.137647 0.746069 10053171
-3.795018 7.023288 2.066143 10053171
-3.778774 7.027404 1.241593 10053171
-4.629937 7.120998 2.682248 10053171
-4.587827 7.220477 2.353051 10053171
-6.237681 7.154668 0.867965 10053171
-3.094583 6.890556 0.014712 10053171
-4.402112 6.752174 0.501685 10053171
-5.202932 6.999395 2.862495 10053171
-5.330913 6.985338 2.474277 10053171
-3.682747 7.230418 1.074450 10053171
-4.827164 6.772959 0.081689 10053171
-4.752156 7.122467 0.918500 10053171
-4.078265 6.859925 1.524447 10053171
-3.535287 6.989925 0.958864 10053171
-6.965481 7.108902 0.897460 10053171
-3.898757 6.919174 1.362297 10053171
-3.589392 6.923592 2.725479 10053171
-5.465147 6.828385 2.603362 10053171
-5.412306 6.780559 2.396442 10053171
-3.025848 6.808933 2.918826 10053171
-6.154461 6.835327 2.054923 10053171
-4.434988 7.127685 0.762703 10053171
-4.514645 7.037100 0.701884 10053171
-3.192534 7.246183 2.723587 10053171
-5.869457 7.210884 2.526066 10053171
-4.223182 6.911904 2.138712 10053171
-3.179161 6.941103 0.503412 10053171
-4.995213 6.841186 1.837379 10053171
-3.739192 6.953007 0.106587 10053171
-4.306549 7.218520 0.518437 10053171
-6.199435 6.885728 1.542698 10053171
-3.862235 7.216764 0.581157 10053171
-5.439285 6.769298 1.458790 10053171
-3.233640 6.819451 2.173100 10053171
-3.446798 6.981401 0.331354 10053171
-3.943897 7.230283 2.067774 10053171
-6.192356 7.202148 0.259653 10053171
-6.559801 6.908053 0.520644 10053171
-4.620173 6.899076 1.238978 10053171
-5.137740 6.805187 0.009345 10053171
-5.471712 6.804113 0.510583 10053171
-3.780789 6.796988 0.405163 10053171
-5.343341 7.222322 0.701249 10053171
-3.172951 7.167800 1.378377 10053171
-4.928758 6.760623 2.558363 10053171
-6.731753 7.124892 1.623987 10053171
-4.817395 6.787817 1.179995 10053171
-4.084357 7.039486 1.645015 10053171
-4.061941 7.038774 1.605750 10053171
-3.507953 6.895225 2.917236 10053171
-4.084437 7.155632 2.910257 10053171
-6.616397 6.899845 1.737127 10053171
-5.185597 7.062234 1.681264 10053171
-5.096249 7.170341 2.141172 10053171
-4.510003 6.862488 0.030995 10053171
-5.336904 6.769745 2.591870 10053171
-5.169212 6.756472 1.349908 10053171
-4.072341 6.888182 0.704423 10053171
-4.397024 7.030650 1.031471 10053171
-5.237641 7.130024 0.697762 10053171
-3.726069 6.764735 1.905053 10053171
-3.662833 7.239281 2.766262 10053171
-3.356178 7.142134 1.002734 10053171
-4.071454 7.214120 2.642980 10053171
-3.084004 7.189811 2.851907 10053171
-3.578161 7.036790 1.677891 10053171
-5.305204 7.130124 0.078339 10053171
-3.898467 6.947835 2.310892 10053171
-6.409880 7.041104 2.541902 10053171
-3.121491 7.088075 2.785624 10053171
-4.863328 7.174873 0.116001 10053171
-5.886569 6.877227 0.149730 10053171
-4.264455 7.047215 0.574424 10053171
-4.633169 7.143399 0.013212 10053171
-6.622446 7.221515 1.389542 10053171
-6.050558 6.943507 0.084058 10053171
-5.839581 6.782727 2.892789 10053171
-4.484581 7.031305 2.853528 10053171
-5.626338 7.180589 2.547559 10053171
-3.132665 6.968179 0.622211 10053171
-5.757556 6.949040 0.597133 10053171
-4.080681 7.099000 1.536945 10053171
-4.678724 6.769558 1.659007 10053171
-5.005192 7.113636 1.232732 10053171
-4.426889 6.973991 0.506276 10053171
-5.310314 7.231678 0.332812 10053171
-3.859687 6.967214 0.833921 10053171
-4.246639 6.941926 2.681002 10053171
-5.263516 7.129129 1.720554 10053171
-3.030203 6.986747 0.258303 10053171
-5.433203 6.875904 1.034076 10053171
-6.576560 7.077258 2.731974 10053171
-5.119202 6.816373 1.649974 10053171
-3.040956 6.908597 0.740180 10053171
-6.568213 6.983638 1.160004 10053171
-3.099739 6.991513 0.207393 10053171
-6.257123 7.245033 1.915799 10053171
-3.709578 6.929504 1.357214 10053171
-4.175219 7.105157 0.198530 10053171
-3.836588 7.155852 1.837499 10053171
-4.173624 7.009783 1.343054 10053171
-3.094811 6.815152 0.752110 10053171
-5.594059 7.238418 0.123176 10053171
-5.686502 7.003973 2.803643 10053171
-4.790564 6.947291 1.812306 10053171
-5.949039 7.154862 2.050463 10053171
-3.332565 7.099337 0.987074 10053171
-6.486464 6.797562 0.734822 10053171
-6.585686 7.085856 1.903384 10053171
-3.751030 6.860198 0.038768 10053171
-4.620282 7.126947 2.008141 10053171
-5.602392 6.746006 2.676084 10053171
-3.960549 7.103103 0.429394 10053171
-3.909389 6.799250 1.642761 10053171
-5.368543 7.044271 0.792964 10053171
-4.840559 6.834467 1.751422 10053171
-5.779774 6.945804 1.078711 10053171
-6.626563 6.857929 0.171738 10053171
-4.522736 6.982224 1.710326 10053171
-3.727012 7.120050 2.792273 10053171
-5.697062 6.860184 0.068460 10053171
-5.673949 7.057669 0.368024 10053171
-4.255129 6.849781 0.849151 10053171
-5.870103 6.850072 2.053661 10053171
-4.904651 6.843990 2.904644 10053171
-3.174441 7.001261 2.010370 10053171
-3.621141 6.907606 1.073662 10053171
-4.780230 7.141297 2.860625 10053171
-4.515290 7.145118 1.474620 10053171
-3.451459 7.087694 1.050960 10053171
-3.144062 7.170111 0.498964 10053171
-5.432987 7.092502 0.811914 10053171
-6.659686 6.971193 2.579741 10053171
-3.292886 6.896389 2.392813 10053171
-5.859508 7.148052 2.069870 10053171
-4.682243 6.929770 1.449956 10053171
-4.307482 6.841043 2.110690 10053171
-3.006773 6.755363 2.485998 10053171
-3.041764 6.984989 1.080588 10053171
-4.377625 7.183386 0.294464 10053171
-5.478142 7.226869 2.286545 10053171
-5.594190 7.121721 1.121821 10053171
-3.870162 6.893769 1.847640 10053171
-4.675849 7.095380 2.914863 10053171
-4.722640 7.166942 2.695851 10053171
-6.279908 7.048666 1.584531 10053171
-3.133523 7.180943 0.317651 10053171
-4.514549 6.878881 2.781943 10053171
-3.035794 6.940504 1.114478 10053171
-4.456568 7.253341 2.842985 10053171
-5.025133 6.905142 2.683439 10053171
-3.211324 6.963712 0.500718 10053171
-5.985132 6.798338 0.796913 10053171
-4.697373 7.165108 0.304554 10053171
-3.011466 7.058680 0.557866 10053171
-5.429769 6.905446 1.101762 10053171
-3.927524 6.815175 0.598037 10053171
-6.057134 6.973860 2.714250 10053171
-3.319391 6.913725 0.565950 10053171
-5.737164 6.757461 2.833019 10053171
-4.201797 6.820107 0.655917 10053171
-6.608939 6.980512 2.965687 10053171
-6.912710 7.248561 2.516266 10053171
-6.898738 7.214239 0.757311 10053171
-5.295409 7.008235 2.443366 10053171
-5.204217 6.949850 1.265684 10053171
-3.156711 7.144420 1.905632 10053171
-6.392429 6.943234 1.706609 10053171
-4.091738 6.856999 0.120155 10053171
-3.511533 6.884552 0.024583 10053171
-6.097531 6.881217 1.890168 10053171
-3.112421 7.071611 0.784404 10053171
-3.565448 7.028294 2.740781 10053171
-4.254850 7.036555 2.627265 10053171
-3.441872 6.892853 2.421414 10053171
-5.111885 6.906271 2.877718 10053171
-4.445157 7.113164 1.041288 10053171
-6.601246 6.831319 2.017025 10053171
-3.841879 6.890196 2.285678 10053171
-3.565023 6.967569 1.044659 10053171
-4.273459 6.795475 0.874449 10053171
-3.841105 7.011394 1.008740 10053171
-5.351205 6.970970 2.084848 10053171
-3.224049 6.838720 0.481459 10053171
-3.402178 7.237081 0.631144 10053171
-6.382742 6.772867 1.230155 10053171
-5.794194 7.231267 1.597889 10053171
-3.787246 6.894634 0.804261 10053171
-6.576594 6.872335 1.615897 10053171
-4.366333 6.804968 0.988620 10053171
-5.659306 6.915710 0.061208 10053171
-4.401574 7.024232 1.175527 10053171
-4.185972 6.907362 2.132746 10053171
-3.251017 7.184066 1.286965 10053171
-3.758834 7.211312 2.655935 10053171
-5.894814 6.808177 0.056281 10053171
-5.669207 6.796140 1.572424 10053171
-4.939558 6.949438 2.466281 10053171
-6.058761 7.076250 1.112798 10053171
-6.769643 7.246395 2.138905 10053171
-5.462324 6.877642 1.249423 10053171
-6.181551 6.902122 2.912648 10053171
-5.545187 6.795164 2.412615 10053171
-4.522126 7.182127 1.545135 10053171
-5.279208 6.875849 0.646153 10053171
-6.016512 7.234956 1.491376 10053171
-3.513899 6.861145 2.531514 10053171
-5.681681 6.935571 2.280150 10053171
-6.064097 6.968257 1.452936 10053171
-6.565697 6.884703 1.268213 10053171
-6.763222 7.096706 2.621623 10053171
-6.568734 6.858723 1.846786 10053171
-6.085770 6.971154 2.802821 10053171
-4.226569 7.193077 2.765224 10053171
-4.905594 7.062649 2.194891 10053171
-4.864501 7.146245 0.057248 10053171
-4.082467 6.847086 1.586044 10053171
-6.975974 7.248984 0.325672 10053171
-5.501047 7.152173 0.021338 10053171
-3.505968 6.810461 0.739022 10053171
-6.082207 6.797097 0.871908 10053171
-3.534325 6.815541 2.826351 10053171
-3.535430 7.176454 0.905546 10053171
-5.186269 6.804815 2.948727 10053171
-6.946749 6.864792 2.333953 10053171
-4.332905 6.852081 0.564255 10053171
-4.559169 6.864493 0.872324 10053171
-3.501399 6.828649 0.310817 10053171
-6.426978 6.980839 1.123910 10053171
-5.288745 7.221784 1.670591 10053171
-4.228275 7.191078 1.728921 10053171
-5.739357 7.129020 0.951252 10053171
-4.641005 6.950601 2.948277 10053171
-5.841387 7.017731 1.046417 10053171
-5.188019 7.152170 0.291556 10053171
-4.809117 6.869992 2.735427 10053171
-3.344358 6.991306 0.799622 10053171
-3.894096 7.022011 1.805638 10053171
-5.789267 6.994898 1.293802 10053171
-3.339218 6.959877 1.647607 10053171
-2.998466 7.213981 0.812097 10053171
-3.216985 7.219760 2.795561 10053171
-3.161608 7.174849 2.295723 10053171
-6.062899 6.914102 2.249369 10053171
-6.812973 7.044894 2.069037 10053171
-4.058012 6.779894 1.159056 10053171
-3.205558 7.228297 1.689664 10053171
-6.934367 7.152074 1.477313 10053171
-4.299695 6.897885 1.117605 10053171
-5.296896 7.038901 0.092451 10053171
-6.791446 7.140595 2.875279 10053171
-4.205543 6.826434 2.431668 10053171
-3.442493 7.045866 2.621286 10053171
-3.072730 6.763048 1.145429 10053171
-3.495301 7.214522 0.561840 10053171
-3.473035 6.951838 2.312648 10053171
-4.097545 7.093697 2.705189 10053171
-3.742244 7.046650 2.903674 10053171
-5.760052 6.928084 0.463016 10053171
-4.754736 7.117928 1.553600 10053171
5.879205 -5.964627 1.149157 8342706
6.120727 -5.721920 1.799131 8342706
5.437119 -6.092510 3.622385 8342706
6.182745 -6.486816 0.561194 8342706
5.461663 -6.217190 3.038564 8342706
6.183634 -6.453717 4.074586 8342706
6.360367 -6.071992 4.901638 8342706
6.220749 -5.629933 0.313024 8342706
6.015881 -6.178764 3.998205 8342706
6.180075 -5.982296 0.473605 8342706
5.581197 -5.669280 2.005849 8342706
6.179719 -6.433528 3.325050 8342706
6.532972 -5.800151 4.826011 8342706
6.041928 -5.621606 2.415678 8342706
6.466351 -5.976147 1.302736 8342706
6.078991 -6.227941 2.943548 8342706
6.521204 -5.873305 0.310131 8342706
6.345621 -6.423497 2.972664 8342706
6.296139 -5.530979 2.203402 8342706
6.467886 -6.360268 2.669828 8342706
6.193264 -6.100512 2.935173 8342706
6.283970 -5.588210 2.029548 8342706
5.630975 -6.289351 3.508427 8342706
5.810997 -5.588852 0.193101 8342706
5.655659 -5.767994 0.512338 8342706
6.513138 -5.795144 1.425734 8342706
6.030225 -5.414809 0.774840 8342706
6.209216 -6.306926 1.502943 8342706
6.417707 -6.163262 1.593803 8342706
6.541125 -6.036308 3.473256 8342706
5.610335 -6.187607 3.388696 8342706
5.838809 -6.200250 4.699028 8342706
5.792490 -5.539558 2.039278 8342706
6.333245 -5.769948 2.907185 8342706
6.260056 -5.919690 3.531747 8342706
5.438750 -6.139546 0.517670 8342706
6.407595 -5.821053 1.968247 8342706
5.919950 -5.782191 1.718131 8342706
5.769552 -5.840353 3.150418 8342706
5.642619 -6.161472 1.850773 8342706
5.814636 -5.523435 0.790274 8342706
6.471916 -6.083608 0.393701 8342706
6.007446 -6.123340 4.301803 8342706
5.582116 -6.184207 4.575027 8342706
5.760241 -5.767369 4.172186 8342706
5.749399 -5.917134 3.114923 8342706
6.020890 -5.999164 1.444352 8342706
6.410723 -6.276423 2.007880 8342706
5.634039 -5.709569 3.084266 8342706
6.304342 -6.098390 3.904368 8342706
5.383634 -6.002287 4.578123 8342706
5.941828 -5.467214 4.486660 8342706
5.491842 -5.956543 3.224434 8342706
6.422059 -5.955770 1.939073 8342706
6.172446 -6.494564 4.292553 8342706
6.394563 -5.883833 1.194911 8342706
5.403129 -5.946516 2.354138 8342706
5.479973 -5.759572 4.318567 8342706
6.439779 -5.996032 3.001077 8342706
6.111532 -5.663906 4.834640 8342706
6.264941 -5.855275 2.145130 8342706
5.808365 -5.490754 2.081015 8342706
5.855630 -6.309571 3.527758 8342706
6.003515 -5.500072 3.505381 8342706
5.751624 -6.026390 4.533638 8342706
5.845375 -6.094932 1.749455 8342706
6.175419 -5.741862 1.986890 8342706
6.168285 -6.292841 1.979990 8342706
5.751070 -6.226993 1.527681 8342706
5.602888 -6.259884 1.057579 8342706
5.856390 -6.377094 1.233190 8342706
5.965440 -5.948834 3.020080 8342706
6.074481 -6.108048 4.756783 8342706
5.787169 -5.822917 0.607173 8342706
5.727355 -6.091960 2.526244 8342706
5.963170 -5.992789 3.150370 8342706
5.476574 -6.194808 1.909907 8342706
6.071500 -5.606154 0.152080 8342706
6.449929 -5.943195 1.229746 8342706
6.557695 -6.075357 3.888380 8342706
6.020297 -6.222150 3.281994 8342706
5.577538 -5.639180 1.970155 8342706
6.112851 -6.273354 4.440276 8342706
6.117388 -5.596988 4.635536 8342706
6.434106 -5.670757 0.216290 8342706
5.971433 -6.164692 2.698839 8342706
6.222293 -5.977512 2.429476 8342706
5.505468 -6.172675 3.686452 8342706
6.053667 -6.320325 1.974414 8342706
5.871364 -6.316139 1.010691 8342706
6.190491 -6.425768 4.434396 8342706
5.577682 -5.914745 3.868646 8342706
5.701568 -6.376527 2.511693 8342706
6.111053 -6.510685 1.411997 8342706
5.831472 -5.881120 4.534880 8342706
5.601689 -5.773099 2.336712 8342706
6.454200 -5.836367 2.629707 8342706
6.111265 -6.420386 0.601213 8342706
5.555353 -6.138763 1.868155 8342706
6.313205 -6.039920 1.867621 8342706
6.580834 -6.064857 3.641627 8342706
5.664448 -6.374999 0.620049 8342706
5.676885 -6.461039 0.773404 8342706
6.232601 -6.026972 2.573526 8342706
5.617316 -6.015237 3.285152 8342706
5.785798 -5.578234 4.697958 8342706
5.767213 -6.245573 4.027579 8342706
5.643023 -5.850239 1.220320 8342706
6.416608 -5.970236 4.439022 8342706
5.836009 -5.615137 3.501841 8342706
6.013706 -5.805923 0.916803 8342706
6.154795 -6.375142 1.763238 8342706
6.146437 -5.800334 1.593116 8342706
5.959216 -5.754107 4.085178 8342706
6.067328 -6.207073 4.592998 8342706
5.781740 -6.161803 0.219535 8342706
5.900511 -5.644160 1.671709 8342706
6.205389 -5.613698 3.847882 8342706
5.721969 -5.978553 3.103457 8342706
5.797062 -6.189009 2.598412 8342706
5.697229 -5.862219 2.888822 8342706
5.610901 -6.225645 3.725635 8342706
5.897292 -6.588037 1.081011 8342706
6.119357 -5.808192 1.662098 8342706
6.297947 -6.315760 0.537056 8342706
6.335189 -5.695524 2.292600 8342706
6.157730 -5.562973 3.070014 8342706
5.673125 -5.686832 1.226509 8342706
5.993600 -5.721210 3.689780 8342706
6.201439 -6.020017 4.396363 8342706
6.515268 -6.118360 2.682776 8342706
6.339421 -6.147011 3.350448 8342706
5.677762 -6.306777 4.694677 8342706
6.281338 -5.530620 4.634425 8342706
5.993987 -6.226139 3.568022 8342706
5.743368 -5.643996 2.597532 8342706
6.102853 -6.556628 4.492134 8342706
5.531576 -5.777863 4.276458 8342706
5.516934 -6.148715 2.909700 8342706
6.095277 -5.645199 2.472546 8342706
5.682909 -5.880406 4.052380 8342706
5.872716 -5.433713 3.062393 8342706
6.497008 -5.805878 0.123245 8342706
6.063731 -5.442595 0.409011 8342706
6.381291 -5.727066 0.046268 8342706
6.053830 -5.768550 0.505734 8342706
5.652822 -5.714060 3.087990 8342706
6.320749 -6.219659 1.524978 8342706
6.126628 -5.796510 2.495665 8342706
5.754804 -6.148788 1.606238 8342706
5.994660 -6.188127 0.116304 8342706
5.848248 -6.056326 3.749274 8342706
5.744589 -6.150927 3.403205 8342706
6.299169 -6.250238 4.584574 8342706
6.322808 -6.487693 3.364065 8342706
6.026052 -6.570427 4.163329 8342706
6.020044 -5.668582 4.226787 8342706
5.707603 -5.624780 4.218658 8342706
6.206838 -5.889946 1.912650 8342706
5.511133 -6.235263 4.634284 8342706
5.893109 -6.333527 4.699963 8342706
6.047768 -6.448639 1.308444 8342706
6.119125 -5.624100 2.019238 8342706
5.950664 -6.202976 1.704809 8342706
6.011138 -6.031719 4.535104 8342706
6.085636 -5.619047 1.144999 8342706
6.135686 -6.299713 1.580221 8342706
5.738586 -5.747479 0.098449 8342706
6.341259 -6.144403 3.053016 8342706
6.102285 -5.578745 2.649214 8342706
6.271348 -5.841710 1.038427 8342706
5.628100 -6.082502 1.910333 8342706
5.703689 -5.669697 2.250124 8342706
5.797028 -5.644355 2.571680 8342706
5.513237 -5.925636 3.592508 8342706
6.016983 -5.835097 1.896189 8342706
5.713169 -5.882667 1.461640 8342706
5.751996 -6.275575 2.844137 8342706
5.993548 -6.310421 4.907891 8342706
5.999198 -6.454048 4.826328 8342706
6.073253 -5.596511 3.847450 8342706
5.633743 -5.588811 2.013726 8342706
6.560472 -6.044043 4.249989 8342706
5.662702 -5.589918 1.944510 8342706
6.090253 -6.467481 1.693731 8342706
5.602798 -6.223647 1.858415 8342706
6.315218 -5.904228 3.503730 8342706
6.472903 -5.840585 3.821561 8342706
6.441370 -6.126085 3.864813 8342706
6.131303 -5.861669 3.344153 8342706
6.163306 -6.403198 1.017030 8342706
5.660616 -6.154177 3.348255 8342706
6.499694 -6.344597 0.130424 8342706
6.379535 -6.090376 4.936777 8342706
5.424057 -5.907750 3.778071 8342706
6.486334 -6.022270 0.219851 8342706
6.237194 -5.663692 3.716805 8342706
6.115949 -6.001445 2.482137 8342706
6.263673 -5.968525 0.683029 8342706
6.409498 -5.975150 2.424657 8342706
6.098250 -6.512656 2.771693 8342706
6.417741 -6.083414 1.388027 8342706
6.209430 -5.645051 1.097944 8342706
6.247415 -5.588091 4.326096 8342706
6.174531 -6.441917 0.719773 8342706
5.640079 -6.059245 3.185204 8342706
6.535147 -5.793764 1.090944 8342706
6.179931 -5.781774 2.587783 8342706
6.000567 -6.076095 2.531041 8342706
6.382948 -5.677392 1.825463 8342706
5.961551 -6.126027 3.836800 8342706
6.506120 -6.011953 1.580758 8342706
5.499111 -6.267202 0.735100 8342706
5.819733 -6.352698 4.994719 8342706
6.475807 -5.756076 3.978288 8342706
6.237292 -6.028187 0.105442 8342706
6.261285 -5.808830 3.573387 8342706
6.487735 -6.080709 4.572896 8342706
5.907366 -6.078402 3.134247 8342706
6.379961 -6.243066 1.764979 8342706
6.014324 -5.425989 1.971354 8342706
5.403910 -5.962849 4.261332 8342706
6.099287 -6.066743 2.973919 8342706
6.239943 -5.944812 3.234065 8342706
5.644916 -6.185443 3.362970 8342706
6.151557 -6.362517 4.392934 8342706
6.097067 -5.522841 4.116359 8342706
5.928627 -5.839418 2.929378 8342706
5.423858 -6.123232 2.048108 8342706
6.309503 -6.416991 4.871866 8342706
5.641961 -6.373069 2.929999 8342706
6.315485 -6.340846 2.379354 8342706
6.435914 -5.809963 1.064624 8342706
6.466225 -5.875323 2.280895 8342706
5.993567 -5.512051 2.067998 8342706
6.238443 -5.748247 0.465159 8342706
5.901568 -6.279282 1.554125 8342706
6.404367 -5.762175 2.451790 8342706
6.372176 -5.540131 4.092704 8342706
6.461302 -6.165591 1.499126 8342706
6.151348 -5.809334 3.234239 8342706
5.713743 -6.405994 3.099416 8342706
6.255514 -5.562582 4.465959 8342706
6.014794 -5.901199 0.773441 8342706
5.577851 -6.346178 4.407319 8342706
5.601513 -5.757562 4.263363 8342706
6.213587 -5.838862 1.375809 8342706
5.755416 -5.779414 1.059623 8342706
5.874863 -6.089318 0.633866 8342706
6.190299 -5.447726 1.188243 8342706
6.272334 -5.534284 1.169200 8342706
5.644595 -6.258312 4.264152 8342706
5.909362 -6.054166 4.945637 8342706
6.199737 -5.557710 3.770442 8342706
5.648200 -6.017917 4.263254 8342706
6.075015 -6.569907 4.296203 8342706
5.700104 -5.720750 3.971466 8342706
5.538588 -6.085366 3.769313 8342706
6.215708 -6.420290 1.051848 8342706
6.573170 -5.964626 0.488484 8342706
5.989146 -5.542344 2.922656 8342706
6.195420 -6.385192 1.662597 8342706
5.515269 -6.216293 3.916126 8342706
5.632319 -6.455558 2.810650 8342706
5.795768 -5.496529 2.245630 8342706
6.536310 -6.246044 2.061374 8342706
6.067608 -6.368207 0.539557 8342706
5.441615 -5.844436 2.600134 8342706
5.843524 -5.682550 2.546208 8342706
6.304604 -6.077094 0.231070 8342706
6.049650 -5.623069 4.352505 8342706
6.535663 -6.305785 4.446027 8342706
5.802883 -6.387472 4.419916 8342706
5.463272 -5.776911 4.350321 8342706
5.954671 -5.495468 1.524375 8342706
6.527572 -6.203692 4.024277 8342706
6.391134 -6.167809 1.419926 8342706
5.827649 -6.179681 3.745935 8342706
6.118239 -6.341850 1.929548 8342706
5.533108 -5.616604 3.370114 8342706
5.804373 -6.462029 3.538492 8342706
5.499309 -5.691509 3.924373 8342706
6.160998 -5.553701 0.049014 8342706
6.334087 -5.978205 2.639155 8342706
6.374820 -6.084285 1.748431 8342706
5.774689 -5.792861 3.231926 8342706
6.026750 -5.823150 3.191562 8342706
6.299943 -6.056176 2.029797 8342706
6.352482 -5.816569 2.205878 8342706
6.064090 -5.805412 0.088495 8342706
5.813545 -6.063255 0.102158 8342706
6.221801 -6.459364 0.879604 8342706
6.357873 -6.463462 0.754026 8342706
6.152957 -6.362133 4.229677 8342706
5.859878 -6.503077 1.817537 8342706
5.607119 -5.891931 0.982937 8342706
5.777034 -5.651044 2.693768 8342706
6.191493 -5.734743 0.401005 8342706
6.093047 -5.402661 2.105273 8342706
6.025667 -6.495285 1.073069 8342706
6.246597 -5.539027 1.304510 8342706
6.467315 -5.675738 3.612609 8342706
6.483019 -6.267460 0.329641 8342706
5.778904 -5.936962 4.026057 8342706
6.156300 -6.090202 1.754683 8342706
6.083505 -6.218304 3.243640 8342706
5.616279 -6.250877 3.703195 8342706
6.543295 -6.148005 1.844095 8342706
6.253351 -6.205871 1.678879 8342706
5.549795 -5.804268 2.459807 8342706
6.375607 -6.403759 2.011554 8342706
6.115925 -6.215178 3.578402 8342706
6.162097 -6.584514 4.305396 8342706
6.445603 -6.383721 3.683458 8342706
6.128966 -5.547651 2.020852 8342706
6.082244 -5.458988 0.889543 8342706
6.137589 -6.432872 1.162725 8342706
5.676939 -6.042868 0.128204 8342706
5.830554 -5.586764 2.623224 8342706
5.814270 -6.396290 2.629335 8342706
6.100648 -5.478847 3.479858 8342706
5.756615 -6.280693 3.364914 8342706
6.313764 -6.330437 1.078216 8342706
5.809928 -6.548428 4.754976 8342706
6.247708 -5.673517 4.909121 8342706
6.006628 -6.473129 1.870931 8342706
5.678956 -5.789864 0.297476 8342706
6.286629 -5.537573 4.299069 8342706
5.597116 -5.843040 4.357975 8342706
6.203791 -5.596527 0.507562 8342706
6.288082 -6.364080 4.027357 8342706
6.178456 -6.543270 0.557302 8342706
6.179585 -5.852672 1.028527 8342706
6.434402 -6.150177 2.775658 8342706
6.045198 -6.395773 3.737236 8342706
6.001174 -5.543197 2.038758 8342706
6.453578 -6.173368 3.311037 8342706
6.124637 -5.444735 0.234429 8342706
5.490478 -5.709771 4.389734 8342706
6.178643 -6.350076 1.665016 8342706
6.440931 -5.610102 1.850534 8342706
5.888573 -6.100375 0.926338 8342706
6.343575 -5.590547 3.696654 8342706
5.635744 -6.124949 3.747561 8342706
6.499212 -5.900062 1.185340 8342706
5.732626 -6.013368 2.438138 8342706
6.266057 -6.339357 2.943114 8342706
5.721776 -6.391289 4.096622 8342706
6.051462 -6.257718 3.898766 8342706
6.395640 -5.568040 4.954037 8342706
6.537293 -6.270604 4.645148 8342706
6.008205 -5.923689 3.894366 8342706
6.167231 -6.380217 4.341837 8342706
5.734019 -6.195928 1.988127 8342706
6.434769 -5.866381 2.101509 8342706
6.453425 -5.988205 2.204081 8342706
5.857765 -5.443918 1.052138 8342706
6.484077 -5.803262 0.274756 8342706
5.855536 -5.464048 1.372262 8342706
6.234546 -5.689826 4.850106 8342706
5.985233 -5.666959 1.241341 8342706
6.493447 -5.792590 2.244229 8342706
5.777663 -6.212549 3.675226 8342706
6.263616 -6.185645 1.518933 8342706
5.982410 -6.383612 3.979524 8342706
6.003827 -5.833044 2.279879 8342706
6.155584 -6.046677 4.103375 8342706
6.158363 -6.411997 4.350621 8342706
6.296489 -5.597816 4.753572 8342706
6.369755 -5.813495 3.616193 8342706
5.999395 -5.804693 3.165839 8342706
6.557185 -5.881204 3.047834 8342706
6.270318 -5.856024 2.840679 8342706
6.290229 -6.323767 2.005405 8342706
5.767611 -5.705079 3.599020 8342706
5.712946 -5.724875 3.061601 8342706
6.269499 -5.975844 1.465492 8342706
6.399708 -6.229263 1.076474 8342706
5.850167 -5.597178 2.968814 8342706
5.529422 -5.896763 0.122597 8342706
5.649746 -5.645980 0.433462 8342706
5.616042 -5.578042 2.870431 8342706
5.987123 -5.525181 2.119924 8342706
5.515134 -6.119391 1.874513 8342706
6.124498 -5.491054 3.460817 8342706
5.423913 -5.895322 4.584204 8342706
5.453660 -5.809683 2.925191 8342706
6.182496 -6.310423 1.851944 8342706
5.552644 -6.391151 0.861202 8342706
5.894671 -6.506752 1.614104 8342706
6.094685 -6.342834 3.428213 8342706
5.966915 -6.496458 4.604451 8342706
6.358757 -6.166550 0.800738 8342706
6.506890 -6.340055 1.438642 8342706
6.548793 -5.904510 3.412463 8342706
5.558804 -6.104321 1.088811 8342706
6.285314 -6.296145 1.955486 8342706
6.167822 -6.291292 2.941996 8342706
6.059114 -6.535597 4.964092 8342706
5.991174 -6.462501 0.630028 8342706
6.309322 -5.761258 1.743436 8342706
6.393275 -5.923566 1.305016 8342706
6.223708 -6.412293 0.489145 8342706
6.294199 -6.138410 2.918788 8342706
6.497128 -6.138823 0.088637 8342706
6.092809 -5.667567 1.258384 8342706
6.480212 -6.265892 4.292726 8342706
6.447429 -5.660036 4.799953 8342706
6.507009 -6.159695 3.627048 8342706
6.326084 -6.333049 1.594384 8342706
5.743850 -6.300800 0.426617 8342706
6.155722 -5.587829 2.705902 8342706
6.227336 -6.034251 3.844426 8342706
6.312459 -5.857882 0.405749 8342706
6.191296 -5.867964 3.940856 8342706
5.772193 -6.403724 3.273597 8342706
6.403300 -6.201223 0.004079 8342706
6.337161 -5.764847 1.365051 8342706
6.295885 -5.996342 4.212523 8342706
6.342517 -6.092338 2.028815 8342706
5.779563 -5.569320 4.387140 8342706
5.837221 -6.011223 0.861455 8342706
6.044219 -5.747343 4.178262 8342706
5.494581 -5.721292 3.999796 8342706
6.454412 -6.123759 1.765234 8342706
6.270275 -6.475868 1.709898 8342706
6.270492 -6.206819 4.644484 8342706
5.525102 -6.336262 1.215059 8342706
6.001018 -6.229009 3.462103 8342706
6.247004 -5.557117 3.794933 8342706
6.038059 -6.569926 3.674093 8342706
5.954967 -6.038162 1.743479 8342706
5.808705 -5.652041 2.734452 8342706
6.174348 -6.326247 0.919222 8342706
6.211760 -5.984588 3.892781 8342706
6.134883 -6.292256 1.971465 8342706
5.761095 -6.139671 1.043656 8342706
6.580509 -6.003404 1.746534 8342706
5.730432 -6.097409 4.318414 8342706
6.480370 -5.768488 1.023281 8342706
5.542551 -5.860403 0.775573 8342706
6.320482 -6.021468 4.994348 8342706
6.177618 -6.534549 4.101104 8342706
6.080371 -6.423982 4.726479 8342706
5.992790 -5.822243 1.395624 8342706
6.524787 -6.170944 4.976374 8342706
6.144582 -6.068023 1.670993 8342706
5.824232 -5.955150 2.072591 8342706
5.727079 -5.964874 3.038426 8342706
6.508993 -6.242004 4.090518 8342706
5.473892 -5.874671 3.608583 8342706
6.166833 -6.090106 0.979051 8342706
5.904054 -6.258878 1.904612 8342706
5.952239 -5.646130 2.377344 8342706
6.327810 -6.267231 0.094931 8342706
5.815563 -5.556088 4.565448 8342706
5.977348 -5.485722 4.067486 8342706
5.773008 -5.434229 3.564049 8342706
6.418910 -6.351359 1.549566 8342706
5.488241 -6.016474 4.740775 8342706
6.061231 -6.521480 0.107773 8342706
6.539142 -5.963578 1.493726 8342706
6.368404 -5.541246 3.377510 8342706
5.777653 -5.887439 0.828186 8342706
6.019039 -5.986579 0.865734 8342706
5.634704 -5.914283 2.226003 8342706
5.718133 -5.598250 2.260786 8342706
5.780776 -6.108499 3.546042 8342706
6.338131 -5.480250 1.133359 8342706
5.662758 -5.766715 4.854136 8342706
5.891752 -5.797335 0.102179 8342706
5.634284 -6.465730 2.440186 8342706
5.864525 -6.455664 3.622822 8342706
6.056970 -6.604917 0.565173 8342706
6.044397 -5.707885 1.750750 8342706
6.088160 -5.906024 1.779645 8342706
6.181255 -5.774668 4.168948 8342706
5.499995 -6.256883 4.948600 8342706
6.538571 -5.839218 2.162292 8342706
6.227314 -6.446108 3.908061 8342706
6.236939 -5.724968 2.513790 8342706
6.211209 -6.366029 2.382234 8342706
6.070812 -5.630505 4.499952 8342706
5.633550 -6.294446 3.476438 8342706
5.995709 -6.447537 2.730964 8342706
6.578142 -6.101759 0.450267 8342706
5.720914 -5.663841 4.817371 8342706
6.301819 -5.794933 0.296216 8342706
5.955425 -5.728909 4.696903 8342706
6.065497 -5.551495 2.417688 8342706
6.377236 -5.930747 1.857129 8342706
5.848612 -6.329977 3.429555 8342706
6.091995 -5.706258 4.239831 8342706
6.455373 -5.836803 0.466083 8342706
6.384682 -5.784709 4.610511 8342706
6.239638 -6.068074 2.748663 8342706
6.325162 -6.233421 0.720559 8342706
5.431581 -6.012741 2.420364 8342706
5.690042 -5.939110 4.329034 8342706
6.255750 -5.895145 4.807396 8342706
6.299539 -5.581744 1.398845 8342706
5.828928 -6.254649 4.051231 8342706
6.439950 -5.671369 4.605116 8342706
5.873479 -5.502845 4.345945 8342706
5.670258 -5.865126 0.473158 8342706
6.417020 -5.838917 3.473343 8342706
6.364418 -5.744768 0.638329 8342706
5.666661 -6.085034 0.738932 8342706
