# .PCD v0.7 - Point Cloud Data file format
VERSION 0.7
FIELDS x y z rgb
SIZE 4 4 4 4
TYPE F F F U
COUNT 1 1 1 1
WIDTH 1305
HEIGHT 1
VIEWPOINT 0 0 0 1 0 0 0
POINTS 1305
DATA ascii
-5.987301 5.338821 1.236933 15014169
-5.860992 4.947864 1.035612 15014169
-6.282681 4.766076 1.597198 15014169
-6.251689 5.350868 1.308269 15014169
-5.872651 5.210053 0.505762 15014169
-5.769502 5.194609 1.050896 15014169
-5.971948 5.024398 0.916523 15014169
-5.741686 4.878748 0.387859 15014169
-5.639362 5.019047 1.367077 15014169
-5.842141 5.075332 0.486805 15014169
-6.131037 4.990519 1.092177 15014169
-5.745070 4.914557 0.859025 15014169
-5.677186 5.255714 0.434098 15014169
-6.221613 5.131367 1.100934 15014169
-5.622561 5.224501 1.433770 15014169
-6.144019 5.039756 1.179701 15014169
-6.312543 5.059434 0.922194 15014169
-6.064229 4.880833 1.569809 15014169
-6.303131 4.910900 0.701677 15014169
-5.626794 4.708566 0.947296 15014169
-6.090570 5.171265 1.248831 15014169
-5.850851 5.310174 1.618939 15014169
-6.251722 4.751081 0.341939 15014169
-5.651647 5.363687 0.825711 15014169
-6.249469 4.784072 1.538275 15014169
-5.981562 4.830729 1.188385 15014169
-5.760756 5.023239 0.360335 15014169
-6.057888 5.291582 0.443241 15014169
-6.252603 5.235897 0.495780 15014169
-6.219540 4.861219 0.702938 15014169
-6.080070 5.236232 0.654620 15014169
-6.234828 4.777135 0.806184 15014169
-6.150960 5.268216 1.161941 15014169
-6.098758 5.384693 0.885089 15014169
-5.689342 4.888092 0.731829 15014169
-5.616301 4.742301 1.531840 15014169
-5.630771 4.935499 1.585403 15014169
-5.675037 5.379426 0.450970 15014169
-5.885602 5.244737 1.318963 15014169
-5.728442 4.728291 1.640828 15014169
-6.185407 4.696003 1.662647 15014169
-6.162853 5.297641 0.297512 15014169
-6.268557 4.748181 1.196927 15014169
-6.132677 5.000450 1.665368 15014169
-6.175094 4.844543 0.974814 15014169
-6.120204 5.049539 0.936396 15014169
-6.082559 4.695001 1.358965 15014169
-5.697516 4.945610 0.948334 15014169
-6.255694 5.203920 0.624797 15014169
-6.218860 4.783589 0.594446 15014169
-5.811528 4.993071 1.279660 15014169
-6.219968 4.837249 1.441014 15014169
-6.304433 4.850892 1.473431 15014169
-5.835408 4.890371 1.442783 15014169
-6.182670 5.071144 1.140656 15014169
-5.623831 5.160910 0.783195 15014169
-5.945201 4.875716 1.687757 15014169
-6.031998 4.743956 1.669507 15014169
-5.681819 5.073607 0.330679 15014169
-5.712035 5.311449 1.185683 15014169
-6.104677 5.353882 0.330382 15014169
-6.090800 4.937551 1.491259 15014169
-6.288010 5.150002 1.064430 15014169
-6.071523 4.766209 0.505461 15014169
-5.855692 4.727531 0.382899 15014169
-5.983482 5.058531 0.307285 15014169
-5.924911 4.766341 0.451885 15014169
-5.833691 4.892405 1.413581 15014169
1.486859 -10.060681 0.617595 1690649
1.215585 -10.475492 0.781638 1690649
1.444060 -10.435145 0.715885 1690649
0.868728 -10.511083 1.303008 1690649
1.544812 -10.322019 0.479620 1690649
1.243423 -10.242145 0.587294 1690649
1.476077 -10.334362 1.018061 1690649
1.222250 -10.432886 1.082294 1690649
1.723235 -10.417477 1.307761 1690649
1.067599 -10.388238 0.952150 1690649
1.703259 -10.255547 0.527623 1690649
1.364059 -10.489178 1.766516 1690649
1.276683 -10.717606 0.178550 1690649
0.996537 -10.152514 1.062544 1690649
1.370267 -10.035995 1.044654 1690649
1.494932 -10.721642 1.146015 1690649
1.694742 -10.484815 1.011053 1690649
1.134530 -10.516268 0.572026 1690649
1.454288 -10.244925 1.404102 1690649
1.391721 -10.426754 1.134872 1690649
1.385038 -9.965088 1.719283 1690649
1.375098 -10.749062 1.180786 1690649
0.893446 -10.517385 0.878080 1690649
0.874973 -10.528648 0.899453 1690649
1.021457 -10.003938 1.520016 1690649
1.447585 -10.465796 1.851738 1690649
0.969735 -10.459992 1.430735 1690649
1.473446 -10.020327 1.841062 1690649
1.307051 -10.655910 0.634602 1690649
1.532158 -10.100927 1.222417 1690649
1.107321 -10.000474 1.415974 1690649
1.128160 -10.205882 1.607732 1690649
1.663492 -10.535769 0.978191 1690649
1.112236 -10.264879 0.739200 1690649
1.291382 -10.471089 1.065776 1690649
1.555025 -9.994810 1.096094 1690649
0.864267 -10.329725 0.534621 1690649
1.352903 -10.139639 0.612611 1690649
1.008287 -10.481570 1.268723 1690649
1.326219 -10.093603 1.857160 1690649
1.448607 -10.222734 1.078540 1690649
1.138876 -10.662213 0.351492 1690649
1.423549 -10.210236 1.890588 1690649
1.273964 -10.660594 0.990794 1690649
1.014304 -10.034145 1.906349 1690649
1.516995 -10.534559 1.134207 1690649
1.302836 -10.680802 1.457309 1690649
1.237601 -10.181386 1.006385 1690649
1.132960 -9.949085 1.038265 1690649
1.256076 -9.991437 1.377261 1690649
1.109347 -10.203781 1.239076 1690649
1.429479 -9.923882 0.426813 1690649
1.673824 -10.233345 1.528912 1690649
1.090909 -10.146907 1.044843 1690649
0.890685 -10.514067 1.835243 1690649
1.226908 -10.696362 1.714954 1690649
1.123364 -10.425556 0.825268 1690649
1.134851 -10.190936 0.583128 1690649
1.640841 -10.594905 0.908304 1690649
1.250749 -10.397145 1.464973 1690649
0.928181 -10.372087 0.918324 1690649
1.433087 -10.345364 0.124333 1690649
1.074848 -10.211000 0.200692 1690649
1.342991 -10.721796 0.176412 1690649
1.271817 -10.082170 0.968981 1690649
1.396153 -10.567959 1.734499 1690649
1.105852 -10.625864 1.662486 1690649
1.339691 -10.806452 1.781778 1690649
1.059937 -10.186185 0.229117 1690649
0.966067 -10.485868 0.326594 1690649
1.089061 -10.240510 1.347099 1690649
1.418825 -10.494884 0.674142 1690649
1.102327 -10.610373 1.635529 1690649
1.673163 -10.409849 1.130117 1690649
1.426229 -10.370748 0.103156 1690649
1.250100 -9.998567 1.239541 1690649
1.328052 -10.170465 0.218080 1690649
1.287926 -10.689632 1.100013 1690649
1.610838 -10.371353 0.735936 1690649
1.451309 -10.064637 1.176841 1690649
1.207056 -9.918472 0.233696 1690649
1.262115 -10.521432 0.461908 1690649
1.361911 -10.169955 0.909773 1690649
1.139045 -10.297751 1.785577 1690649
0.955650 -10.248632 0.688718 1690649
1.395028 -10.688837 0.215701 1690649
1.261323 -10.703759 1.468716 1690649
1.112106 -10.631703 0.139303 1690649
1.510503 -10.160446 1.485421 1690649
1.574346 -10.542163 1.253750 1690649
1.295394 -10.057845 1.674285 1690649
1.233981 -10.015353 1.131715 1690649
1.482355 -10.040009 0.763679 1690649
1.077393 -10.417953 0.172409 1690649
1.087730 -10.011082 1.262266 1690649
1.580075 -10.616379 0.579785 1690649
1.091727 -10.225325 1.654165 1690649
1.202510 -10.295847 1.889399 1690649
1.573346 -10.196706 0.486892 1690649
1.152190 -10.529021 1.636873 1690649
0.949722 -10.568295 0.955802 1690649
1.182949 -10.037147 1.729618 1690649
1.131748 -10.601149 1.470618 1690649
0.970681 -10.113775 0.614422 1690649
1.076154 -10.138586 0.141207 1690649
0.988021 -10.657970 1.139951 1690649
1.036129 -10.117834 0.606027 1690649
1.116992 -10.119455 1.075246 1690649
0.952512 -10.542336 0.774840 1690649
1.091387 -10.482193 1.279533 1690649
1.603212 -10.631911 0.142213 1690649
1.291409 -9.930076 1.902274 1690649
1.681257 -10.252493 0.977248 1690649
1.475242 -10.724181 1.825742 1690649
1.654688 -10.247765 1.440448 1690649
1.402831 -10.604869 1.055426 1690649
1.537989 -10.145408 1.381996 1690649
1.321284 -10.681975 1.161102 1690649
1.225930 -10.022275 0.771013 1690649
1.340611 -10.715199 0.157007 1690649
0.911585 -10.394096 0.967998 1690649
1.004672 -10.080853 0.298874 1690649
1.586665 -10.219455 1.321605 1690649
1.498887 -10.629761 0.099096 1690649
1.066363 -10.356834 1.036077 1690649
1.336968 -10.567928 0.246814 1690649
0.948292 -10.409503 0.947924 1690649
1.272603 -10.629689 0.474259 1690649
1.650380 -10.161085 0.688626 1690649
0.960367 -10.254795 1.867834 1690649
1.177124 -10.224650 0.238107 1690649
1.408170 -10.377159 0.447498 1690649
1.601830 -10.678966 0.900442 1690649
0.882948 -10.176105 1.403242 1690649
1.032477 -10.264360 1.528039 1690649
1.110083 -10.348125 0.334264 1690649
1.470555 -10.639650 1.437764 1690649
1.210152 -10.396609 0.509862 1690649
1.500115 -10.499667 1.370111 1690649
1.413533 -10.139513 0.209840 1690649
0.923510 -10.378912 0.660668 1690649
1.688411 -10.465093 0.741843 1690649
1.591372 -10.240120 1.299059 1690649
1.175419 -10.279627 0.895065 1690649
0.990471 -10.366436 0.640439 1690649
1.722194 -10.201036 1.205673 1690649
1.341645 -10.480352 1.310832 1690649
1.132390 -10.247129 1.681503 1690649
1.318986 -9.942500 1.191380 1690649
1.703291 -10.325697 1.277663 1690649
1.490824 -10.543848 0.509041 1690649
1.050344 -10.331103 1.018040 1690649
1.375517 -10.330901 1.215023 1690649
1.466794 -10.439229 0.682391 1690649
-4.362610 7.171199 0.467202 10053171
-5.957024 7.090281 0.428876 10053171
-4.445979 6.973544 2.362463 10053171
-5.169917 7.167264 2.882997 10053171
-3.832872 6.986727 0.289110 10053171
-6.687706 6.751841 2.460252 10053171
-4.091784 7.161032 2.561257 10053171
-3.164082 6.943772 1.354740 10053171
-4.393010 6.983472 0.505744 10053171
-3.491623 7.203614 2.558908 10053171
-3.681025 7.198641 2.500798 10053171
-3.271003 6.959473 0.839658 10053171
-4.024434 7.065658 0.160249 10053171
-4.975657 6.824235 1.134319 10053171
-6.812122 6.975405 0.175591 10053171
-4.615570 7.111597 2.170936 10053171
-6.416449 6.975236 1.209678 10053171
-4.664282 6.949194 0.446500 10053171
-6.876398 6.762561 2.826678 10053171
-6.308076 7.223095 2.870112 10053171
-6.065198 7.057974 0.770496 10053171
-6.146150 6.800205 2.817202 10053171
-3.736084 6.856264 2.237644 10053171
-4.806973 7.056431 2.528721 10053171
-6.586292 7.000220 2.643782 10053171
-6.064900 7.142564 1.115274 10053171
-3.394723 7.159641 1.459372 10053171
-4.619088 6.950781 1.376624 10053171
-6.000672 7.235312 2.397259 10053171
-6.661869 7.040812 2.950420 10053171
-6.869133 7.062892 1.100212 10053171
-5.977142 6.752666 0.158964 10053171
-6.129717 7.016112 1.940010 10053171
-3.873205 6.977224 0.579516 10053171
-4.706018 7.155124 0.139353 10053171
-5.858944 7.166757 2.062300 10053171
-4.858711 6.962269 1.403246 10053171
-5.514754 7.241173 2.735640 10053171
-5.045246 6.747135 1.295398 10053171
-6.157994 6.975633 2.538358 10053171
-4.473912 6.922621 2.108430 10053171
-4.073932 7.098608 1.121360 10053171
-3.853076 6.770299 0.870424 10053171
-4.711970 6.933746 2.231853 10053171
-5.548511 6.944989 0.624791 10053171
-3.798140 7.046992 1.159298 10053171
-3.485033 7.076833 2.119201 10053171
-4.287128 7.201595 0.691733 10053171
-4.123107 7.243061 2.539826 10053171
-5.295466 6.953690 1.586300 10053171
-6.754152 7.049968 2.606491 10053171
-5.674110 6.976418 1.188716 10053171
-5.758271 6.857301 2.797939 10053171
-3.536158 6.875949 2.689524 10053171
-3.061978 6.900126 0.627485 10053171
-5.033157 7.016900 2.175539 10053171
-3.503266 7.058756 0.799123 10053171
-5.453043 7.046481 1.628981 10053171
-3.334714 7.080087 2.174213 10053171
-6.447953 7.190641 0.030286 10053171
-6.374566 6.745596 2.586834 10053171
-4.392949 6.943108 2.930385 10053171
-6.307614 6.942147 0.859755 10053171
-3.752829 7.183444 1.042865 10053171
-3.565354 7.067943 2.696400 10053171
-4.160158 6.913651 2.145896 10053171
-6.335802 6.804986 1.056983 10053171
-3.763475 7.022660 1.936847 10053171
-3.870423 7.079519 1.237387 10053171
-5.459319 7.202146 0.706090 10053171
-5.927378 6.925040 2.521950 10053171
-3.271319 6.919776 1.509332 10053171
-6.818273 6.760665 2.293623 10053171
-3.693495 6.999081 0.995477 10053171
-6.509212 7.225728 1.583621 10053171
-5.305427 6.982182 0.855163 10053171
-6.471067 6.876591 0.460547 10053171
-4.514955 7.094940 2.278039 10053171
-6.732320 7.176898 1.138415 10053171
-4.027535 6.887778 0.250971 10053171
-5.788796 7.220790 0.708014 10053171
-6.960033 7.065439 2.917219 10053171
-3.125353 7.060927 2.164188 10053171
-4.153454 7.079489 0.037787 10053171
-4.438315 7.179231 1.382430 10053171
-6.611125 7.217548 0.414456 10053171
-5.841342 6.865376 0.156761 10053171
-3.262744 6.871889 0.148658 10053171
-6.526922 6.911202 1.341374 10053171
-5.962935 6.858767 -0.015674 10053171
-5.439017 7.038654 1.767838 10053171
-6.384770 7.026434 2.972901 10053171
-6.063747 6.824061 2.959024 10053171
-4.249819 7.216354 1.397894 10053171
-4.299118 7.101188 2.208863 10053171
-3.909221 7.192520 2.385194 10053171
-5.651593 7.207937 0.391257 10053171
-5.334347 6.895237 0.459509 10053171
-3.334961 6.971356 0.974837 10053171
-6.862151 6.942040 0.241440 10053171
-4.476575 6.813822 1.768501 10053171
-6.242836 7.241087 1.527602 10053171
-3.835448 7.168318 0.863434 10053171
-3.783324 6.969827 2.095397 10053171
-4.795513 7.150389 1.230763 10053171
-5.653425 7.250328 1.581362 10053171
-4.228793 6.944841 0.426084 10053171
-5.514264 7.200526 0.301549 10053171
-3.267482 7.092134 0.151698 10053171
-5.126927 6.778953 1.795975 10053171
-5.630438 7.057501 2.636675 10053171
-5.442133 6.881467 2.382088 10053171
-4.475152 6.935179 0.695870 10053171
-4.758969 6.942606 2.317690 10053171
-6.475116 6.954063 1.181997 10053171
-5.729020 6.790493 1.373970 10053171
-4.572959 6.920889 1.774282 10053171
-4.050104 7.061392 2.547904 10053171
-3.331106 7.025837 0.188238 10053171
-4.613478 6.751038 1.406792 10053171
-3.828199 7.210173 0.842788 10053171
-5.159831 6.854315 0.236100 10053171
-6.452858 6.768470 0.293742 10053171
-5.590328 7.027769 0.819736 10053171
-3.148178 7.168141 1.564735 10053171
-5.373858 7.060606 2.730183 10053171
-5.310043 6.940009 2.708653 10053171
-4.402598 6.900442 0.780991 10053171
-6.961657 7.111882 2.663583 10053171
-4.296009 7.041855 2.907227 10053171
-4.874597 6.985226 0.232933 10053171
-6.477285 6.898374 2.248392 10053171
-5.353228 6.900728 1.728107 10053171
-5.254484 7.061495 1.625069 10053171
-4.644783 6.842999 0.822357 10053171
-3.270609 6.830975 0.430232 10053171
-3.996134 6.946569 1.206903 10053171
-3.765875 7.235792 0.796084 10053171
-5.116470 7.045667 2.753768 10053171
-4.747807 7.182853 1.094254 10053171
-5.670290 6.793920 2.565806 10053171
-5.391764 7.165195 2.266683 10053171
-6.056798 7.007295 2.978043 10053171
-3.713934 6.924084 1.060853 10053171
-4.231598 7.080223 2.727250 10053171
-5.932804 7.035576 0.663924 10053171
-4.964365 6.819222 2.330201 10053171
-3.931321 6.813584 1.359644 10053171
-6.016966 7.184454 1.721118 10053171
-3.608507 7.200835 0.400581 10053171
-5.858196 6.940761 2.257343 10053171
-6.571568 6.893768 1.751432 10053171
-4.779154 6.815798 2.792489 10053171
-6.492592 7.158616 1.226342 10053171
-3.569391 7.013204 1.076733 10053171
-6.258529 6.824183 1.550280 10053171
-3.028165 6.863979 1.548704 10053171
-6.383891 7.230414 0.941151 10053171
-4.789437 6.987188 1.227975 10053171
-6.402295 7.093666 0.928172 10053171
-6.876142 6.880245 2.245295 10053171
-3.709443 7.219147 1.810312 10053171
-4.210521 7.178624 0.797718 10053171
-6.322029 6.811911 2.936774 10053171
-3.050894 6.790639 2.264420 10053171
-6.416233 6.927204 1.474423 10053171
-6.319129 6.988713 1.011751 10053171
-5.136778 6.780760 1.219221 10053171
-3.964934 7.162566 0.942022 10053171
-6.396954 7.072282 0.866964 10053171
-6.214684 6.753064 2.073203 10053171
-3.520444 7.034574 0.947740 10053171
-5.307551 6.960457 2.303661 10053171
-4.480105 6.765205 0.640141 10053171
-5.544562 7.199387 0.175665 10053171
-3.621253 6.916715 1.826546 10053171
-7.006153 7.167253 2.110224 10053171
-6.204811 7.180439 1.958926 10053171
-4.699945 6.891948 0.430654 10053171
-5.565995 6.962203 1.736516 10053171
-6.730154 6.746965 1.279964 10053171
-5.571309 6.808221 1.488399 10053171
-6.433357 6.878175 2.036165 10053171
-5.988150 6.783411 1.063473 10053171
-5.795127 6.739844 2.106630 10053171
-5.553791 6.812776 1.564996 10053171
-3.368441 7.052989 2.632296 10053171
-5.040943 7.054004 0.349222 10053171
-4.168195 7.191034 0.557959 10053171
-5.058349 7.139552 0.841605 10053171
-6.374047 6.901337 2.840352 10053171
-6.863805 6.822976 2.547735 10053171
-6.709741 6.758133 0.428352 10053171
-3.261117 7.093071 1.585913 10053171
-6.045721 6.760480 2.607124 10053171
-4.063360 6.927830 1.564940 10053171
-6.716384 7.229330 0.603848 10053171
-6.902913 6.956996 2.979929 10053171
-4.481726 6.928569 1.952833 10053171
-4.889779 7.075523 2.560818 10053171
-3.969626 7.105218 0.767377 10053171
-4.126235 7.247863 0.503800 10053171
-3.898397 6.790328 1.116746 10053171
-3.467854 7.218347 2.478430 10053171
-3.389548 7.167354 0.187007 10053171
-3.138679 6.795600 0.452021 10053171
-4.782049 7.217545 1.091546 10053171
-6.915480 7.098512 0.574731 10053171
-6.253445 6.766852 1.883161 10053171
-6.642745 6.924040 0.621677 10053171
-6.375347 7.171317 1.717638 10053171
-6.409376 6.816461 1.139035 10053171
-4.984800 6.832255 0.287881 10053171
-5.278699 7.025547 1.125162 10053171
-5.988369 7.087017 1.253151 10053171
-3.179556 6.988800 2.075557 10053171
-4.536284 6.924869 0.178517 10053171
-6.049970 6.868798 0.180258 10053171
-3.631890 7.147411 0.326596 10053171
-3.324672 7.200837 2.616316 10053171
-4.018721 6.911820 2.668642 10053171
-4.097247 6.838088 2.982361 10053171
-5.525933 7.095961 1.918070 10053171
-4.323823 7.144625 0.756071 10053171
-4.259373 6.940558 0.570233 10053171
-3.607985 7.171448 0.604019 10053171
-3.718017 6.942004 0.911037 10053171
-4.663017 7.024144 0.616981 10053171
-4.176854 6.933273 0.202936 10053171
-6.543278 6.811249 2.357691 10053171
-4.735534 7.143158 0.505401 10053171
-5.151100 6.981647 1.457648 10053171
-6.453327 7.239739 1.316182 10053171
-6.980129 7.017132 2.088302 10053171
-6.604896 7.240201 1.481331 10053171
-5.024679 7.150098 2.904366 10053171
-4.732553 6.849208 0.734038 10053171
-4.272466 6.935143 1.316479 10053171
-5.439773 6.823417 2.067872 10053171
-4.000541 6.776240 2.813661 10053171
-5.978496 7.034792 1.399781 10053171
-6.740605 6.752134 0.256023 10053171
-3.282440 7.147906 2.705815 10053171
-5.101389 7.094005 1.752767 10053171
-5.838133 7.200459 0.503330 10053171
-6.244814 6.884822 1.066958 10053171
-6.947932 7.085837 1.633638 10053171
-5.752932 7.206169 2.554002 10053171
-6.223234 6.918505 2.029146 10053171
-3.792038 6.954873 1.374132 10053171
-5.704813 7.178511 0.870092 10053171
-3.113171 6.808603 0.987483 10053171
-3.914707 6.854776 1.107823 10053171
-5.336431 7.192440 1.623209 10053171
-3.492509 6.766741 0.841322 10053171
-4.691985 7.241494 1.564134 10053171
-3.636617 7.016477 2.215991 10053171
-4.580176 7.124988 2.682449 10053171
-4.912927 7.091310 2.081094 10053171
-6.913293 6.808123 2.383000 10053171
-3.423634 7.107743 0.856090 10053171
-5.517052 7.055655 2.904399 10053171
-4.822330 6.931043 0.678699 10053171
-4.615270 6.985450 2.175303 10053171
-6.937639 7.037641 2.205516 10053171
-3.661800 6.856672 1.220833 10053171
-4.338727 6.918612 0.815734 10053171
-6.447991 6.775979 2.075110 10053171
-6.037846 6.785697 2.088937 10053171
-4.829644 6.760240 0.974255 10053171
-3.713688 6.859462 -0.005246 10053171
-4.862450 7.103532 2.484939 10053171
-3.762143 6.990162 2.481785 10053171
-5.179180 7.078761 1.516072 10053171
-6.229296 6.846125 1.596213 10053171
-6.665555 7.192420 2.935526 10053171
-3.948684 6.917632 0.942892 10053171
-6.237680 7.046042 0.927067 10053171
-4.887997 7.156171 1.528602 10053171
-3.292923 7.211584 0.920522 10053171
-6.353350 7.087292 1.862550 10053171
-5.677503 6.805313 1.320632 10053171
-3.547725 6.909960 0.405020 10053171
-5.636877 6.777885 2.116290 10053171
-4.287261 7.258211 0.438465 10053171
-3.198993 6.998970 1.441980 10053171
-3.116071 6.960584 1.823533 10053171
-4.087946 6.757215 0.907973 10053171
-4.289757 7.198333 1.338506 10053171
-3.087118 6.873415 0.318232 10053171
-4.006241 7.120238 1.455376 10053171
-5.445670 6.944211 1.067058 10053171
-3.983278 6.954947 0.350637 10053171
-3.789226 6.941840 0.177763 10053171
-5.737827 7.246365 1.857147 10053171
-5.682947 7.201861 1.793455 10053171
-6.039150 6.743479 2.369889 10053171
-3.621381 6.951452 0.797167 10053171
-5.198637 7.121148 1.177425 10053171
-5.123864 6.837388 2.490208 10053171
-4.279938 7.201001 0.633831 10053171
-6.983025 7.206866 0.067745 10053171
-4.020562 6.785587 1.120321 10053171
-4.050150 6.781077 1.865337 10053171
-5.399170 6.868371 2.720983 10053171
-3.277608 7.039877 1.532188 10053171
-3.320292 7.204552 -0.006142 10053171
-3.261009 6.822545 1.478720 10053171
-4.650311 6.955079 1.559004 10053171
-4.967552 6.865694 0.138416 10053171
-6.802193 6.829361 1.555557 10053171
-5.552261 6.938272 0.149424 10053171
-6.939198 6.925047 1.410367 10053171
-4.200208 6.775562 1.305910 10053171
-6.391936 6.915619 0.245892 10053171
-3.353972 6.759459 2.824635 10053171
-4.105191 6.813678 1.416531 10053171
-4.730956 6.840157 1.916189 10053171
-6.167560 6.800130 0.132362 10053171
-5.193324 7.138121 1.831430 10053171
-6.262082 7.119155 2.256877 10053171
-5.150033 7.089449 1.382527 10053171
-6.458125 6.941697 1.305842 10053171
-5.468613 7.070704 0.287812 10053171
-4.958910 7.176075 1.789733 10053171
-3.861825 7.000377 1.627836 10053171
-5.431130 7.077344 2.724355 10053171
-5.690600 7.049439 2.978992 10053171
-6.828043 7.160165 0.782453 10053171
-4.920814 7.159975 1.146000 10053171
-6.969576 6.943942 0.311053 10053171
-6.747684 6.976938 1.041111 10053171
-4.306365 6.779697 1.933413 10053171
-4.006825 7.165981 0.074594 10053171
-3.117760 7.033587 1.332995 10053171
-3.862343 7.006751 0.397896 10053171
-3.130096 6.741235 1.730261 10053171
-3.461601 6.862680 0.308656 10053171
-6.634102 7.083745 1.214571 10053171
-4.088314 7.132948 0.730162 10053171
-3.792308 7.009395 2.070028 10053171
-3.794039 7.026453 1.240549 10053171
-4.619347 7.134783 2.691697 10053171
-4.604346 7.233143 2.350973 10053171
-6.242929 7.148417 0.880851 10053171
-3.093090 6.901413 0.013483 10053171
-4.408171 6.749622 0.509230 10053171
-5.184177 7.038258 2.856034 10053171
-5.352448 7.006503 2.490824 10053171
-3.661157 7.219810 1.077639 10053171
-4.838811 6.766216 0.077341 10053171
-4.772573 7.113678 0.887957 10053171
-4.079363 6.870690 1.507677 10053171
-3.561849 6.966643 0.981836 10053171
-6.971340 7.123297 0.883938 10053171
-3.911412 6.930658 1.342108 10053171
-3.581195 6.935978 2.730034 10053171
-5.475225 6.839242 2.599186 10053171
-5.406591 6.788314 2.405835 10053171
-3.022327 6.809270 2.924773 10053171
-6.144213 6.837814 2.060408 10053171
-4.427559 7.133310 0.776877 10053171
-4.532347 7.013414 0.686665 10053171
-3.183043 7.215864 2.709754 10053171
-5.876945 7.202874 2.543246 10053171
-4.225451 6.891253 2.134039 10053171
-3.190476 6.963753 0.494781 10053171
-5.010054 6.819772 1.844844 10053171
-3.730568 6.970404 0.106368 10053171
-4.304339 7.216877 0.525489 10053171
-6.212279 6.878847 1.538941 10053171
-3.872702 7.195705 0.579646 10053171
-5.443140 6.783153 1.455304 10053171
-3.198887 6.823436 2.190978 10053171
-3.462050 6.953223 0.331305 10053171
-3.927162 7.270828 2.064087 10053171
-6.184829 7.185445 0.270463 10053171
-6.583301 6.901185 0.546631 10053171
-4.624448 6.899995 1.237582 10053171
-5.118896 6.793442 -0.001655 10053171
-5.469144 6.806276 0.515871 10053171
-3.763216 6.790895 0.405251 10053171
-5.347658 7.201560 0.682036 10053171
-3.189487 7.198740 1.388921 10053171
-4.924387 6.745811 2.552421 10053171
-6.731253 7.128210 1.617663 10053171
-4.788620 6.769050 1.181679 10053171
-4.083057 7.044652 1.634930 10053171
-4.066801 7.021437 1.599436 10053171
-3.502254 6.896611 2.940158 10053171
-4.074344 7.152417 2.886651 10053171
-6.612905 6.904907 1.731724 10053171
-5.185364 7.047598 1.693049 10053171
-5.121646 7.171662 2.131626 10053171
-4.507757 6.876212 0.032055 10053171
-5.321982 6.740188 2.592035 10053171
-5.174715 6.762370 1.370925 10053171
-4.057426 6.878789 0.707779 10053171
-4.406648 7.064528 1.044353 10053171
-5.228352 7.118193 0.708465 10053171
-3.741317 6.770841 1.904740 10053171
-3.655484 7.238233 2.749304 10053171
-3.363320 7.146584 1.010879 10053171
-4.040345 7.201786 2.639703 10053171
-3.094711 7.172266 2.850950 10053171
-3.574048 7.029578 1.656471 10053171
-5.322363 7.124310 0.095084 10053171
-3.922872 6.923864 2.300157 10053171
-6.408969 7.027761 2.551057 10053171
-3.135666 7.094327 2.785532 10053171
-4.861907 7.164903 0.126560 10053171
-5.903550 6.892230 0.150592 10053171
-4.293232 7.051440 0.551828 10053171
-4.622272 7.138668 0.010723 10053171
-6.622926 7.195558 1.381274 10053171
-6.053651 6.912120 0.088492 10053171
-5.829805 6.780800 2.911622 10053171
-4.475260 7.059617 2.864511 10053171
-5.610241 7.188847 2.538335 10053171
-3.114056 6.959149 0.610268 10053171
-5.761371 6.934706 0.612588 10053171
-4.073999 7.103111 1.555693 10053171
-4.694901 6.762763 1.666004 10053171
-4.967947 7.132820 1.231961 10053171
-4.439772 6.960580 0.503206 10053171
-5.276870 7.249093 0.298550 10053171
-3.854210 6.946681 0.844355 10053171
-4.253539 6.943965 2.680333 10053171
-5.237680 7.096957 1.711679 10053171
-2.992442 6.965800 0.252602 10053171
-5.417400 6.853795 1.061513 10053171
-6.578949 7.081808 2.719257 10053171
-5.128029 6.827553 1.636009 10053171
-3.046117 6.906326 0.756227 10053171
-6.565607 6.985111 1.158189 10053171
-3.071691 7.004248 0.212541 10053171
-6.273041 7.217839 1.915010 10053171
-3.670350 6.936668 1.360497 10053171
-4.152540 7.119681 0.204563 10053171
-3.841169 7.135179 1.807897 10053171
-4.176837 7.021632 1.345512 10053171
-3.102681 6.813349 0.729248 10053171
-5.604916 7.237216 0.131525 10053171
-5.675134 7.021517 2.807230 10053171
-4.801284 6.947716 1.797381 10053171
-5.928798 7.153433 2.037623 10053171
-3.317181 7.092124 0.979125 10053171
-6.490013 6.805539 0.741688 10053171
-6.601121 7.073134 1.919562 10053171
-3.747014 6.859446 0.021966 10053171
-4.615608 7.143993 2.024256 10053171
-5.608850 6.752847 2.664309 10053171
-3.955162 7.106953 0.445131 10053171
-3.903425 6.765367 1.665175 10053171
-5.380627 7.011023 0.798355 10053171
-4.820075 6.838198 1.746008 10053171
-5.751287 6.948281 1.057227 10053171
-6.632226 6.871671 0.148504 10053171
-4.512010 6.983751 1.702295 10053171
-3.716865 7.123452 2.805837 10053171
-5.701014 6.848712 0.082598 10053171
-5.653008 7.035011 0.377981 10053171
-4.231678 6.848339 0.857876 10053171
-5.883554 6.851755 2.067235 10053171
-4.902895 6.831096 2.897657 10053171
-3.171618 6.985223 2.031511 10053171
-3.611162 6.921052 1.084424 10053171
-4.790287 7.150890 2.835887 10053171
-4.541870 7.150122 1.496352 10053171
-3.443877 7.093025 1.053759 10053171
-3.145897 7.164560 0.492914 10053171
-5.413138 7.097376 0.810948 10053171
-6.640413 6.973311 2.570543 10053171
-3.296553 6.891751 2.380064 10053171
-5.854906 7.137906 2.056757 10053171
-4.661566 6.911959 1.475820 10053171
-4.300977 6.820437 2.116948 10053171
-3.013785 6.761709 2.457938 10053171
-3.039234 6.999048 1.053685 10053171
-4.366388 7.201895 0.308169 10053171
-5.483288 7.212959 2.297688 10053171
-5.602312 7.113956 1.106931 10053171
-3.862053 6.893611 1.855705 10053171
-4.682522 7.088789 2.925339 10053171
-4.738481 7.174759 2.686188 10053171
-6.267833 7.039354 1.592958 10053171
-3.129570 7.209446 0.303971 10053171
-4.509751 6.872308 2.791256 10053171
-3.056513 6.918862 1.102134 10053171
-4.429710 7.244269 2.846821 10053171
-5.026985 6.900259 2.694233 10053171
-3.207182 6.977376 0.505934 10053171
-5.975865 6.807216 0.807487 10053171
-4.666578 7.134913 0.317833 10053171
-3.013643 7.052205 0.546838 10053171
-5.416837 6.894268 1.114043 10053171
-3.918161 6.814690 0.616077 10053171
-6.057408 6.996586 2.722203 10053171
-3.314926 6.938527 0.544380 10053171
-5.731907 6.752209 2.824974 10053171
-4.191993 6.834728 0.623914 10053171
-6.616878 6.983679 2.940950 10053171
-6.923259 7.253368 2.532083 10053171
-6.915394 7.200173 0.732493 10053171
-5.267029 7.009935 2.448179 10053171
-5.220744 6.948832 1.279831 10053171
-3.156265 7.147318 1.922426 10053171
-6.394831 6.954819 1.720173 10053171
-4.078400 6.862782 0.111417 10053171
-3.520508 6.889077 0.005531 10053171
-6.127862 6.890797 1.896582 10053171
-3.096265 7.097490 0.775579 10053171
-3.571208 7.021927 2.717567 10053171
-4.263490 7.053693 2.646659 10053171
-3.435142 6.903519 2.410069 10053171
-5.087609 6.891316 2.893597 10053171
-4.455167 7.119693 1.045777 10053171
-6.612608 6.857251 2.024108 10053171
-3.829411 6.870260 2.283419 10053171
-3.544791 6.993867 1.034486 10053171
-4.266322 6.765259 0.884357 10053171
-3.863337 7.003115 1.000234 10053171
-5.346883 6.965728 2.065660 10053171
-3.230942 6.823011 0.510800 10053171
-3.380157 7.241023 0.649190 10053171
-6.385431 6.765641 1.209846 10053171
-5.805570 7.233838 1.571554 10053171
-3.789945 6.894502 0.817083 10053171
-6.557999 6.874567 1.582258 10053171
-4.367086 6.790590 0.974408 10053171
-5.648462 6.935202 0.055862 10053171
-4.399573 7.026990 1.195055 10053171
-4.187042 6.914629 2.122796 10053171
-3.254058 7.180863 1.282524 10053171
-3.758913 7.229943 2.644072 10053171
-5.890263 6.817801 0.048656 10053171
-5.686930 6.785557 1.570857 10053171
-4.941726 6.957685 2.467361 10053171
-6.079938 7.065065 1.120030 10053171
-6.765891 7.240013 2.121772 10053171
-5.465829 6.859645 1.245588 10053171
-6.167468 6.909539 2.909184 10053171
-5.540963 6.771200 2.405614 10053171
-4.524486 7.167955 1.536571 10053171
-5.300253 6.889622 0.630130 10053171
-6.047953 7.231647 1.512735 10053171
-3.515697 6.856521 2.520603 10053171
-5.690288 6.939021 2.299637 10053171
-6.073270 6.956231 1.463014 10053171
-6.584755 6.862979 1.255057 10053171
-6.774858 7.083407 2.614700 10053171
-6.567199 6.861154 1.818079 10053171
-6.061829 6.980683 2.766105 10053171
-4.229216 7.185123 2.766414 10053171
-4.900003 7.064208 2.196106 10053171
-4.856886 7.125801 0.059846 10053171
-4.092923 6.841851 1.575526 10053171
-6.987046 7.230548 0.323667 10053171
-5.467492 7.163398 0.046479 10053171
-3.513988 6.808034 0.741485 10053171
-6.056107 6.787741 0.906038 10053171
-3.546535 6.798099 2.848642 10053171
-3.552323 7.176515 0.917565 10053171
-5.201862 6.806548 2.951302 10053171
-6.946214 6.844448 2.337419 10053171
-4.347590 6.845913 0.568534 10053171
-4.587302 6.847179 0.872647 10053171
-3.480655 6.832944 0.290531 10053171
-6.438286 6.993302 1.148757 10053171
-5.294190 7.229920 1.665198 10053171
-4.225115 7.158563 1.704829 10053171
-5.755684 7.125406 0.932314 10053171
-4.648726 6.962567 2.923115 10053171
-5.846758 7.016821 1.047186 10053171
-5.204075 7.145790 0.287548 10053171
-4.803916 6.846855 2.733978 10053171
-3.325768 6.999661 0.792276 10053171
-3.913387 7.014442 1.824409 10053171
-5.793036 7.007176 1.283828 10053171
-3.311723 6.970050 1.638006 10053171
-3.000602 7.224522 0.800808 10053171
-3.195634 7.230199 2.788356 10053171
-3.166570 7.189405 2.296117 10053171
-6.058800 6.936324 2.230037 10053171
-6.820074 7.063749 2.052755 10053171
-4.076416 6.797511 1.160693 10053171
-3.208790 7.226160 1.691146 10053171
-6.921573 7.153637 1.477770 10053171
-4.306039 6.887517 1.112947 10053171
-5.305140 7.036518 0.101878 10053171
-6.805319 7.166632 2.884549 10053171
-4.208045 6.823709 2.409407 10053171
-3.457428 7.053635 2.665543 10053171
-3.090683 6.777914 1.149073 10053171
-3.505100 7.223921 0.582393 10053171
-3.467034 6.939972 2.312616 10053171
-4.096402 7.083645 2.697288 10053171
-3.726615 7.044353 2.925871 10053171
-5.764043 6.927886 0.477049 10053171
-4.741248 7.094151 1.560888 10053171
5.868978 -5.992628 1.144255 8342706
6.129600 -5.731498 1.814921 8342706
5.427791 -6.095396 3.624996 8342706
6.168475 -6.464844 0.565399 8342706
5.440560 -6.209131 3.030365 8342706
6.186244 -6.437555 4.084055 8342706
6.367814 -6.044725 4.898614 8342706
6.215027 -5.620507 0.320055 8342706
6.025022 -6.162444 3.989194 8342706
6.174369 -5.985292 0.481895 8342706
5.559957 -5.644123 2.019870 8342706
6.172173 -6.429664 3.317631 8342706
6.533728 -5.783583 4.820903 8342706
6.049733 -5.629366 2.398203 8342706
6.460522 -5.974884 1.323145 8342706
6.083630 -6.211565 2.927808 8342706
6.540815 -5.872509 0.274621 8342706
6.339874 -6.431714 2.970935 8342706
6.311103 -5.508611 2.202924 8342706
6.452376 -6.374220 2.677215 8342706
6.209747 -6.115477 2.963750 8342706
6.274469 -5.581960 2.034356 8342706
5.621732 -6.280600 3.520798 8342706
5.807458 -5.557281 0.197535 8342706
5.653438 -5.774123 0.536052 8342706
6.490968 -5.791527 1.410406 8342706
6.037060 -5.427959 0.776730 8342706
6.201114 -6.338919 1.497501 8342706
6.415888 -6.154260 1.584413 8342706
6.532219 -6.052785 3.482359 8342706
5.601520 -6.169214 3.399776 8342706
5.857139 -6.195588 4.712645 8342706
5.791986 -5.530242 2.029366 8342706
6.328317 -5.784837 2.905365 8342706
6.248931 -5.933416 3.532796 8342706
5.441920 -6.111500 0.526766 8342706
6.409299 -5.805747 1.977842 8342706
5.907057 -5.788991 1.721274 8342706
5.749584 -5.842619 3.151129 8342706
5.637186 -6.165042 1.849465 8342706
5.802722 -5.507660 0.785411 8342706
6.462826 -6.081666 0.379898 8342706
5.986176 -6.130267 4.301033 8342706
5.587534 -6.190473 4.569821 8342706
5.726739 -5.749655 4.173440 8342706
5.751988 -5.924545 3.095984 8342706
6.039519 -5.985693 1.436619 8342706
6.409152 -6.270742 2.029540 8342706
5.667806 -5.722117 3.087660 8342706
6.277694 -6.076315 3.911423 8342706
5.405534 -6.008091 4.571156 8342706
5.974412 -5.469545 4.502791 8342706
5.509834 -5.953836 3.226660 8342706
6.426491 -5.941375 1.956483 8342706
6.171827 -6.482212 4.291472 8342706
6.375892 -5.874981 1.209601 8342706
5.402229 -5.964021 2.344012 8342706
5.508280 -5.773273 4.318587 8342706
6.431806 -6.009575 2.989670 8342706
6.092636 -5.661222 4.831126 8342706
6.267634 -5.867916 2.122341 8342706
5.810345 -5.473474 2.085746 8342706
5.856435 -6.348134 3.543832 8342706
5.981476 -5.500596 3.515342 8342706
5.760514 -6.029572 4.527385 8342706
5.843661 -6.085543 1.740687 8342706
6.180424 -5.737969 2.016584 8342706
6.163328 -6.295099 1.950734 8342706
5.792607 -6.216025 1.534235 8342706
5.602909 -6.255740 1.056655 8342706
5.852815 -6.377370 1.232420 8342706
5.957098 -5.956536 3.029338 8342706
6.069064 -6.114785 4.760878 8342706
5.804296 -5.810485 0.609759 8342706
5.733421 -6.099861 2.488619 8342706
5.971180 -5.994629 3.147184 8342706
5.490960 -6.197898 1.914219 8342706
6.100325 -5.616318 0.131706 8342706
6.443655 -5.930556 1.240196 8342706
6.584418 -6.053220 3.874683 8342706
6.052051 -6.215798 3.269723 8342706
5.555065 -5.665188 1.959481 8342706
6.108409 -6.271300 4.428820 8342706
6.114113 -5.592325 4.640422 8342706
6.443004 -5.654133 0.238682 8342706
5.948132 -6.151032 2.690687 8342706
6.245064 -5.978291 2.443933 8342706
5.485404 -6.142222 3.681848 8342706
6.051535 -6.310813 1.983985 8342706
5.884670 -6.352188 1.013712 8342706
6.191264 -6.388888 4.429628 8342706
5.551218 -5.934040 3.854625 8342706
5.692351 -6.384856 2.527809 8342706
6.097311 -6.483088 1.393829 8342706
5.848223 -5.868376 4.549294 8342706
5.619248 -5.769702 2.359608 8342706
6.448657 -5.842642 2.612280 8342706
6.105457 -6.412651 0.597407 8342706
5.567061 -6.125244 1.884201 8342706
6.305863 -6.039580 1.863994 8342706
6.575900 -6.028670 3.638606 8342706
5.674117 -6.363648 0.604754 8342706
5.681169 -6.459662 0.754360 8342706
6.207931 -6.019583 2.576642 8342706
5.635602 -6.031639 3.280313 8342706
5.757156 -5.583673 4.709251 8342706
5.776451 -6.243583 4.036747 8342706
5.651714 -5.817413 1.225614 8342706
6.413869 -5.971085 4.436622 8342706
5.823161 -5.632156 3.514427 8342706
6.027640 -5.781183 0.926906 8342706
6.169577 -6.372181 1.765777 8342706
6.161110 -5.805613 1.587890 8342706
5.963991 -5.782766 4.081430 8342706
6.039386 -6.204103 4.573966 8342706
5.793833 -6.130648 0.217719 8342706
5.897311 -5.632828 1.692406 8342706
6.195775 -5.629649 3.859150 8342706
5.703846 -5.970683 3.109409 8342706
5.809422 -6.209287 2.610066 8342706
5.683811 -5.843056 2.900454 8342706
5.617557 -6.235009 3.731106 8342706
5.903770 -6.588058 1.070250 8342706
6.115777 -5.812657 1.680719 8342706
6.298503 -6.331586 0.542315 8342706
6.365897 -5.697486 2.316647 8342706
6.141203 -5.587870 3.089784 8342706
5.683534 -5.691527 1.216485 8342706
5.988863 -5.727053 3.710866 8342706
6.210836 -6.049645 4.403594 8342706
6.498769 -6.103108 2.697242 8342706
6.345279 -6.144587 3.365351 8342706
5.675702 -6.294178 4.694193 8342706
6.284066 -5.535229 4.645850 8342706
5.986159 -6.213578 3.541775 8342706
5.770695 -5.673529 2.588480 8342706
6.077656 -6.556466 4.488809 8342706
5.523752 -5.760904 4.278209 8342706
5.525891 -6.142626 2.889531 8342706
6.101279 -5.642711 2.468994 8342706
5.697390 -5.874323 4.039762 8342706
5.885335 -5.441213 3.036977 8342706
6.501581 -5.815104 0.100934 8342706
6.057555 -5.445951 0.396891 8342706
6.392330 -5.734083 0.058201 8342706
6.055218 -5.757748 0.514851 8342706
5.660168 -5.722559 3.077269 8342706
6.329210 -6.241040 1.526783 8342706
6.145029 -5.799600 2.473086 8342706
5.785017 -6.151991 1.606563 8342706
5.989490 -6.198410 0.125477 8342706
5.842009 -6.033131 3.741696 8342706
5.710506 -6.152612 3.398214 8342706
6.311209 -6.242737 4.595756 8342706
6.319652 -6.469016 3.386789 8342706
6.019930 -6.552844 4.168173 8342706
6.013692 -5.684232 4.205511 8342706
5.719016 -5.630056 4.218279 8342706
6.220667 -5.884683 1.890771 8342706
5.514288 -6.220325 4.635586 8342706
5.902899 -6.317744 4.691403 8342706
6.043762 -6.457101 1.305709 8342706
6.130673 -5.635029 2.035451 8342706
5.940741 -6.186060 1.705104 8342706
6.036664 -6.023058 4.540251 8342706
6.071394 -5.620622 1.148315 8342706
6.125766 -6.303154 1.586761 8342706
5.739307 -5.739778 0.106077 8342706
6.335547 -6.172004 3.046169 8342706
6.091638 -5.575517 2.640857 8342706
6.268790 -5.852013 1.017667 8342706
5.631320 -6.078038 1.902584 8342706
5.721079 -5.699274 2.260908 8342706
5.801184 -5.655036 2.609552 8342706
5.528822 -5.926415 3.569605 8342706
6.023830 -5.842923 1.892266 8342706
5.680551 -5.871248 1.484288 8342706
5.732671 -6.254787 2.826600 8342706
6.004854 -6.311732 4.891171 8342706
5.981746 -6.437277 4.826800 8342706
6.071359 -5.593642 3.846306 8342706
5.633622 -5.567236 1.999231 8342706
6.539726 -6.024523 4.252725 8342706
5.674391 -5.601851 1.930088 8342706
6.107282 -6.447214 1.691590 8342706
5.587601 -6.212967 1.872624 8342706
6.340885 -5.897374 3.501332 8342706
6.468811 -5.818070 3.833770 8342706
6.431733 -6.094210 3.873532 8342706
6.126353 -5.842465 3.357148 8342706
6.136793 -6.381694 0.998440 8342706
5.662774 -6.143132 3.355613 8342706
6.509253 -6.326696 0.121147 8342706
6.394463 -6.091964 4.925426 8342706
5.419965 -5.917056 3.803130 8342706
6.485665 -6.007252 0.239367 8342706
6.245256 -5.658777 3.713488 8342706
6.111022 -5.998006 2.450721 8342706
6.282000 -5.975821 0.692046 8342706
6.435185 -5.960437 2.425011 8342706
6.099697 -6.504023 2.784254 8342706
6.386929 -6.085182 1.409075 8342706
6.208052 -5.639394 1.085375 8342706
6.257575 -5.585736 4.327775 8342706
6.173054 -6.450691 0.725524 8342706
5.632465 -6.066493 3.192371 8342706
6.539211 -5.805779 1.099451 8342706
6.170302 -5.799146 2.598084 8342706
6.005268 -6.075610 2.532628 8342706
6.382055 -5.684317 1.810624 8342706
5.970722 -6.109833 3.837062 8342706
6.496471 -5.998213 1.573392 8342706
5.504274 -6.263252 0.745055 8342706
5.818409 -6.345580 4.991525 8342706
6.489801 -5.776331 3.981446 8342706
6.218826 -6.015894 0.125656 8342706
6.267093 -5.826893 3.580436 8342706
6.490079 -6.074821 4.569146 8342706
5.926194 -6.066925 3.119873 8342706
6.403714 -6.264589 1.767842 8342706
6.032351 -5.440183 1.978749 8342706
5.408586 -5.960363 4.274189 8342706
6.087848 -6.070193 2.983107 8342706
6.254350 -5.921625 3.245538 8342706
5.637196 -6.188790 3.357766 8342706
6.139401 -6.366652 4.393813 8342706
6.095516 -5.520799 4.105968 8342706
5.927107 -5.851934 2.931273 8342706
5.413915 -6.119168 2.052693 8342706
6.290563 -6.444609 4.867141 8342706
5.645288 -6.404234 2.927599 8342706
6.321458 -6.337266 2.366571 8342706
6.424950 -5.801904 1.047781 8342706
6.449729 -5.886325 2.240613 8342706
6.010078 -5.503173 2.053028 8342706
6.225267 -5.760440 0.468714 8342706
5.905694 -6.286477 1.561065 8342706
6.400846 -5.759673 2.441748 8342706
6.367846 -5.552262 4.102324 8342706
6.475481 -6.181380 1.482178 8342706
6.146482 -5.810323 3.251469 8342706
5.718713 -6.387609 3.101842 8342706
6.267980 -5.537566 4.452719 8342706
6.003562 -5.889808 0.751617 8342706
5.570565 -6.360990 4.402596 8342706
5.603482 -5.747288 4.262069 8342706
6.201048 -5.833912 1.380093 8342706
5.726503 -5.786195 1.069160 8342706
5.869320 -6.089747 0.609543 8342706
6.189283 -5.439071 1.185182 8342706
6.276662 -5.530332 1.168289 8342706
5.643137 -6.262586 4.280063 8342706
5.939243 -6.065849 4.937179 8342706
6.212679 -5.569893 3.771448 8342706
5.664850 -6.047288 4.271422 8342706
6.092601 -6.560994 4.289527 8342706
5.681236 -5.723849 3.967762 8342706
5.545037 -6.101176 3.773427 8342706
6.214269 -6.407076 1.041544 8342706
6.541911 -5.948272 0.511850 8342706
6.002789 -5.536760 2.924259 8342706
6.219212 -6.416193 1.647127 8342706
5.516578 -6.216665 3.936550 8342706
5.605393 -6.454291 2.822707 8342706
5.801695 -5.509304 2.261599 8342706
6.534433 -6.222907 2.091497 8342706
6.072780 -6.368166 0.533626 8342706
5.451097 -5.839021 2.590293 8342706
5.818303 -5.673892 2.540712 8342706
6.306551 -6.079974 0.220156 8342706
6.044517 -5.612854 4.352202 8342706
6.508798 -6.297490 4.429472 8342706
5.817339 -6.409930 4.436162 8342706
5.464005 -5.780973 4.328605 8342706
5.956575 -5.486685 1.521565 8342706
6.521022 -6.216562 4.034062 8342706
6.381437 -6.167019 1.427166 8342706
5.841060 -6.174671 3.737625 8342706
6.111108 -6.351441 1.931489 8342706
5.554785 -5.603504 3.396770 8342706
5.799144 -6.458817 3.519896 8342706
5.507569 -5.695260 3.913931 8342706
6.153411 -5.565114 0.033872 8342706
6.355002 -5.960604 2.640407 8342706
6.379553 -6.090053 1.736028 8342706
5.759140 -5.772453 3.228621 8342706
6.024314 -5.818594 3.163571 8342706
6.296340 -6.058598 2.034036 8342706
6.360067 -5.828411 2.205162 8342706
6.063818 -5.783339 0.109701 8342706
5.815457 -6.067861 0.111695 8342706
6.239299 -6.443722 0.884467 8342706
6.348421 -6.468282 0.745715 8342706
6.155658 -6.349710 4.235603 8342706
5.881759 -6.534411 1.815006 8342706
5.617774 -5.907315 0.982241 8342706
5.770426 -5.683637 2.718400 8342706
6.209449 -5.735267 0.409142 8342706
6.072505 -5.410875 2.093036 8342706
5.991790 -6.495897 1.070670 8342706
6.261794 -5.549623 1.284124 8342706
6.429636 -5.669130 3.615941 8342706
6.476471 -6.280328 0.321964 8342706
5.773784 -5.934630 4.015309 8342706
6.179117 -6.097967 1.747149 8342706
6.104244 -6.215125 3.253095 8342706
5.599873 -6.246996 3.700397 8342706
6.556767 -6.162018 1.836566 8342706
6.257909 -6.203560 1.683155 8342706
5.568909 -5.797937 2.469388 8342706
6.366474 -6.395999 2.010530 8342706
6.134726 -6.216657 3.580775 8342706
6.142474 -6.577472 4.288198 8342706
6.448201 -6.378270 3.693787 8342706
6.118523 -5.526997 1.993834 8342706
6.096390 -5.471874 0.891962 8342706
6.139181 -6.448677 1.171377 8342706
5.670592 -6.061026 0.135623 8342706
5.836512 -5.602470 2.616404 8342706
5.798548 -6.382174 2.622669 8342706
6.101805 -5.480924 3.504980 8342706
5.761461 -6.287715 3.363010 8342706
6.315477 -6.322347 1.080011 8342706
5.820020 -6.549282 4.751064 8342706
6.244937 -5.671710 4.902093 8342706
6.011562 -6.482609 1.850123 8342706
5.688447 -5.783064 0.304147 8342706
6.285783 -5.535013 4.278248 8342706
5.609102 -5.836961 4.362189 8342706
6.228294 -5.585515 0.477021 8342706
6.275975 -6.375745 4.026187 8342706
6.178882 -6.570267 0.566438 8342706
6.180830 -5.848394 0.996544 8342706
6.438893 -6.153729 2.782633 8342706
6.037366 -6.382912 3.731236 8342706
5.985687 -5.559408 2.048632 8342706
6.453545 -6.193309 3.306735 8342706
6.114045 -5.442540 0.250032 8342706
5.486292 -5.689972 4.379432 8342706
6.160794 -6.348180 1.661633 8342706
6.422963 -5.591419 1.843343 8342706
5.881541 -6.113980 0.905005 8342706
6.372836 -5.617654 3.701957 8342706
5.654335 -6.143502 3.757947 8342706
6.528016 -5.908330 1.169338 8342706
5.719237 -5.990622 2.439493 8342706
6.252671 -6.356022 2.940498 8342706
5.712519 -6.375175 4.094553 8342706
6.049427 -6.306787 3.905849 8342706
6.395660 -5.534054 4.934124 8342706
6.522617 -6.268806 4.667985 8342706
6.015469 -5.918446 3.869642 8342706
6.171388 -6.398958 4.358168 8342706
5.740662 -6.193213 1.999088 8342706
6.443545 -5.890521 2.127517 8342706
6.452206 -6.005138 2.191442 8342706
5.838849 -5.440579 1.065395 8342706
6.494521 -5.798894 0.300202 8342706
5.851125 -5.472080 1.381236 8342706
6.240055 -5.703620 4.808067 8342706
5.956144 -5.638095 1.239363 8342706
6.489394 -5.800708 2.275699 8342706
5.776829 -6.208442 3.690675 8342706
6.271517 -6.187842 1.526986 8342706
5.988268 -6.391257 3.983249 8342706
6.007463 -5.829389 2.282064 8342706
6.147348 -6.056735 4.111629 8342706
6.152273 -6.419101 4.359070 8342706
6.292107 -5.601304 4.758184 8342706
6.351864 -5.835819 3.607089 8342706
5.986211 -5.792232 3.173868 8342706
6.546132 -5.877732 3.046561 8342706
6.277681 -5.859472 2.848823 8342706
6.273272 -6.311383 1.987579 8342706
5.762572 -5.708864 3.618048 8342706
5.717594 -5.728328 3.061439 8342706
6.263632 -5.997208 1.464192 8342706
6.371819 -6.230261 1.092310 8342706
5.838593 -5.569134 2.975559 8342706
5.502645 -5.908329 0.133575 8342706
5.653440 -5.642684 0.443363 8342706
5.600538 -5.575763 2.868526 8342706
6.010590 -5.536842 2.120055 8342706
5.531630 -6.092593 1.881296 8342706
6.128667 -5.507658 3.467102 8342706
5.437508 -5.919049 4.584218 8342706
5.451310 -5.787255 2.904990 8342706
6.186361 -6.328088 1.833508 8342706
5.555442 -6.396701 0.846406 8342706
5.890921 -6.517182 1.624181 8342706
6.094404 -6.331254 3.428492 8342706
5.952411 -6.496139 4.608780 8342706
6.339129 -6.167968 0.788621 8342706
6.501579 -6.335146 1.450987 8342706
6.553400 -5.890378 3.396186 8342706
5.580758 -6.070643 1.112033 8342706
6.261664 -6.285726 1.945978 8342706
6.164473 -6.298147 2.935763 8342706
6.065545 -6.528418 4.966582 8342706
5.966734 -6.489460 0.611979 8342706
6.289518 -5.767911 1.757361 8342706
6.394961 -5.932474 1.295218 8342706
6.217036 -6.396249 0.490676 8342706
6.288630 -6.120176 2.898192 8342706
6.487088 -6.136837 0.080550 8342706
6.083467 -5.667937 1.231590 8342706
6.498136 -6.266708 4.278592 8342706
6.449933 -5.645403 4.807814 8342706
6.485919 -6.168041 3.630197 8342706
6.336202 -6.327014 1.603641 8342706
5.739364 -6.301531 0.433160 8342706
6.172794 -5.592011 2.719015 8342706
6.247808 -6.044728 3.859745 8342706
6.322875 -5.846572 0.384063 8342706
6.188058 -5.860018 3.949520 8342706
5.762670 -6.404589 3.283605 8342706
6.387818 -6.206861 -0.015506 8342706
6.346601 -5.740828 1.372948 8342706
6.278658 -6.012821 4.220210 8342706
6.331619 -6.058207 2.047183 8342706
5.775865 -5.572761 4.394811 8342706
5.830976 -6.012111 0.857728 8342706
6.046105 -5.739421 4.191558 8342706
5.522775 -5.717577 3.996384 8342706
6.451951 -6.124331 1.749686 8342706
6.279027 -6.454979 1.696744 8342706
6.262503 -6.230394 4.636566 8342706
5.526590 -6.325764 1.234470 8342706
6.010844 -6.242154 3.453569 8342706
6.225429 -5.571369 3.773027 8342706
6.019195 -6.584306 3.657718 8342706
5.936449 -6.034895 1.745296 8342706
5.803738 -5.642909 2.737277 8342706
6.166634 -6.315540 0.924505 8342706
6.175159 -5.984747 3.898250 8342706
6.123719 -6.289776 1.958069 8342706
5.768603 -6.152890 1.038715 8342706
6.576147 -6.001795 1.748333 8342706
5.747458 -6.100898 4.297704 8342706
6.468041 -5.767775 1.029627 8342706
5.549979 -5.865330 0.767249 8342706
6.302424 -6.017523 4.998746 8342706
6.165202 -6.573798 4.097477 8342706
6.083998 -6.413533 4.684375 8342706
6.010513 -5.813501 1.401372 8342706
6.502654 -6.155321 4.990572 8342706
6.152063 -6.067608 1.669010 8342706
5.807312 -5.972257 2.089770 8342706
5.742390 -5.948681 3.026984 8342706
6.493516 -6.227143 4.099797 8342706
5.486739 -5.875248 3.565991 8342706
6.168982 -6.102740 0.989745 8342706
5.857513 -6.255861 1.909442 8342706
5.924007 -5.622536 2.410525 8342706
6.314697 -6.264866 0.094932 8342706
5.809012 -5.581738 4.553690 8342706
5.971391 -5.478571 4.056263 8342706
5.775019 -5.445207 3.557493 8342706
6.405038 -6.358639 1.568619 8342706
5.492198 -6.002043 4.722694 8342706
6.043842 -6.517159 0.114256 8342706
6.550220 -5.953654 1.494114 8342706
6.377116 -5.549449 3.359942 8342706
5.771378 -5.904963 0.824218 8342706
6.006766 -5.986351 0.876883 8342706
5.622712 -5.921128 2.199717 8342706
5.730123 -5.615694 2.279329 8342706
5.777591 -6.106776 3.527768 8342706
6.329280 -5.516020 1.128430 8342706
5.655597 -5.762128 4.824656 8342706
5.890052 -5.789185 0.081888 8342706
5.638742 -6.460423 2.437326 8342706
5.883923 -6.457262 3.649284 8342706
6.031700 -6.584380 0.584246 8342706
6.055849 -5.715607 1.713796 8342706
6.115389 -5.910971 1.782611 8342706
6.153221 -5.770792 4.156495 8342706
5.498043 -6.267690 4.953458 8342706
6.546742 -5.852402 2.143191 8342706
6.227640 -6.458796 3.892364 8342706
6.226763 -5.720590 2.526397 8342706
6.227711 -6.374795 2.391138 8342706
6.083531 -5.637134 4.512358 8342706
