# .PCD v0.7 - Point Cloud Data file format
VERSION 0.7
FIELDS x y z rgb
SIZE 4 4 4 4
TYPE F F F U
COUNT 1 1 1 1
WIDTH 1207
HEIGHT 1
VIEWPOINT 0 0 0 1 0 0 0
POINTS 1207
DATA ascii
-12.817013 0.062192 1.615458 15014169
-12.945226 0.598832 0.575924 15014169
-13.256471 0.239658 0.634672 15014169
-12.679232 0.122392 1.357983 15014169
-13.003778 0.102819 1.346580 15014169
-13.220813 0.603463 1.647801 15014169
-12.621438 0.263820 0.340393 15014169
-12.579507 0.202970 1.269144 15014169
-13.018594 -0.020441 1.501198 15014169
-12.828796 0.505568 1.061507 15014169
-12.639208 0.591440 0.311708 15014169
-13.203224 0.154463 0.486138 15014169
-12.779108 0.265542 1.535998 15014169
-13.129556 0.275977 0.347823 15014169
-12.776652 0.303373 0.484823 15014169
-12.660191 0.629982 0.385857 15014169
-13.260661 0.291257 1.157031 15014169
-13.050261 0.437403 0.594892 15014169
-12.896268 0.387598 0.916039 15014169
-13.176286 0.117289 0.475427 15014169
-13.040425 0.131504 1.053738 15014169
-12.866427 0.278657 0.744455 15014169
-12.903708 0.579704 1.495220 15014169
-13.215787 0.184834 0.881166 15014169
-12.775966 0.475848 0.929182 15014169
-12.975606 0.541100 1.056607 15014169
-12.619652 0.021112 0.810832 15014169
-12.593130 0.474934 1.550731 15014169
-13.113241 0.484185 0.575995 15014169
-12.878338 0.132294 0.897351 15014169
-12.723136 0.214704 1.162551 15014169
-12.968785 0.614031 1.218277 15014169
-12.813391 0.232869 1.046533 15014169
-13.241396 0.010641 1.585209 15014169
-13.222149 0.618993 1.293551 15014169
-12.840055 0.503747 0.491563 15014169
-12.715508 0.474902 1.073469 15014169
-12.932116 0.300724 0.938452 15014169
-12.703798 0.153123 0.384388 15014169
-12.590932 0.306791 1.363328 15014169
-12.781392 0.352157 0.481671 15014169
-13.104388 0.286300 1.089400 15014169
-12.713056 0.187021 0.845249 15014169
-12.660572 0.572657 0.437053 15014169
-13.165900 0.428849 1.082948 15014169
-12.589105 0.502268 1.426574 15014169
-13.095613 0.344539 1.176990 15014169
-13.257650 0.319780 0.939767 15014169
-12.999834 0.161707 1.569639 15014169
-13.237338 0.196907 0.712730 15014169
-12.606657 -0.021108 0.920430 15014169
-13.022357 0.465452 1.259631 15014169
-12.782993 0.596412 1.644737 15014169
-13.240037 0.064745 0.348292 15014169
-12.625669 0.683615 0.818598 15014169
-13.227042 0.056302 1.536176 15014169
-12.941894 0.119429 1.181518 15014169
-12.711898 0.317537 0.357468 15014169
-13.013593 0.577875 0.450804 15014169
-13.192936 0.502648 0.482283 15014169
-13.176163 0.152137 0.715896 15014169
-13.048566 0.542949 0.638194 15014169
-13.216429 0.059613 0.813780 15014169
-13.114666 0.565545 1.141185 15014169
-13.060452 0.664169 0.895514 15014169
-12.633293 0.183636 0.747537 15014169
-12.573455 0.039325 1.523199 15014169
-12.595318 0.219507 1.559964 15014169
-12.634258 0.674485 0.469692 15014169
-12.864533 0.524334 1.314714 15014169
-12.687942 -0.016695 1.621657 15014169
-13.166186 -0.011204 1.681884 15014169
-13.147491 0.549524 0.331757 15014169
-13.246679 0.025384 1.185850 15014169
-13.075707 0.259777 1.638805 15014169
-13.125196 0.136237 0.976280 15014169
-13.069550 0.344339 0.945840 15014169
-13.035839 -0.020436 1.361030 15014169
-12.646078 0.234707 0.957655 15014169
-13.223904 0.490989 0.634902 15014169
-13.161813 0.057623 0.591959 15014169
-12.756824 0.296189 1.265812 15014169
-13.161618 0.115414 1.453668 15014169
-13.270097 0.127922 1.472648 15014169
-12.818806 0.167719 1.459732 15014169
-13.137836 0.371189 1.127367 15014169
-12.578976 0.443325 0.785179 15014169
-12.928535 0.145547 1.688628 15014169
-12.987009 0.033350 1.663739 15014169
-12.634659 0.340475 0.347520 15014169
-12.682770 0.611031 1.180521 15014169
-13.093796 0.641820 0.340096 15014169
-13.037621 0.226387 1.493462 15014169
-13.265379 0.431555 1.070353 15014169
-13.053956 0.039915 0.499660 15014169
-12.819455 0.008009 0.385744 15014169
-12.967120 0.337887 0.335150 15014169
-12.885265 0.051046 0.460421 15014169
-12.800119 0.185883 1.387668 15014169
-4.378287 7.181516 0.477755 10053171
-5.957057 7.070800 0.426337 10053171
-4.447183 6.974747 2.369446 10053171
-5.175204 7.187482 2.906021 10053171
-3.847070 6.983925 0.290396 10053171
-6.691918 6.754298 2.481664 10053171
-4.097543 7.165166 2.560004 10053171
-3.156132 6.950008 1.345234 10053171
-4.395078 6.981388 0.498781 10053171
-3.494548 7.209992 2.560177 10053171
-3.673292 7.184975 2.490245 10053171
-3.296628 6.959357 0.843903 10053171
-3.999906 7.061667 0.154501 10053171
-4.959627 6.819481 1.156180 10053171
-6.833544 6.974996 0.170608 10053171
-4.618046 7.120022 2.192165 10053171
-6.420533 6.976810 1.211975 10053171
-4.668416 6.951608 0.433586 10053171
-6.902562 6.770935 2.820387 10053171
-6.295409 7.222978 2.889879 10053171
-6.065655 7.080107 0.769782 10053171
-6.154420 6.831858 2.795304 10053171
-3.736151 6.864788 2.225353 10053171
-4.806499 7.045469 2.514379 10053171
-6.576211 7.013892 2.654182 10053171
-6.045643 7.141932 1.111421 10053171
-3.391392 7.156880 1.438218 10053171
-4.618829 6.961116 1.345294 10053171
-6.010343 7.209838 2.410889 10053171
-6.681404 7.028035 2.951804 10053171
-6.882751 7.060058 1.111948 10053171
-5.968243 6.758361 0.152868 10053171
-6.127283 7.031002 1.978160 10053171
-3.868472 6.975812 0.579344 10053171
-4.713405 7.168450 0.109869 10053171
-5.870135 7.154244 2.076182 10053171
-4.842695 6.963950 1.416120 10053171
-5.494821 7.229340 2.744933 10053171
-5.065679 6.766105 1.295771 10053171
-6.185718 6.973760 2.569392 10053171
-4.490408 6.923646 2.125845 10053171
-4.117618 7.098997 1.103428 10053171
-3.860935 6.769100 0.874530 10053171
-4.728017 6.915830 2.266111 10053171
-5.538953 6.967281 0.656109 10053171
-3.809883 7.061620 1.152606 10053171
-3.487117 7.066077 2.131700 10053171
-4.285557 7.204158 0.705100 10053171
-4.123396 7.245466 2.576506 10053171
-5.312783 6.997368 1.602284 10053171
-6.769227 7.062294 2.630716 10053171
-5.683434 6.973338 1.216448 10053171
-5.772552 6.878990 2.795938 10053171
-3.542912 6.856703 2.697406 10053171
-3.054773 6.881222 0.622331 10053171
-5.037339 7.018501 2.172580 10053171
-3.514330 7.059786 0.793793 10053171
-5.437245 7.060434 1.620466 10053171
-3.343730 7.086994 2.162296 10053171
-6.459602 7.193910 0.027109 10053171
-6.380094 6.757192 2.589064 10053171
-4.405085 6.931423 2.946160 10053171
-6.300187 6.954855 0.872615 10053171
-3.759362 7.189794 1.032741 10053171
-3.534716 7.061981 2.678980 10053171
-4.181039 6.922287 2.165392 10053171
-6.327309 6.810819 1.047401 10053171
-3.780844 7.016720 1.939663 10053171
-3.870866 7.043734 1.237540 10053171
-5.437063 7.219229 0.704608 10053171
-5.918268 6.946094 2.507305 10053171
-3.280385 6.892883 1.516782 10053171
-6.808082 6.764999 2.280165 10053171
-3.708608 6.984475 0.991183 10053171
-6.509359 7.218847 1.576807 10053171
-5.308177 6.986132 0.856120 10053171
-6.497139 6.860490 0.432855 10053171
-4.542636 7.090364 2.275764 10053171
-6.740609 7.172346 1.121129 10053171
-4.021550 6.896247 0.265490 10053171
-5.790932 7.199094 0.702145 10053171
-6.954191 7.076419 2.901185 10053171
-3.114057 7.076222 2.178365 10053171
-4.148731 7.107354 0.050748 10053171
-4.452748 7.166730 1.365669 10053171
-6.607547 7.226693 0.416615 10053171
-5.840264 6.864553 0.161884 10053171
-3.244973 6.902339 0.152399 10053171
-6.524110 6.926140 1.321650 10053171
-5.961576 6.844446 0.010271 10053171
-5.442914 7.046985 1.775662 10053171
-6.366889 7.000997 2.959199 10053171
-6.052454 6.832314 2.941063 10053171
-4.241594 7.235954 1.416889 10053171
-4.280763 7.100067 2.188708 10053171
-3.926363 7.194416 2.412006 10053171
-5.678811 7.200751 0.387871 10053171
-5.358619 6.909960 0.446411 10053171
-3.331914 6.949636 0.996026 10053171
-6.884458 6.973694 0.257699 10053171
-4.488955 6.801927 1.773529 10053171
-6.228471 7.210599 1.520835 10053171
-3.844736 7.197425 0.857374 10053171
-3.766528 6.969202 2.106262 10053171
-4.826064 7.146511 1.227469 10053171
-5.620648 7.232117 1.598234 10053171
-4.226314 6.955419 0.427643 10053171
-5.526499 7.188570 0.316711 10053171
-3.278971 7.086800 0.143816 10053171
-5.117081 6.770089 1.791018 10053171
-5.628930 7.066318 2.634797 10053171
-5.452263 6.879879 2.380182 10053171
-4.454384 6.918582 0.702297 10053171
-4.768919 6.952761 2.312779 10053171
-6.490694 6.954257 1.155215 10053171
-5.731492 6.790444 1.399690 10053171
-4.573526 6.908310 1.790049 10053171
-4.045996 7.067317 2.537726 10053171
-3.334213 7.040216 0.185369 10053171
-4.625326 6.746852 1.415071 10053171
-3.826352 7.195962 0.845429 10053171
-5.170124 6.854431 0.238245 10053171
-6.428183 6.771860 0.300857 10053171
-5.578947 7.019111 0.814830 10053171
-3.140057 7.176250 1.574106 10053171
-5.363926 7.063465 2.707968 10053171
-5.326932 6.935120 2.691105 10053171
-4.399718 6.908881 0.784574 10053171
-6.956802 7.102556 2.646220 10053171
-4.278679 7.042060 2.887813 10053171
-4.872126 6.979681 0.246328 10053171
-6.486596 6.911695 2.233922 10053171
-5.329300 6.918578 1.765151 10053171
-5.257745 7.034098 1.626729 10053171
-4.648880 6.829694 0.818555 10053171
-3.267913 6.835424 0.448918 10053171
-4.009533 6.967329 1.201284 10053171
-3.747042 7.238150 0.809307 10053171
-5.130574 7.037498 2.760356 10053171
-4.742382 7.169453 1.092257 10053171
-5.660594 6.786961 2.550988 10053171
-5.410119 7.156711 2.286956 10053171
-6.051418 7.005087 2.971798 10053171
-3.730470 6.947891 1.086833 10053171
-4.271031 7.072865 2.728083 10053171
-5.934232 7.040518 0.646098 10053171
-4.953058 6.815796 2.294111 10053171
-3.940048 6.810127 1.358317 10053171
-6.025154 7.181866 1.744612 10053171
-3.621766 7.210630 0.391097 10053171
-5.868434 6.925038 2.263612 10053171
-6.581253 6.872536 1.764545 10053171
-4.757362 6.796654 2.800313 10053171
-6.486605 7.168314 1.201910 10053171
-3.573121 7.008192 1.077745 10053171
-6.249363 6.823231 1.547119 10053171
-3.014961 6.859769 1.558662 10053171
-6.377585 7.242076 0.945975 10053171
-4.803865 6.994470 1.227900 10053171
-6.381525 7.109597 0.929606 10053171
-6.878762 6.885926 2.268071 10053171
-3.727360 7.202790 1.791998 10053171
-4.222822 7.196674 0.797353 10053171
-6.336222 6.778351 2.946657 10053171
-3.023870 6.777506 2.259036 10053171
-6.415373 6.899082 1.503215 10053171
-6.306557 7.008367 0.988686 10053171
-5.144075 6.784109 1.220130 10053171
-3.938203 7.158847 0.941956 10053171
-6.418174 7.069250 0.856951 10053171
-6.211295 6.755214 2.083746 10053171
-3.524166 7.038728 0.960052 10053171
-5.327260 6.973892 2.317300 10053171
-4.504617 6.762386 0.627684 10053171
-5.565681 7.198803 0.170951 10053171
-3.628929 6.932508 1.815452 10053171
-6.979800 7.161197 2.095349 10053171
-6.173444 7.175120 1.953877 10053171
-4.708367 6.903389 0.440448 10053171
-5.525082 6.952504 1.731335 10053171
-6.736200 6.797262 1.253017 10053171
-5.558255 6.795177 1.491300 10053171
-6.425155 6.874415 2.016190 10053171
-5.982446 6.779382 1.061140 10053171
-5.774935 6.763121 2.051513 10053171
-5.543452 6.784310 1.569495 10053171
-3.365494 7.064907 2.626394 10053171
-5.049995 7.029116 0.347638 10053171
-4.190689 7.182773 0.546455 10053171
-5.062249 7.149083 0.828907 10053171
-6.384811 6.896935 2.852255 10053171
-6.855290 6.828405 2.530017 10053171
-6.716958 6.752578 0.418092 10053171
-3.250711 7.106473 1.586418 10053171
-6.023795 6.731369 2.602632 10053171
-4.059524 6.923216 1.553357 10053171
-6.692002 7.218830 0.598140 10053171
-6.908959 6.962448 2.975157 10053171
-4.491429 6.916360 1.950434 10053171
-4.898415 7.058214 2.565238 10053171
-3.967887 7.100032 0.782896 10053171
-4.129557 7.225863 0.517938 10053171
-3.904546 6.791036 1.131045 10053171
-3.469919 7.216734 2.473100 10053171
-3.382018 7.160820 0.200542 10053171
-3.143982 6.774298 0.441519 10053171
-4.770420 7.187315 1.090093 10053171
-6.900163 7.097373 0.572787 10053171
-6.259685 6.777294 1.876057 10053171
-6.635155 6.943120 0.620988 10053171
-6.349230 7.160195 1.719893 10053171
-6.414426 6.831289 1.110518 10053171
-4.965271 6.829467 0.319936 10053171
-5.294559 7.042721 1.113492 10053171
-5.993925 7.080580 1.256154 10053171
-3.180302 7.011847 2.081730 10053171
-4.529617 6.919212 0.181583 10053171
-6.046986 6.833550 0.167056 10053171
-3.620782 7.161698 0.323157 10053171
-3.337958 7.200061 2.604434 10053171
-4.003351 6.903039 2.655369 10053171
-4.126349 6.850896 2.964422 10053171
-5.528811 7.092978 1.939391 10053171
-4.329807 7.157769 0.731080 10053171
-4.280855 6.936700 0.599563 10053171
-3.620560 7.162136 0.577523 10053171
-3.742289 6.942031 0.907621 10053171
-4.657145 7.007572 0.621072 10053171
-4.195400 6.938609 0.204976 10053171
-6.537101 6.808124 2.344444 10053171
-4.726082 7.146196 0.502711 10053171
-5.156373 6.982869 1.450128 10053171
-6.461042 7.234042 1.309601 10053171
-6.979248 7.018475 2.103414 10053171
-6.600695 7.249863 1.477797 10053171
-5.036500 7.110047 2.899287 10053171
-4.728624 6.834254 0.720963 10053171
-4.291215 6.921056 1.336620 10053171
-5.426122 6.820001 2.061608 10053171
-3.984309 6.766886 2.797511 10053171
-5.960928 7.025869 1.398807 10053171
-6.746166 6.773054 0.245130 10053171
-3.298692 7.147835 2.693097 10053171
-5.106286 7.068551 1.720448 10053171
-5.843252 7.188086 0.521576 10053171
-6.250367 6.874994 1.056795 10053171
-6.957301 7.079400 1.628293 10053171
-5.755111 7.213433 2.547354 10053171
-6.236767 6.950612 2.037085 10053171
-3.797468 6.953499 1.366394 10053171
-5.701127 7.173345 0.868416 10053171
-3.119748 6.814315 0.973615 10053171
-3.906775 6.851163 1.103563 10053171
-5.344469 7.168175 1.638622 10053171
-3.498644 6.759233 0.861200 10053171
-4.679277 7.235961 1.575189 10053171
-3.646481 7.000819 2.221494 10053171
-4.568971 7.129749 2.696151 10053171
-4.903124 7.081074 2.078043 10053171
-6.920702 6.804952 2.365269 10053171
-3.410976 7.115858 0.860830 10053171
-5.524116 7.053054 2.927511 10053171
-4.856739 6.926709 0.694458 10053171
-4.596146 7.002802 2.170272 10053171
-6.912796 7.031433 2.218810 10053171
-3.640520 6.860868 1.215613 10053171
-4.327335 6.923859 0.816105 10053171
-6.443850 6.791520 2.086881 10053171
-6.044532 6.781209 2.072003 10053171
-4.831043 6.763895 0.957435 10053171
-3.727683 6.860780 -0.009938 10053171
-4.867673 7.106099 2.481188 10053171
-3.757452 6.997637 2.485506 10053171
-5.175450 7.096988 1.506757 10053171
-6.233437 6.853867 1.621707 10053171
-6.683063 7.170184 2.939832 10053171
-3.937633 6.917299 0.943087 10053171
-6.242501 7.041716 0.936561 10053171
-4.868133 7.161837 1.504202 10053171
-3.273972 7.220928 0.923781 10053171
-6.356330 7.081623 1.861447 10053171
-5.698254 6.826933 1.333693 10053171
-3.577369 6.908765 0.408016 10053171
-5.645829 6.787646 2.098411 10053171
-4.310101 7.246646 0.423191 10053171
-3.197417 7.026302 1.423224 10053171
-3.106725 6.936937 1.813109 10053171
-4.063407 6.759574 0.915893 10053171
-4.275204 7.207058 1.323918 10053171
-3.100215 6.847874 0.306894 10053171
-4.008372 7.121441 1.434099 10053171
-5.442771 6.937620 1.065666 10053171
-3.991518 6.956304 0.366019 10053171
-3.781454 6.951069 0.166421 10053171
-5.728861 7.234394 1.860826 10053171
-5.688588 7.218963 1.770309 10053171
-6.044411 6.756582 2.382181 10053171
-3.627529 6.949427 0.810424 10053171
-5.208272 7.115279 1.190615 10053171
-5.141051 6.819119 2.478910 10053171
-4.277737 7.185104 0.634215 10053171
-6.971625 7.227251 0.051452 10053171
-4.008462 6.819960 1.119885 10053171
-4.051931 6.799745 1.848762 10053171
-5.404928 6.861063 2.751937 10053171
-3.280709 7.030161 1.506233 10053171
-3.323771 7.216983 -0.002105 10053171
-3.242501 6.807015 1.490244 10053171
-4.635007 6.953865 1.559390 10053171
-4.961878 6.845215 0.140007 10053171
-6.803589 6.836193 1.567525 10053171
-5.536002 6.929583 0.125772 10053171
-6.926922 6.907180 1.397710 10053171
-4.193304 6.757942 1.325955 10053171
-6.381140 6.920984 0.240178 10053171
-3.352343 6.770046 2.834903 10053171
-4.109267 6.800086 1.396909 10053171
-4.731005 6.823530 1.935086 10053171
-6.171267 6.789079 0.129369 10053171
-5.204875 7.123770 1.847517 10053171
-6.272087 7.125375 2.228286 10053171
-5.125419 7.062414 1.401419 10053171
-6.462192 6.917096 1.322881 10053171
-5.472183 7.065138 0.282954 10053171
-4.945962 7.187780 1.777407 10053171
-3.853553 6.987413 1.632570 10053171
-5.415475 7.083141 2.721730 10053171
-5.698236 7.055067 2.972752 10053171
-6.833156 7.151430 0.780477 10053171
-4.897914 7.167074 1.123552 10053171
-6.968690 6.947530 0.280009 10053171
-6.732263 6.967742 1.042009 10053171
-4.304542 6.785092 1.928426 10053171
-3.986584 7.164459 0.055150 10053171
-3.122400 7.044600 1.340833 10053171
-3.865381 7.007033 0.409539 10053171
-3.110932 6.752196 1.714263 10053171
-3.473177 6.857069 0.327536 10053171
-6.638831 7.085855 1.210846 10053171
-4.087326 7.133315 0.744815 10053171
-3.783911 7.007125 2.088521 10053171
-3.788713 7.031136 1.258290 10053171
-4.637323 7.142541 2.671365 10053171
-4.616131 7.242312 2.361526 10053171
-6.249347 7.133302 0.871604 10053171
-3.115233 6.897673 0.021883 10053171
-4.395991 6.745946 0.513943 10053171
-5.190872 7.011840 2.842869 10053171
-5.347689 7.001777 2.484003 10053171
-3.664383 7.204814 1.074843 10053171
-4.827720 6.777759 0.090784 10053171
-4.735048 7.123943 0.919032 10053171
-4.073237 6.874661 1.502045 10053171
-3.548223 6.975696 0.975784 10053171
-6.952308 7.104419 0.907834 10053171
-3.906233 6.942469 1.342227 10053171
-3.572651 6.925498 2.728148 10053171
-5.512471 6.841830 2.608331 10053171
-5.414008 6.777942 2.405951 10053171
-3.049305 6.823430 2.934566 10053171
-6.159676 6.844671 2.052264 10053171
-4.422938 7.150924 0.775781 10053171
-4.537936 7.026182 0.708706 10053171
-3.188331 7.238592 2.734504 10053171
-5.879375 7.199874 2.540560 10053171
-4.234343 6.902546 2.126109 10053171
-3.180588 6.936971 0.502923 10053171
-5.032844 6.829829 1.852009 10053171
-3.738613 6.965508 0.097710 10053171
-4.339758 7.212291 0.522806 10053171
-6.174493 6.870183 1.538781 10053171
-3.869036 7.209041 0.587138 10053171
-5.437232 6.783796 1.460464 10053171
-3.216977 6.823125 2.193031 10053171
-3.458332 6.953098 0.323468 10053171
-3.944655 7.233752 2.073574 10053171
-6.169045 7.202253 0.269132 10053171
-6.577357 6.880928 0.528212 10053171
-4.626201 6.890730 1.226583 10053171
-5.139957 6.804615 0.021086 10053171
-5.466146 6.804257 0.519425 10053171
-3.767393 6.820516 0.406581 10053171
-5.342718 7.224361 0.685307 10053171
-3.173021 7.171815 1.379441 10053171
-4.939919 6.743349 2.540683 10053171
-6.750377 7.148727 1.642933 10053171
-4.805367 6.758796 1.180893 10053171
-4.086408 7.050179 1.634429 10053171
-4.076669 7.030363 1.606826 10053171
-3.514663 6.931827 2.947043 10053171
-4.086019 7.141234 2.894235 10053171
-6.593984 6.921931 1.756969 10053171
-5.209003 7.033790 1.702177 10053171
-5.115798 7.173814 2.141182 10053171
-4.510380 6.861917 0.009352 10053171
-5.321448 6.752940 2.571382 10053171
-5.159781 6.751133 1.363731 10053171
-4.064224 6.882265 0.711444 10053171
-4.394784 7.040721 1.054181 10053171
-5.244180 7.119842 0.695783 10053171
-3.758313 6.794411 1.895631 10053171
-3.633884 7.261384 2.739560 10053171
-3.361327 7.136456 0.995302 10053171
-4.065598 7.196960 2.645623 10053171
-3.106796 7.171253 2.856680 10053171
-3.574613 7.040288 1.647007 10053171
-5.327229 7.112148 0.090761 10053171
-3.918899 6.929247 2.304273 10053171
-6.397186 7.038073 2.546588 10053171
-3.099719 7.108121 2.762566 10053171
-4.856363 7.168424 0.098899 10053171
-5.888368 6.897636 0.133337 10053171
-4.276824 7.058811 0.564394 10053171
-4.623184 7.128592 0.021367 10053171
-6.613740 7.220559 1.365624 10053171
-6.049505 6.945551 0.114722 10053171
-5.836020 6.762283 2.903364 10053171
-4.475180 7.049901 2.823654 10053171
-5.623154 7.202882 2.528700 10053171
-3.117177 6.953667 0.612511 10053171
-5.752382 6.948847 0.603517 10053171
-4.081409 7.132005 1.541546 10053171
-4.673691 6.773419 1.662802 10053171
-4.973001 7.130594 1.222861 10053171
-4.427422 6.957582 0.515204 10053171
-5.281796 7.246356 0.304517 10053171
-3.873182 6.947053 0.831486 10053171
-4.240446 6.953928 2.669347 10053171
-5.251681 7.122860 1.725332 10053171
-3.041945 6.980671 0.261455 10053171
-5.442784 6.872518 1.059649 10053171
-6.575926 7.073047 2.694990 10053171
-5.124359 6.826433 1.665645 10053171
-3.043455 6.904621 0.747554 10053171
-6.567282 6.978568 1.190636 10053171
-3.056356 6.997992 0.200759 10053171
-6.271492 7.224566 1.889264 10053171
-3.685847 6.933573 1.373280 10053171
-4.165775 7.117991 0.212513 10053171
-3.847643 7.148790 1.802143 10053171
-4.179089 7.001626 1.348804 10053171
-3.104493 6.810328 0.743685 10053171
-5.595302 7.222623 0.126568 10053171
-5.681572 7.008517 2.798215 10053171
-4.788281 6.948396 1.817476 10053171
-5.940619 7.158502 2.068724 10053171
-3.324145 7.090292 0.984369 10053171
-6.509592 6.802697 0.738147 10053171
-6.595893 7.073629 1.914664 10053171
-3.736917 6.842356 0.032907 10053171
-4.644817 7.129261 2.027074 10053171
-5.617742 6.779225 2.678740 10053171
-3.963173 7.092564 0.429415 10053171
-3.918252 6.776275 1.669631 10053171
-5.386765 7.013540 0.799642 10053171
-4.829221 6.841051 1.739767 10053171
-5.786839 6.950140 1.082798 10053171
-6.615060 6.867900 0.172271 10053171
-4.516323 6.952224 1.713327 10053171
-3.719028 7.086284 2.798100 10053171
-5.684334 6.847936 0.061137 10053171
-5.653830 7.049206 0.375377 10053171
-4.249438 6.840951 0.863687 10053171
-5.865228 6.860477 2.068386 10053171
-4.893330 6.839216 2.926605 10053171
-3.194300 7.005761 2.020883 10053171
-3.606822 6.915730 1.078066 10053171
-4.808991 7.129330 2.859792 10053171
-4.513686 7.152587 1.475832 10053171
-3.460856 7.112755 1.065789 10053171
-3.148998 7.181568 0.490653 10053171
-5.413055 7.116368 0.829633 10053171
-6.647284 6.997399 2.571231 10053171
-3.290723 6.900233 2.373174 10053171
-5.850835 7.160050 2.050841 10053171
-4.665004 6.915305 1.461631 10053171
-4.288692 6.838224 2.107778 10053171
-3.031744 6.764084 2.454749 10053171
-3.038282 6.990215 1.079823 10053171
-4.369286 7.205258 0.315179 10053171
-5.481784 7.212213 2.288696 10053171
-5.605505 7.112780 1.131274 10053171
-3.875884 6.900808 1.866023 10053171
-4.648594 7.113171 2.920380 10053171
-4.743683 7.175611 2.680790 10053171
-6.289330 7.052618 1.585282 10053171
-3.126414 7.209130 0.306004 10053171
-4.503223 6.879386 2.787802 10053171
-3.038540 6.904794 1.104885 10053171
-4.432901 7.256427 2.834029 10053171
-5.017285 6.925029 2.697133 10053171
-3.209890 6.973683 0.508561 10053171
-5.976188 6.808466 0.807152 10053171
-4.706936 7.138782 0.315614 10053171
-3.006006 7.052668 0.551660 10053171
-5.438959 6.909085 1.095963 10053171
-3.920978 6.827001 0.616047 10053171
-6.067324 6.968249 2.726998 10053171
-3.318974 6.933312 0.549442 10053171
-5.725136 6.764362 2.831797 10053171
-4.196748 6.856608 0.622861 10053171
-6.592783 6.997315 2.945642 10053171
-6.908633 7.232563 2.513509 10053171
-6.894783 7.222132 0.740707 10053171
-5.288862 7.003485 2.463261 10053171
-5.209723 6.945400 1.284211 10053171
-3.162342 7.147905 1.889813 10053171
-6.380381 6.946954 1.697958 10053171
-4.080937 6.866069 0.117146 10053171
-3.517964 6.893848 0.021817 10053171
-6.120266 6.873295 1.893434 10053171
-3.107419 7.080402 0.770485 10053171
-3.572951 7.043577 2.737043 10053171
-4.239893 7.039840 2.649264 10053171
-3.438678 6.889094 2.424858 10053171
-5.094687 6.892419 2.888822 10053171
-4.449409 7.131357 1.056544 10053171
-6.617635 6.853425 2.025269 10053171
-3.842181 6.866123 2.283011 10053171
-3.556153 6.983205 1.037196 10053171
-4.280669 6.736956 0.890869 10053171
-3.863242 7.027514 1.007680 10053171
-5.341543 6.957115 2.091344 10053171
-3.229011 6.848617 0.491552 10053171
-3.406303 7.249832 0.657089 10053171
-6.374069 6.768754 1.238453 10053171
-5.803284 7.237536 1.584338 10053171
-3.794606 6.906768 0.816517 10053171
-6.583172 6.855513 1.588334 10053171
-4.372697 6.780019 0.980096 10053171
-5.654979 6.937108 0.069725 10053171
-4.406107 7.029313 1.198465 10053171
-4.188253 6.920551 2.126202 10053171
-3.253709 7.176643 1.278360 10053171
-3.734805 7.221298 2.665939 10053171
-5.885940 6.804731 0.050231 10053171
-5.690812 6.804523 1.568025 10053171
-4.953087 6.957394 2.451266 10053171
-6.075294 7.055203 1.105517 10053171
-6.779433 7.258765 2.115597 10053171
-5.455176 6.889598 1.235629 10053171
-6.170168 6.903447 2.910201 10053171
-5.579666 6.770926 2.400121 10053171
-4.515764 7.186153 1.512593 10053171
-5.290623 6.880157 0.625122 10053171
-6.022458 7.224766 1.491691 10053171
-3.549982 6.851616 2.524509 10053171
-5.662823 6.933739 2.278421 10053171
-6.059721 6.990913 1.457900 10053171
-6.569570 6.892421 1.257905 10053171
-6.773432 7.067480 2.611844 10053171
-6.567037 6.862344 1.824689 10053171
-6.059569 6.972172 2.775473 10053171
-4.204892 7.164290 2.775602 10053171
-4.882467 7.051434 2.193620 10053171
-4.854118 7.162159 0.058020 10053171
-4.085452 6.844607 1.579829 10053171
-6.974625 7.233642 0.310632 10053171
-5.486838 7.163894 0.023516 10053171
-3.517964 6.809176 0.724913 10053171
-6.080805 6.779017 0.904290 10053171
-3.543494 6.802790 2.866319 10053171
-3.531192 7.170294 0.891875 10053171
-5.208243 6.809647 2.946708 10053171
-6.948843 6.870092 2.333984 10053171
-4.329624 6.853796 0.577979 10053171
-4.579959 6.863753 0.876308 10053171
-3.477249 6.819793 0.307194 10053171
-6.442980 6.992496 1.136967 10053171
-5.298929 7.252537 1.665001 10053171
-4.235305 7.174160 1.715660 10053171
-5.751928 7.125375 0.951979 10053171
-4.642334 6.942082 2.966492 10053171
-5.850821 7.024066 1.031518 10053171
-5.184905 7.157565 0.285676 10053171
-4.806188 6.841497 2.722299 10053171
-3.332595 6.992686 0.805538 10053171
-3.872864 7.028947 1.825155 10053171
-5.793551 7.008998 1.292463 10053171
-3.331690 6.974978 1.643181 10053171
-2.997582 7.214897 0.817386 10053171
-3.192777 7.215145 2.759696 10053171
-3.167361 7.178960 2.292791 10053171
-6.075636 6.937991 2.250546 10053171
-6.812255 7.062420 2.060798 10053171
-4.064656 6.799961 1.160026 10053171
-3.207652 7.234415 1.686859 10053171
-6.926624 7.170549 1.452441 10053171
-4.288778 6.895273 1.099146 10053171
-5.320697 7.040154 0.094360 10053171
-6.783280 7.166631 2.870548 10053171
-4.214451 6.831736 2.430763 10053171
-3.470328 7.041905 2.656008 10053171
-3.073228 6.756404 1.142488 10053171
-3.489267 7.203420 0.567499 10053171
-3.459388 6.957916 2.302932 10053171
-4.105648 7.093614 2.696239 10053171
-3.738729 7.048556 2.906631 10053171
-5.741695 6.927144 0.467208 10053171
-4.746962 7.115310 1.558887 10053171
5.890452 -5.989825 1.143177 8342706
6.111488 -5.728741 1.818550 8342706
5.449789 -6.088570 3.621415 8342706
6.165555 -6.479405 0.568075 8342706
5.458247 -6.210421 3.043328 8342706
6.172588 -6.443976 4.083452 8342706
6.355160 -6.045731 4.890339 8342706
6.191102 -5.637884 0.325229 8342706
6.003488 -6.146317 3.988304 8342706
6.171284 -5.976791 0.487473 8342706
5.585611 -5.664620 1.986255 8342706
6.158925 -6.430443 3.304577 8342706
6.551915 -5.794743 4.818853 8342706
6.033184 -5.626558 2.434380 8342706
6.460397 -5.972392 1.302912 8342706
6.102987 -6.214198 2.928350 8342706
6.530489 -5.860958 0.312727 8342706
6.337750 -6.434901 2.982711 8342706
6.290905 -5.521669 2.214896 8342706
6.451399 -6.379133 2.688144 8342706
6.205811 -6.108622 2.951361 8342706
6.270916 -5.585896 2.055884 8342706
5.648120 -6.274673 3.521479 8342706
5.810867 -5.565327 0.203992 8342706
5.638890 -5.759284 0.531934 8342706
6.492235 -5.795750 1.405710 8342706
6.048135 -5.410491 0.766020 8342706
6.210812 -6.332163 1.519665 8342706
6.416660 -6.166501 1.596138 8342706
6.546211 -6.043797 3.491693 8342706
5.638084 -6.175193 3.392236 8342706
5.825552 -6.186718 4.725402 8342706
5.797271 -5.542198 2.018041 8342706
6.322526 -5.767651 2.889668 8342706
6.277300 -5.940680 3.519757 8342706
5.418865 -6.110832 0.537800 8342706
6.388080 -5.811605 2.002381 8342706
5.915349 -5.783509 1.736456 8342706
5.749592 -5.868961 3.163444 8342706
5.657342 -6.174411 1.870612 8342706
5.798797 -5.536371 0.780305 8342706
6.456558 -6.075175 0.371055 8342706
6.016336 -6.120427 4.299900 8342706
5.584186 -6.182173 4.563832 8342706
5.744682 -5.756168 4.175876 8342706
5.752157 -5.923456 3.103595 8342706
6.029021 -5.996926 1.448773 8342706
6.406539 -6.276155 2.013815 8342706
5.654397 -5.745372 3.095301 8342706
6.292099 -6.068054 3.930834 8342706
5.431843 -6.005897 4.577790 8342706
5.966352 -5.456460 4.485846 8342706
5.499173 -5.975354 3.217690 8342706
6.425690 -5.923223 1.953451 8342706
6.166249 -6.506659 4.302312 8342706
6.371374 -5.884134 1.194381 8342706
5.427524 -5.966716 2.343937 8342706
5.489410 -5.758158 4.312689 8342706
6.421621 -5.985070 3.006622 8342706
6.110591 -5.662984 4.845037 8342706
6.268151 -5.870376 2.112900 8342706
5.810069 -5.474330 2.076938 8342706
5.877346 -6.322901 3.525666 8342706
5.999004 -5.500199 3.499243 8342706
5.761555 -6.032667 4.520396 8342706
5.847277 -6.073775 1.761836 8342706
6.162615 -5.753537 2.003528 8342706
6.172980 -6.287840 1.962520 8342706
5.779567 -6.222586 1.526003 8342706
5.595690 -6.244260 1.050619 8342706
5.864072 -6.379016 1.262855 8342706
5.949276 -5.942406 3.046829 8342706
6.057768 -6.116702 4.752236 8342706
5.795504 -5.817081 0.600153 8342706
5.731290 -6.076387 2.495090 8342706
5.950998 -5.995897 3.161413 8342706
5.474041 -6.183095 1.931997 8342706
6.090061 -5.586862 0.141284 8342706
6.444302 -5.933877 1.228742 8342706
6.557830 -6.078678 3.868477 8342706
6.036977 -6.212427 3.272011 8342706
5.596086 -5.648913 1.969036 8342706
6.102363 -6.289236 4.463823 8342706
6.116466 -5.588171 4.639240 8342706
6.422459 -5.685425 0.210017 8342706
5.975537 -6.163924 2.699119 8342706
6.239761 -5.986993 2.435975 8342706
5.498288 -6.170651 3.670473 8342706
6.070212 -6.324211 2.012676 8342706
5.879524 -6.328487 1.010272 8342706
6.194579 -6.399208 4.430201 8342706
5.547101 -5.923971 3.875372 8342706
5.699551 -6.390170 2.532029 8342706
6.099836 -6.483812 1.405368 8342706
5.842217 -5.884370 4.535880 8342706
5.607057 -5.776009 2.340224 8342706
6.458511 -5.845816 2.616814 8342706
6.103697 -6.439934 0.590024 8342706
5.564204 -6.151348 1.870268 8342706
6.296546 -6.039440 1.872610 8342706
6.560193 -6.047114 3.640254 8342706
5.642326 -6.361143 0.610811 8342706
5.690257 -6.458656 0.792553 8342706
6.221485 -6.028863 2.555500 8342706
5.650241 -6.026035 3.308127 8342706
5.760082 -5.580891 4.707665 8342706
5.770535 -6.239435 4.027358 8342706
5.662660 -5.812803 1.239933 8342706
6.402848 -5.959198 4.445186 8342706
5.813433 -5.616085 3.501029 8342706
6.020128 -5.785816 0.935854 8342706
6.157421 -6.378311 1.778564 8342706
6.154923 -5.801655 1.599324 8342706
5.963225 -5.781448 4.070537 8342706
6.044943 -6.210960 4.601684 8342706
5.785213 -6.142168 0.227850 8342706
5.924411 -5.647468 1.682076 8342706
6.196047 -5.624409 3.860437 8342706
5.707637 -5.967852 3.126652 8342706
5.808521 -6.207067 2.572812 8342706
5.696983 -5.848743 2.899944 8342706
5.627456 -6.238466 3.733505 8342706
5.898674 -6.596602 1.084070 8342706
6.109091 -5.800164 1.666992 8342706
6.314313 -6.329495 0.557137 8342706
6.358950 -5.692407 2.296975 8342706
6.156302 -5.577825 3.082465 8342706
5.656931 -5.680746 1.236459 8342706
5.990228 -5.716318 3.706121 8342706
6.197008 -6.043378 4.389789 8342706
6.500915 -6.120379 2.687611 8342706
6.361650 -6.142248 3.358968 8342706
5.667411 -6.298056 4.686473 8342706
6.283201 -5.513433 4.643364 8342706
5.978565 -6.206571 3.553845 8342706
5.763007 -5.639283 2.588216 8342706
6.059751 -6.537790 4.469723 8342706
5.521413 -5.776643 4.271453 8342706
5.528538 -6.153229 2.902751 8342706
6.099617 -5.636635 2.493928 8342706
5.703861 -5.884153 4.036963 8342706
5.867741 -5.440022 3.060487 8342706
6.493054 -5.821505 0.100252 8342706
6.074445 -5.442955 0.394997 8342706
6.369654 -5.719744 0.073666 8342706
6.051657 -5.769290 0.507895 8342706
5.667301 -5.719586 3.100929 8342706
6.334079 -6.232391 1.537471 8342706
6.148060 -5.813832 2.476227 8342706
5.762524 -6.162904 1.605293 8342706
5.976812 -6.226031 0.136116 8342706
5.855278 -6.047434 3.762678 8342706
5.722516 -6.152755 3.373932 8342706
6.301093 -6.239425 4.584811 8342706
6.332649 -6.445064 3.374309 8342706
6.016156 -6.565087 4.161119 8342706
5.997295 -5.673450 4.232689 8342706
5.690772 -5.623517 4.216610 8342706
6.200352 -5.876430 1.884354 8342706
5.503159 -6.230305 4.643926 8342706
5.915389 -6.318227 4.698263 8342706
6.057967 -6.424947 1.315549 8342706
6.125689 -5.615076 2.041982 8342706
5.971292 -6.216382 1.704811 8342706
6.031461 -6.028421 4.567809 8342706
6.100319 -5.606520 1.157401 8342706
6.135077 -6.290219 1.572005 8342706
5.737151 -5.732444 0.127842 8342706
6.329547 -6.185390 3.033171 8342706
6.113760 -5.580059 2.640518 8342706
6.258224 -5.862391 1.019591 8342706
5.615491 -6.099315 1.915181 8342706
5.709718 -5.662723 2.259391 8342706
5.797883 -5.648325 2.600647 8342706
5.506454 -5.932830 3.589432 8342706
6.020130 -5.809608 1.868941 8342706
5.716513 -5.888895 1.455635 8342706
5.747942 -6.261045 2.821453 8342706
6.004205 -6.300285 4.884215 8342706
5.996401 -6.442669 4.839013 8342706
6.074652 -5.605866 3.837487 8342706
5.604158 -5.580884 2.005463 8342706
6.546082 -6.045329 4.243188 8342706
5.664689 -5.589987 1.925701 8342706
6.090157 -6.452169 1.680149 8342706
5.602063 -6.231270 1.854892 8342706
6.337936 -5.909139 3.504638 8342706
6.478371 -5.831630 3.819552 8342706
6.448297 -6.111968 3.864462 8342706
6.127179 -5.875036 3.364369 8342706
6.153132 -6.377962 1.013589 8342706
5.677971 -6.161139 3.320038 8342706
6.517353 -6.314855 0.125769 8342706
6.382237 -6.091129 4.948442 8342706
5.425727 -5.910015 3.789151 8342706
6.493690 -6.025409 0.221439 8342706
6.242654 -5.655372 3.716230 8342706
6.101068 -6.016890 2.465575 8342706
6.267473 -5.967999 0.712700 8342706
6.423653 -5.975326 2.404545 8342706
6.089480 -6.490304 2.764644 8342706
6.411290 -6.086193 1.376569 8342706
6.198956 -5.642251 1.080889 8342706
6.247449 -5.574497 4.327496 8342706
6.159623 -6.474168 0.738508 8342706
5.631562 -6.054421 3.178009 8342706
6.531316 -5.797526 1.095981 8342706
6.165513 -5.817751 2.596568 8342706
5.994895 -6.102981 2.534898 8342706
6.385856 -5.684445 1.818809 8342706
5.961153 -6.101791 3.834873 8342706
6.470261 -6.018740 1.583147 8342706
5.514201 -6.267294 0.745802 8342706
5.818673 -6.354790 5.011541 8342706
6.473998 -5.765205 3.982791 8342706
6.226363 -6.029295 0.143726 8342706
6.278365 -5.841415 3.554185 8342706
6.486319 -6.068626 4.574240 8342706
5.920686 -6.078103 3.125959 8342706
6.406212 -6.253074 1.765560 8342706
6.024318 -5.437557 1.983916 8342706
5.418519 -5.966406 4.238685 8342706
6.085266 -6.079666 2.971761 8342706
6.248128 -5.941759 3.251123 8342706
5.630345 -6.179704 3.357161 8342706
6.144261 -6.376836 4.419082 8342706
6.107272 -5.532784 4.113687 8342706
5.929581 -5.857287 2.929082 8342706
5.426901 -6.099283 2.052249 8342706
6.301674 -6.428505 4.882559 8342706
5.646341 -6.376901 2.939730 8342706
6.301605 -6.338589 2.362252 8342706
6.439753 -5.808977 1.060298 8342706
6.435290 -5.875993 2.291997 8342706
5.975585 -5.528151 2.066744 8342706
6.225339 -5.754626 0.458639 8342706
5.904823 -6.308985 1.591277 8342706
6.403974 -5.757963 2.458979 8342706
6.374619 -5.543337 4.091525 8342706
6.464383 -6.172764 1.496311 8342706
6.176269 -5.831436 3.234522 8342706
5.708985 -6.389279 3.111576 8342706
6.252434 -5.507917 4.489711 8342706
6.014430 -5.896624 0.777198 8342706
5.565320 -6.369314 4.419705 8342706
5.610547 -5.751347 4.270498 8342706
6.191100 -5.812591 1.388110 8342706
5.738817 -5.803122 1.060884 8342706
5.888301 -6.092868 0.616873 8342706
6.179785 -5.449810 1.184262 8342706
6.284239 -5.515340 1.179833 8342706
5.673509 -6.262650 4.272606 8342706
5.927884 -6.064375 4.926852 8342706
6.195584 -5.554970 3.770827 8342706
5.660615 -6.043684 4.268443 8342706
6.099504 -6.550284 4.296747 8342706
5.692423 -5.719507 3.972012 8342706
5.553585 -6.079955 3.768482 8342706
6.215605 -6.405321 1.047729 8342706
6.549729 -5.932672 0.499581 8342706
5.996383 -5.518179 2.916393 8342706
6.201159 -6.400442 1.659803 8342706
5.512388 -6.227828 3.929102 8342706
5.604799 -6.450878 2.788592 8342706
5.800217 -5.501297 2.263468 8342706
6.524980 -6.245266 2.083992 8342706
6.051155 -6.374071 0.529881 8342706
5.442178 -5.866152 2.593043 8342706
5.839658 -5.679964 2.536444 8342706
6.298605 -6.072462 0.215005 8342706
6.063862 -5.614912 4.352658 8342706
6.529612 -6.284548 4.437014 8342706
5.833006 -6.391181 4.423346 8342706
5.449098 -5.774505 4.322929 8342706
5.955370 -5.493587 1.511988 8342706
6.529075 -6.186768 4.024900 8342706
6.398581 -6.171791 1.421737 8342706
5.822161 -6.186092 3.757088 8342706
6.107429 -6.335982 1.911922 8342706
5.552845 -5.623377 3.366680 8342706
5.783839 -6.464102 3.533221 8342706
5.498988 -5.677268 3.938945 8342706
6.153780 -5.564374 0.046073 8342706
6.358911 -5.963352 2.648850 8342706
6.363036 -6.063206 1.746826 8342706
5.783694 -5.784342 3.209225 8342706
6.024316 -5.810795 3.166441 8342706
6.314705 -6.039759 2.029176 8342706
6.373634 -5.829168 2.213358 8342706
6.074578 -5.811303 0.085841 8342706
5.817140 -6.076636 0.086613 8342706
6.221377 -6.460673 0.869467 8342706
6.348631 -6.493348 0.753073 8342706
6.162873 -6.381369 4.227531 8342706
5.860645 -6.514219 1.819976 8342706
5.654934 -5.917486 0.968972 8342706
5.777335 -5.676829 2.689405 8342706
6.211339 -5.741583 0.412501 8342706
6.087533 -5.404320 2.112262 8342706
6.020946 -6.488150 1.081762 8342706
6.248016 -5.549753 1.296370 8342706
6.443222 -5.688653 3.624323 8342706
6.481577 -6.262574 0.327118 8342706
5.767375 -5.904081 4.018913 8342706
6.173383 -6.114367 1.730664 8342706
6.079992 -6.235404 3.254554 8342706
5.617404 -6.258595 3.683514 8342706
6.541703 -6.160951 1.852649 8342706
6.259229 -6.229303 1.703346 8342706
5.551252 -5.804093 2.481799 8342706
6.391467 -6.402256 2.023213 8342706
6.120987 -6.206897 3.574352 8342706
6.172045 -6.574607 4.277113 8342706
6.446712 -6.397685 3.662041 8342706
6.130673 -5.555034 2.026161 8342706
6.080567 -5.473735 0.895286 8342706
6.137468 -6.421983 1.167656 8342706
5.671280 -6.063586 0.118120 8342706
5.845174 -5.583447 2.612230 8342706
5.802578 -6.367154 2.629873 8342706
6.091806 -5.475732 3.495619 8342706
5.744574 -6.301571 3.363082 8342706
6.326081 -6.324897 1.080990 8342706
5.823086 -6.545717 4.761787 8342706
6.259560 -5.673393 4.918028 8342706
6.002511 -6.482216 1.869221 8342706
5.675319 -5.766680 0.314683 8342706
6.294677 -5.540622 4.289717 8342706
5.604512 -5.840435 4.339218 8342706
6.244946 -5.586225 0.485836 8342706
6.276007 -6.369292 4.018084 8342706
6.194448 -6.538505 0.554616 8342706
6.165522 -5.849125 1.028814 8342706
6.434510 -6.138283 2.766576 8342706
6.022609 -6.405784 3.735209 8342706
6.004616 -5.552911 2.045821 8342706
6.447592 -6.176841 3.304639 8342706
6.113163 -5.448121 0.239847 8342706
5.455497 -5.711683 4.387826 8342706
6.173405 -6.349814 1.659660 8342706
6.424225 -5.596953 1.859739 8342706
5.878430 -6.098469 0.930112 8342706
6.382846 -5.615972 3.700223 8342706
5.628341 -6.128517 3.745359 8342706
6.507537 -5.910059 1.173698 8342706
5.736277 -5.998617 2.420031 8342706
6.247321 -6.341120 2.958139 8342706
5.705966 -6.381060 4.095371 8342706
6.058283 -6.305662 3.882966 8342706
6.382067 -5.539476 4.951142 8342706
6.523948 -6.255999 4.654361 8342706
6.032720 -5.918713 3.864369 8342706
6.171145 -6.389094 4.342498 8342706
5.730593 -6.188927 2.014624 8342706
6.423974 -5.869914 2.109964 8342706
6.452357 -5.986355 2.219129 8342706
5.850717 -5.460876 1.052847 8342706
6.489363 -5.798323 0.297836 8342706
5.845199 -5.461317 1.386450 8342706
6.237660 -5.705293 4.837559 8342706
5.965955 -5.650538 1.250106 8342706
6.489663 -5.806726 2.260283 8342706
5.784408 -6.218577 3.691763 8342706
6.273784 -6.185699 1.518864 8342706
5.964070 -6.396119 3.981772 8342706
5.996552 -5.825726 2.284825 8342706
6.166785 -6.051355 4.107920 8342706
6.159799 -6.416627 4.365386 8342706
6.286460 -5.601724 4.747482 8342706
6.353489 -5.826632 3.610940 8342706
5.989412 -5.796472 3.190464 8342706
6.539237 -5.872069 3.058215 8342706
6.288011 -5.862882 2.843585 8342706
6.302401 -6.312726 1.998636 8342706
5.770479 -5.703125 3.610337 8342706
5.718230 -5.713093 3.070513 8342706
6.261564 -5.988107 1.470388 8342706
6.371270 -6.231640 1.080139 8342706
5.820537 -5.603088 2.968273 8342706
5.515909 -5.903521 0.120319 8342706
5.651510 -5.643396 0.447884 8342706
5.607283 -5.573954 2.867105 8342706
5.992784 -5.507197 2.123686 8342706
5.529038 -6.125213 1.883402 8342706
6.127151 -5.503683 3.472790 8342706
5.421570 -5.923122 4.592169 8342706
5.479261 -5.817960 2.926288 8342706
6.188682 -6.321630 1.848722 8342706
5.546144 -6.385873 0.821954 8342706
5.869403 -6.499549 1.608655 8342706
6.086487 -6.332968 3.445412 8342706
5.963947 -6.486341 4.605204 8342706
6.356131 -6.170737 0.795739 8342706
6.501670 -6.323797 1.447152 8342706
6.555087 -5.907005 3.401959 8342706
5.577855 -6.086848 1.108021 8342706
6.271425 -6.276476 1.941706 8342706
6.145187 -6.293762 2.959745 8342706
6.068445 -6.512417 4.966337 8342706
5.985947 -6.445071 0.605515 8342706
6.283954 -5.746029 1.759952 8342706
6.384145 -5.940019 1.299197 8342706
6.225708 -6.390186 0.479522 8342706
6.318625 -6.128903 2.903154 8342706
6.484892 -6.135696 0.107655 8342706
6.092636 -5.650812 1.224485 8342706
6.479441 -6.277034 4.302325 8342706
6.448512 -5.654871 4.829369 8342706
6.494141 -6.156644 3.614416 8342706
6.320388 -6.322563 1.591269 8342706
5.755385 -6.307981 0.403948 8342706
6.167061 -5.587926 2.700418 8342706
6.244874 -6.044294 3.861129 8342706
6.329668 -5.852108 0.390154 8342706
6.174775 -5.861290 3.960550 8342706
5.780266 -6.408058 3.288878 8342706
6.400730 -6.196988 0.005437 8342706
6.353578 -5.768397 1.366769 8342706
6.307506 -6.022784 4.236235 8342706
6.350237 -6.085968 2.043192 8342706
5.775724 -5.576774 4.380414 8342706
5.852897 -6.019708 0.859601 8342706
6.053463 -5.743896 4.185242 8342706
5.524971 -5.724731 3.986215 8342706
6.454530 -6.118822 1.756205 8342706
6.297346 -6.444067 1.710192 8342706
6.272092 -6.209056 4.636620 8342706
5.537799 -6.322101 1.241930 8342706
6.008282 -6.237364 3.461560 8342706
6.230244 -5.581057 3.768335 8342706
6.038941 -6.579640 3.659700 8342706
5.939212 -6.018084 1.731857 8342706
5.793830 -5.642839 2.738566 8342706
6.162334 -6.310080 0.913234 8342706
6.175002 -5.981554 3.887626 8342706
6.111521 -6.290188 1.985709 8342706
5.769274 -6.148613 1.035412 8342706
6.578272 -6.015516 1.775701 8342706
5.739095 -6.098729 4.305940 8342706
6.460021 -5.774110 1.029499 8342706
5.563973 -5.859412 0.779038 8342706
6.318215 -6.025955 4.999852 8342706
6.169549 -6.550557 4.097398 8342706
6.081173 -6.424030 4.712718 8342706
6.000322 -5.822705 1.398971 8342706
6.507436 -6.177123 4.996025 8342706
6.137791 -6.075912 1.658477 8342706
5.817741 -5.959425 2.080653 8342706
5.726839 -5.963905 3.036916 8342706
6.505905 -6.242465 4.092929 8342706
5.479003 -5.882336 3.601967 8342706
6.164155 -6.082982 0.986733 8342706
5.854155 -6.274599 1.901459 8342706
5.955207 -5.651253 2.384574 8342706
6.305686 -6.280534 0.100107 8342706
5.812725 -5.564489 4.557214 8342706
6.002181 -5.465509 4.060858 8342706
5.790983 -5.438758 3.564628 8342706
6.399214 -6.352455 1.530297 8342706
5.512165 -6.015465 4.721978 8342706
6.050063 -6.517049 0.095615 8342706
6.531812 -5.955106 1.513752 8342706
6.360457 -5.555736 3.379616 8342706
5.778814 -5.896194 0.826202 8342706
6.008806 -5.997543 0.861544 8342706
5.619436 -5.913953 2.233108 8342706
5.713020 -5.635246 2.267256 8342706
5.778910 -6.110006 3.518769 8342706
6.344119 -5.513635 1.129506 8342706
5.666316 -5.778526 4.809982 8342706
5.878098 -5.827543 0.090708 8342706
5.639306 -6.466634 2.458884 8342706
5.883036 -6.473411 3.635795 8342706
6.017544 -6.600413 0.593709 8342706
6.061387 -5.711054 1.745248 8342706
6.098547 -5.888691 1.785308 8342706
6.158679 -5.775489 4.152577 8342706
5.486472 -6.271707 4.951370 8342706
6.565452 -5.836078 2.161507 8342706
6.222222 -6.428667 3.893270 8342706
6.242237 -5.716939 2.516685 8342706
6.224567 -6.352229 2.401983 8342706
6.079258 -5.638967 4.503410 8342706
5.632460 -6.305989 3.461667 8342706
5.971707 -6.441189 2.694017 8342706
6.570679 -6.074096 0.454551 8342706
5.710641 -5.658923 4.804003 8342706
6.280466 -5.778691 0.298507 8342706
5.952930 -5.743971 4.709349 8342706
6.058600 -5.568549 2.435056 8342706
6.368940 -5.927064 1.868293 8342706
5.850288 -6.317171 3.410951 8342706
6.071665 -5.694988 4.243611 8342706
6.450267 -5.821393 0.464971 8342706
6.381039 -5.804704 4.625903 8342706
6.227741 -6.048673 2.775606 8342706
6.318460 -6.222743 0.731119 8342706
5.438175 -6.007228 2.417051 8342706
5.680913 -5.941843 4.309888 8342706
6.274855 -5.903268 4.810519 8342706
6.297038 -5.571575 1.399531 8342706
5.813829 -6.239161 4.051114 8342706
6.451435 -5.691843 4.602364 8342706
5.851007 -5.490030 4.359670 8342706
5.662994 -5.849086 0.485850 8342706
6.409874 -5.818334 3.471925 8342706
6.372328 -5.735683 0.638893 8342706
5.674182 -6.098575 0.762424 8342706
