# .PCD v0.7 - Point Cloud Data file format
VERSION 0.7
FIELDS x y z rgb
SIZE 4 4 4 4
TYPE F F F U
COUNT 1 1 1 1
WIDTH 1309
HEIGHT 1
VIEWPOINT 0 0 0 1 0 0 0
POINTS 1309
DATA ascii
-4.704290 5.670676 0.926900 15014169
-5.153290 6.158691 1.271771 15014169
-4.923851 6.268158 1.633303 15014169
-5.332371 5.726749 0.370823 15014169
-4.744476 6.329625 0.825564 15014169
-5.353043 5.753693 1.527984 15014169
-5.078015 5.788124 1.182889 15014169
-4.850371 5.999726 0.379542 15014169
-5.139560 6.254575 0.457880 15014169
-5.311402 6.207404 0.494414 15014169
-5.318065 5.815863 0.719336 15014169
-5.162359 6.207137 0.645878 15014169
-5.324709 5.736006 0.803409 15014169
-5.224977 6.219354 1.131907 15014169
-5.185561 6.347116 0.888489 15014169
-4.745238 5.869428 0.729462 15014169
-4.703619 5.726710 1.559216 15014169
-4.711390 5.901518 1.581474 15014169
-4.749175 6.359748 0.463779 15014169
-4.949719 6.218240 1.320330 15014169
-4.806902 5.660074 1.631640 15014169
-5.270373 5.687373 1.682792 15014169
-5.245402 6.226486 0.318578 15014169
-5.392158 5.707376 1.200634 15014169
-5.229892 5.956390 1.645379 15014169
-5.225378 5.838485 0.993076 15014169
-5.192280 6.039765 0.945540 15014169
-5.136488 5.650728 1.362156 15014169
-4.771811 5.889351 0.959584 15014169
-5.345604 6.163747 0.630032 15014169
-5.288679 5.751925 0.578837 15014169
-4.874087 5.949508 1.280167 15014169
-5.279904 5.815789 1.463995 15014169
-5.383210 5.798826 1.482141 15014169
-4.924775 5.830413 1.444503 15014169
-5.285479 6.025404 1.143972 15014169
-4.704977 6.104730 0.771522 15014169
-5.019919 5.822276 1.687410 15014169
-5.103665 5.701735 1.672585 15014169
-4.756972 6.024391 0.361682 15014169
-4.810650 6.297629 1.197915 15014169
-5.199581 6.302289 0.304192 15014169
-5.178452 5.908140 1.502639 15014169
-5.389411 6.105595 1.082862 15014169
-5.154274 5.710478 0.512824 15014169
-4.930096 5.689947 0.385463 15014169
-5.083731 6.004436 0.311087 15014169
-5.031430 5.733045 0.441383 15014169
-4.911531 5.872708 1.411259 15014169
2.247823 -9.406310 0.609826 1690649
1.977843 -9.809319 0.779401 1690649
2.170456 -9.781810 0.709081 1690649
1.620485 -9.842885 1.300090 1690649
2.274304 -9.661669 0.490943 1690649
2.001267 -9.591992 0.596621 1690649
2.238895 -9.674409 1.023885 1690649
1.973985 -9.760443 1.102358 1690649
2.460911 -9.772077 1.314329 1690649
1.807886 -9.725517 0.951092 1690649
2.434169 -9.589022 0.548942 1690649
2.094452 -9.825416 1.763438 1690649
2.014144 -10.078336 0.175260 1690649
1.742784 -9.495916 1.070389 1690649
2.121975 -9.383865 1.051258 1690649
2.241446 -10.035515 1.155895 1690649
2.457747 -9.813473 1.028478 1690649
1.887629 -9.866221 0.575634 1690649
2.188960 -9.579911 1.374100 1690649
2.136398 -9.752526 1.151338 1690649
2.127148 -9.317940 1.733815 1690649
2.127189 -10.086123 1.186959 1690649
1.623986 -9.865336 0.851955 1690649
1.608791 -9.871890 0.889822 1690649
1.785106 -9.314017 1.534460 1690649
2.190154 -9.816113 1.843146 1690649
1.702880 -9.792220 1.427721 1690649
2.217922 -9.386271 1.838909 1690649
2.045481 -10.003400 0.628070 1690649
2.258760 -9.450377 1.258273 1690649
1.852187 -9.379799 1.426403 1690649
1.882382 -9.551228 1.608486 1690649
2.408992 -9.875893 0.983959 1690649
1.847585 -9.600404 0.758715 1690649
2.064062 -9.817247 1.078921 1690649
2.304894 -9.347592 1.114876 1690649
1.618119 -9.665942 0.528329 1690649
2.078269 -9.487881 0.594011 1690649
1.717842 -9.822899 1.273719 1690649
2.076133 -9.433626 1.874981 1690649
2.193108 -9.562756 1.070814 1690649
1.901363 -10.009607 0.341094 1690649
2.175811 -9.555122 1.902461 1690649
2.019916 -10.001552 0.986871 1690649
1.755731 -9.372983 1.903638 1690649
2.240507 -9.875637 1.141879 1690649
2.077145 -10.015846 1.426817 1690649
2.004328 -9.527080 1.000636 1690649
1.879232 -9.295065 1.051356 1690649
1.986577 -9.350447 1.367213 1690649
1.854024 -9.546447 1.233706 1690649
2.188815 -9.284889 0.406862 1690649
2.417757 -9.571358 1.489393 1690649
1.831156 -9.484883 1.035801 1690649
1.640704 -9.863999 1.849722 1690649
1.954595 -10.033260 1.717765 1690649
1.863605 -9.794608 0.803475 1690649
1.861654 -9.551301 0.583718 1690649
2.358731 -9.949197 0.918485 1690649
2.001124 -9.712351 1.464825 1690649
1.680015 -9.712171 0.889146 1690649
2.176489 -9.669455 0.144684 1690649
1.810094 -9.535971 0.193666 1690649
2.065290 -10.057783 0.176790 1690649
2.037296 -9.440825 0.959396 1690649
2.142511 -9.899167 1.743021 1690649
1.869327 -9.946777 1.655262 1690649
2.079946 -10.153331 1.782197 1690649
1.825009 -9.524796 0.219176 1690649
1.719745 -9.823369 0.339622 1690649
1.842848 -9.564736 1.338358 1690649
2.169126 -9.823157 0.659235 1690649
1.845807 -9.932821 1.655542 1690649
2.407509 -9.734800 1.138871 1690649
2.170379 -9.700955 0.123445 1690649
2.010265 -9.326865 1.217294 1690649
2.071837 -9.524199 0.222911 1690649
2.026044 -10.020998 1.094472 1690649
2.333741 -9.716120 0.728634 1690649
2.213330 -9.429392 1.176980 1690649
1.981760 -9.269510 0.232992 1690649
2.000431 -9.881553 0.480491 1690649
2.111159 -9.525460 0.914270 1690649
1.886782 -9.624494 1.769952 1690649
1.685184 -9.579082 0.691735 1690649
2.132953 -10.035522 0.196731 1690649
2.017699 -10.033669 1.474707 1690649
1.859065 -9.979181 0.143665 1690649
2.256666 -9.512851 1.490614 1690649
2.315451 -9.870853 1.251911 1690649
2.044931 -9.395466 1.686272 1690649
1.971932 -9.333354 1.102239 1690649
2.259303 -9.380881 0.737272 1690649
1.821323 -9.782623 0.151485 1690649
1.814921 -9.372708 1.266387 1690649
2.295039 -9.957090 0.568095 1690649
1.817663 -9.554395 1.657719 1690649
1.955340 -9.649329 1.891056 1690649
2.309106 -9.528849 0.494671 1690649
1.899323 -9.893205 1.638219 1690649
1.700765 -9.881681 0.958168 1690649
1.919560 -9.391631 1.733169 1690649
1.884904 -9.930664 1.468924 1690649
1.710825 -9.460040 0.619188 1690649
1.815057 -9.463503 0.146985 1690649
1.708734 -10.011174 1.130432 1690649
1.792039 -9.456108 0.624855 1690649
1.844035 -9.461058 1.069518 1690649
1.700968 -9.888230 0.784085 1690649
1.823372 -9.804133 1.284046 1690649
2.359874 -9.966796 0.134227 1690649
2.032818 -9.283438 1.881149 1690649
2.435415 -9.588532 0.962926 1690649
2.221032 -10.059224 1.825595 1690649
2.411170 -9.592119 1.458821 1690649
2.148287 -9.953593 1.059735 1690649
2.279711 -9.507648 1.341430 1690649
2.060307 -10.033002 1.155864 1690649
1.996636 -9.359502 0.760216 1690649
2.080580 -10.070837 0.139736 1690649
1.646127 -9.731041 0.979144 1690649
1.749084 -9.429343 0.304893 1690649
2.326255 -9.574236 1.315117 1690649
2.260758 -9.977292 0.100523 1690649
1.825941 -9.676067 1.063555 1690649
2.093793 -9.899400 0.255329 1690649
1.683440 -9.728197 0.960476 1690649
2.031667 -9.990860 0.473269 1690649
2.406590 -9.525640 0.691713 1690649
1.719389 -9.601822 1.852087 1690649
1.933789 -9.577272 0.243389 1690649
2.155105 -9.716467 0.468741 1690649
2.343600 -9.986925 0.891446 1690649
1.621279 -9.521622 1.402278 1690649
1.789714 -9.588996 1.511723 1690649
1.860924 -9.715787 0.317546 1690649
2.204786 -9.960528 1.452953 1690649
1.955168 -9.716490 0.491132 1690649
2.234910 -9.827863 1.360116 1690649
2.163256 -9.488118 0.213929 1690649
1.667106 -9.705288 0.664036 1690649
2.458148 -9.806050 0.747495 1690649
2.323584 -9.574322 1.281821 1690649
1.908608 -9.615008 0.882704 1690649
1.724327 -9.682620 0.633866 1690649
2.453239 -9.527489 1.187341 1690649
2.102104 -9.809436 1.295833 1690649
1.868739 -9.584555 1.692184 1690649
2.060224 -9.283822 1.210870 1690649
2.461183 -9.662494 1.277228 1690649
2.251829 -9.894014 0.512708 1690649
1.785726 -9.684281 0.993606 1690649
2.125986 -9.689865 1.219393 1690649
2.197738 -9.787281 0.673754 1690649
-4.366201 7.160679 0.477378 10053171
-5.964845 7.096989 0.434578 10053171
-4.412887 6.985461 2.376254 10053171
-5.153209 7.160495 2.893314 10053171
-3.844383 7.009318 0.287244 10053171
-6.691097 6.766003 2.503031 10053171
-4.102092 7.146794 2.557330 10053171
-3.176522 6.958651 1.344165 10053171
-4.382834 6.956491 0.519166 10053171
-3.506666 7.184040 2.556138 10053171
-3.680682 7.197926 2.493533 10053171
-3.258812 6.976923 0.850107 10053171
-4.011145 7.055268 0.161009 10053171
-4.975411 6.822642 1.137355 10053171
-6.823761 6.977057 0.186323 10053171
-4.608868 7.135232 2.195732 10053171
-6.427227 6.970526 1.218359 10053171
-4.657954 6.959744 0.456650 10053171
-6.881708 6.756561 2.830127 10053171
-6.305468 7.245269 2.907977 10053171
-6.071675 7.080371 0.761301 10053171
-6.134917 6.811976 2.817413 10053171
-3.733733 6.852605 2.220176 10053171
-4.831065 7.042346 2.498825 10053171
-6.569497 6.999021 2.636114 10053171
-6.065103 7.141249 1.120221 10053171
-3.395966 7.143997 1.461434 10053171
-4.614486 6.946279 1.339453 10053171
-5.995570 7.226713 2.423655 10053171
-6.670225 7.028580 2.944583 10053171
-6.878980 7.058999 1.110791 10053171
-5.987539 6.766955 0.150309 10053171
-6.139771 7.017136 1.968549 10053171
-3.858369 6.991503 0.603558 10053171
-4.706515 7.155549 0.118050 10053171
-5.861951 7.171885 2.060892 10053171
-4.840026 6.965727 1.405456 10053171
-5.524847 7.223705 2.736710 10053171
-5.078454 6.766559 1.305599 10053171
-6.163471 6.971609 2.556676 10053171
-4.477087 6.934413 2.128704 10053171
-4.102153 7.099599 1.104763 10053171
-3.863639 6.775226 0.883398 10053171
-4.724082 6.930563 2.251050 10053171
-5.544744 6.963418 0.646960 10053171
-3.810377 7.045730 1.172491 10053171
-3.502494 7.064698 2.138747 10053171
-4.293330 7.178136 0.690476 10053171
-4.119925 7.243742 2.557065 10053171
-5.280107 6.965213 1.609304 10053171
-6.757341 7.062528 2.622539 10053171
-5.658646 6.966401 1.209229 10053171
-5.758269 6.855857 2.778710 10053171
-3.542004 6.852112 2.692745 10053171
-3.089028 6.908200 0.605409 10053171
-5.016293 7.048274 2.196285 10053171
-3.503799 7.049562 0.803742 10053171
-5.438699 7.035340 1.619059 10053171
-3.347603 7.098300 2.158144 10053171
-6.452341 7.186115 0.007909 10053171
-6.357832 6.764226 2.594338 10053171
-4.372983 6.954988 2.934430 10053171
-6.323141 6.952353 0.867542 10053171
-3.760870 7.180787 1.042938 10053171
-3.577558 7.087337 2.700358 10053171
-4.187423 6.942873 2.141361 10053171
-6.351828 6.791739 1.047501 10053171
-3.764355 7.017098 1.923881 10053171
-3.883603 7.067566 1.234997 10053171
-5.427264 7.193225 0.704135 10053171
-5.918221 6.947289 2.519251 10053171
-3.273849 6.913357 1.492363 10053171
-6.812425 6.775373 2.284387 10053171
-3.693847 6.992957 0.994052 10053171
-6.532758 7.225419 1.579450 10053171
-5.303664 6.966547 0.851948 10053171
-6.492917 6.891393 0.461250 10053171
-4.525717 7.088015 2.256922 10053171
-6.731281 7.164516 1.133399 10053171
-4.026187 6.874201 0.240304 10053171
-5.793804 7.224581 0.701065 10053171
-6.967211 7.057456 2.919491 10053171
-3.105463 7.070035 2.179194 10053171
-4.139507 7.090305 0.018181 10053171
-4.456722 7.189634 1.351647 10053171
-6.625115 7.209686 0.431427 10053171
-5.850250 6.862487 0.170023 10053171
-3.251499 6.863957 0.139983 10053171
-6.534364 6.910698 1.328044 10053171
-5.981166 6.841369 0.008406 10053171
-5.451777 7.039263 1.768231 10053171
-6.396899 7.002811 2.956659 10053171
-6.074458 6.829063 2.964617 10053171
-4.241358 7.198054 1.418951 10053171
-4.296791 7.104248 2.209167 10053171
-3.895697 7.198368 2.399565 10053171
-5.651746 7.206923 0.393471 10053171
-5.357536 6.897213 0.459342 10053171
-3.341024 6.942764 0.974980 10053171
-6.883762 6.951103 0.246665 10053171
-4.485471 6.798588 1.778228 10053171
-6.226901 7.209788 1.549885 10053171
-3.842970 7.189186 0.861145 10053171
-3.801571 6.963644 2.097715 10053171
-4.809419 7.124823 1.225295 10053171
-5.633970 7.261339 1.600197 10053171
-4.236336 6.970292 0.414632 10053171
-5.506973 7.186645 0.313690 10053171
-3.279331 7.073668 0.152576 10053171
-5.127742 6.787236 1.784777 10053171
-5.635974 7.046607 2.636935 10053171
-5.478500 6.878709 2.370672 10053171
-4.450098 6.913501 0.701533 10053171
-4.754300 6.948612 2.307528 10053171
-6.475213 6.960573 1.178659 10053171
-5.725264 6.776510 1.383074 10053171
-4.552778 6.919368 1.778531 10053171
-4.050056 7.067090 2.559158 10053171
-3.337170 7.015681 0.190266 10053171
-4.625346 6.754874 1.419339 10053171
-3.804510 7.195896 0.840350 10053171
-5.177898 6.854521 0.239101 10053171
-6.440800 6.757612 0.317594 10053171
-5.579671 7.037889 0.828512 10053171
-3.138296 7.191490 1.534719 10053171
-5.387794 7.095087 2.724664 10053171
-5.319706 6.938140 2.702965 10053171
-4.391352 6.889160 0.766884 10053171
-6.963847 7.116811 2.664955 10053171
-4.267928 7.051538 2.877137 10053171
-4.857247 6.968069 0.264029 10053171
-6.492340 6.907884 2.243279 10053171
-5.345776 6.917082 1.737116 10053171
-5.260639 7.048204 1.637287 10053171
-4.642224 6.844285 0.829362 10053171
-3.284095 6.846594 0.435869 10053171
-4.009694 6.959051 1.217804 10053171
-3.763624 7.228028 0.774359 10053171
-5.106988 7.048977 2.751368 10053171
-4.747482 7.194242 1.090007 10053171
-5.646821 6.794978 2.558633 10053171
-5.415114 7.164886 2.281156 10053171
-6.040209 6.977654 2.971280 10053171
-3.720739 6.934142 1.059678 10053171
-4.237536 7.062093 2.713913 10053171
-5.905942 7.044735 0.645887 10053171
-4.937682 6.808578 2.297992 10053171
-3.913693 6.807966 1.358912 10053171
-6.011760 7.231857 1.754558 10053171
-3.614568 7.218824 0.395964 10053171
-5.850630 6.914130 2.280463 10053171
-6.561158 6.874541 1.763163 10053171
-4.767321 6.780965 2.790240 10053171
-6.495542 7.179667 1.205266 10053171
-3.573937 7.002890 1.089436 10053171
-6.250618 6.821706 1.549445 10053171
-3.009466 6.850749 1.557840 10053171
-6.390872 7.227021 0.946748 10053171
-4.775386 6.991748 1.237322 10053171
-6.398849 7.090561 0.919535 10053171
-6.884364 6.899310 2.246050 10053171
-3.697256 7.208144 1.819315 10053171
-4.229488 7.186532 0.795349 10053171
-6.331887 6.787210 2.946826 10053171
-3.044480 6.770439 2.258323 10053171
-6.438300 6.906978 1.509053 10053171
-6.307663 6.983148 0.989271 10053171
-5.141385 6.787155 1.205947 10053171
-3.962332 7.165240 0.933878 10053171
-6.422078 7.088047 0.849784 10053171
-6.233373 6.756993 2.085582 10053171
-3.539090 7.054021 0.935997 10053171
-5.316517 6.978910 2.322519 10053171
-4.502658 6.768032 0.628116 10053171
-5.582273 7.216433 0.158825 10053171
-3.612068 6.924832 1.845894 10053171
-6.981284 7.168390 2.088519 10053171
-6.191860 7.153601 1.957134 10053171
-4.703646 6.897490 0.435591 10053171
-5.554523 6.959764 1.736039 10053171
-6.734279 6.782338 1.258217 10053171
-5.562346 6.812033 1.495490 10053171
-6.412604 6.877833 2.029088 10053171
-5.965153 6.798015 1.068409 10053171
-5.778111 6.760386 2.084720 10053171
-5.564399 6.812030 1.568620 10053171
-3.373914 7.072057 2.634001 10053171
-5.036580 7.034811 0.359227 10053171
-4.187692 7.196868 0.555118 10053171
-5.050381 7.136322 0.822840 10053171
-6.388406 6.909097 2.856801 10053171
-6.844590 6.811677 2.545236 10053171
-6.707339 6.766445 0.449197 10053171
-3.247826 7.085481 1.580479 10053171
-6.011565 6.750230 2.603005 10053171
-4.053419 6.931056 1.537091 10053171
-6.721714 7.210027 0.619195 10053171
-6.912364 6.949910 2.985695 10053171
-4.472181 6.944092 1.933482 10053171
-4.886934 7.073110 2.538213 10053171
-3.985722 7.106421 0.789434 10053171
-4.120566 7.245096 0.526484 10053171
-3.909265 6.781157 1.154230 10053171
-3.455302 7.225269 2.472158 10053171
-3.374172 7.175103 0.190221 10053171
-3.159336 6.798222 0.451754 10053171
-4.788890 7.221184 1.093880 10053171
-6.923453 7.095331 0.573648 10053171
-6.265085 6.783722 1.866340 10053171
-6.639619 6.934222 0.619624 10053171
-6.357931 7.164509 1.731166 10053171
-6.399148 6.817197 1.114896 10053171
-4.973704 6.816435 0.310869 10053171
-5.297417 7.032362 1.121182 10053171
-6.009856 7.063038 1.252246 10053171
-3.168582 7.000083 2.085330 10053171
-4.540643 6.920443 0.157606 10053171
-6.060758 6.829119 0.176557 10053171
-3.646140 7.131214 0.321939 10053171
-3.325792 7.199789 2.614165 10053171
-4.026301 6.914058 2.665407 10053171
-4.093091 6.844908 2.965273 10053171
-5.534367 7.095991 1.917979 10053171
-4.354340 7.158766 0.745639 10053171
-4.252742 6.937245 0.578876 10053171
-3.615402 7.159733 0.610045 10053171
-3.734960 6.931542 0.917839 10053171
-4.639191 7.020566 0.635037 10053171
-4.178463 6.954879 0.196346 10053171
-6.536951 6.808313 2.353357 10053171
-4.721016 7.152682 0.512254 10053171
-5.164878 6.974241 1.456600 10053171
-6.460999 7.235384 1.310783 10053171
-6.965118 7.023249 2.091097 10053171
-6.597011 7.239660 1.479587 10053171
-5.041026 7.120199 2.878567 10053171
-4.713081 6.838393 0.732743 10053171
-4.302270 6.903965 1.312479 10053171
-5.438698 6.825368 2.066025 10053171
-4.027401 6.771385 2.803196 10053171
-5.947701 7.015178 1.389740 10053171
-6.755711 6.755849 0.251388 10053171
-3.272763 7.165164 2.688287 10053171
-5.109675 7.056167 1.742058 10053171
-5.842672 7.182090 0.478983 10053171
-6.245142 6.882382 1.061394 10053171
-6.950243 7.057166 1.631809 10053171
-5.736420 7.214295 2.566267 10053171
-6.233767 6.925965 2.045017 10053171
-3.801583 6.944952 1.353018 10053171
-5.729146 7.166772 0.874229 10053171
-3.114565 6.814992 0.985765 10053171
-3.905523 6.845455 1.105484 10053171
-5.353872 7.191772 1.642882 10053171
-3.487791 6.768053 0.862111 10053171
-4.659602 7.235853 1.549695 10053171
-3.654701 6.990975 2.198523 10053171
-4.580905 7.124591 2.694673 10053171
-4.893633 7.076935 2.091792 10053171
-6.903590 6.782537 2.396236 10053171
-3.413926 7.105154 0.849228 10053171
-5.527761 7.066278 2.912191 10053171
-4.808231 6.927102 0.687713 10053171
-4.613143 7.022134 2.177679 10053171
-6.916190 7.041567 2.204469 10053171
-3.646657 6.856027 1.229194 10053171
-4.345569 6.912074 0.812197 10053171
-6.438702 6.787681 2.053810 10053171
-6.046058 6.792891 2.054789 10053171
-4.835878 6.770229 0.963342 10053171
-3.705361 6.853413 0.004816 10053171
-4.867867 7.114455 2.489759 10053171
-3.756580 7.017562 2.473591 10053171
-5.182855 7.100854 1.526044 10053171
-6.230436 6.843804 1.583196 10053171
-6.666316 7.175124 2.934869 10053171
-3.929364 6.922204 0.941544 10053171
-6.238618 7.059993 0.952763 10053171
-4.885220 7.159331 1.532269 10053171
-3.295368 7.214566 0.915497 10053171
-6.355273 7.048194 1.866612 10053171
-5.676358 6.808376 1.336707 10053171
-3.572696 6.911174 0.425034 10053171
-5.657264 6.786713 2.089603 10053171
-4.295227 7.241905 0.448775 10053171
-3.196184 7.011950 1.448311 10053171
-3.104906 6.947201 1.813808 10053171
-4.077724 6.733234 0.895791 10053171
-4.289493 7.200728 1.339169 10053171
-3.078084 6.855775 0.295816 10053171
-4.003906 7.131561 1.436731 10053171
-5.445954 6.925090 1.059798 10053171
-3.998757 6.938998 0.353383 10053171
-3.779171 6.932039 0.163711 10053171
-5.721864 7.258133 1.848309 10053171
-5.689569 7.211230 1.774682 10053171
-6.043794 6.754903 2.396793 10053171
-3.598557 6.958066 0.803130 10053171
-5.208501 7.112986 1.200212 10053171
-5.129414 6.850533 2.478898 10053171
-4.281389 7.199631 0.643310 10053171
-6.976349 7.217111 0.072249 10053171
-4.033605 6.803730 1.114619 10053171
-4.067192 6.811286 1.860200 10053171
-5.407295 6.853716 2.739500 10053171
-3.292148 7.046238 1.528093 10053171
-3.314727 7.193033 -0.016175 10053171
-3.231484 6.805045 1.491143 10053171
-4.646494 6.938771 1.549102 10053171
-4.962029 6.849848 0.146414 10053171
-6.808239 6.843006 1.566503 10053171
-5.566212 6.934033 0.138797 10053171
-6.919366 6.902291 1.410925 10053171
-4.194439 6.759958 1.290513 10053171
-6.381525 6.917729 0.212792 10053171
-3.349576 6.772260 2.849389 10053171
-4.117564 6.818945 1.414820 10053171
-4.742517 6.836234 1.942605 10053171
-6.161544 6.792742 0.122442 10053171
-5.194386 7.159889 1.828020 10053171
-6.273622 7.105938 2.237957 10053171
-5.136108 7.082306 1.403179 10053171
-6.460223 6.955034 1.305664 10053171
-5.484066 7.083449 0.273294 10053171
-4.948195 7.174432 1.793499 10053171
-3.849032 6.997989 1.642578 10053171
-5.411840 7.071550 2.717117 10053171
-5.697282 7.065427 2.982105 10053171
-6.828456 7.152530 0.780641 10053171
-4.928266 7.160552 1.137665 10053171
-6.980917 6.943825 0.282091 10053171
-6.735623 6.983832 1.054566 10053171
-4.307638 6.780180 1.933971 10053171
-3.978309 7.170093 0.072893 10053171
-3.117193 7.043125 1.313749 10053171
-3.869931 7.044258 0.400268 10053171
-3.106979 6.743264 1.727074 10053171
-3.468372 6.855384 0.319913 10053171
-6.639023 7.096497 1.235412 10053171
-4.067786 7.129131 0.728545 10053171
-3.799414 7.010546 2.080148 10053171
-3.779001 7.030525 1.233746 10053171
-4.632100 7.148691 2.674926 10053171
-4.610059 7.230390 2.348031 10053171
-6.235613 7.142237 0.855295 10053171
-3.102836 6.920542 0.035375 10053171
-4.388611 6.773295 0.503172 10053171
-5.178041 7.018281 2.861701 10053171
-5.336044 6.999996 2.473757 10053171
-3.679943 7.227399 1.084976 10053171
-4.833197 6.788323 0.075464 10053171
-4.754233 7.105626 0.912052 10053171
-4.073986 6.875378 1.524405 10053171
-3.548883 6.972066 0.958744 10053171
-6.962244 7.120478 0.905772 10053171
-3.910292 6.946916 1.346687 10053171
-3.596524 6.954102 2.731888 10053171
-5.493084 6.838883 2.591780 10053171
-5.406099 6.770809 2.407045 10053171
-3.028617 6.818988 2.917341 10053171
-6.145032 6.829217 2.042179 10053171
-4.448480 7.139415 0.760273 10053171
-4.535851 7.025345 0.704907 10053171
-3.174252 7.231402 2.722728 10053171
-5.900178 7.188941 2.529767 10053171
-4.237707 6.912063 2.126715 10053171
-3.206524 6.950210 0.511324 10053171
-5.006590 6.836050 1.834532 10053171
-3.749079 6.967839 0.094146 10053171
-4.322349 7.228587 0.539391 10053171
-6.178747 6.874339 1.544971 10053171
-3.871178 7.197193 0.580246 10053171
-5.441649 6.773900 1.452054 10053171
-3.226152 6.804239 2.162973 10053171
-3.435110 6.944690 0.300734 10053171
-3.963691 7.265635 2.058677 10053171
-6.180384 7.175884 0.236165 10053171
-6.567012 6.898701 0.542322 10053171
-4.611601 6.899058 1.240225 10053171
-5.128363 6.792887 -0.002244 10053171
-5.476154 6.797659 0.518356 10053171
-3.775983 6.793214 0.416140 10053171
-5.357530 7.205144 0.691221 10053171
-3.200543 7.184929 1.385292 10053171
-4.923484 6.766418 2.547878 10053171
-6.740025 7.136150 1.634285 10053171
-4.822262 6.776207 1.194763 10053171
-4.075805 7.040211 1.628302 10053171
-4.060068 7.032516 1.615105 10053171
-3.499864 6.910791 2.906403 10053171
-4.103214 7.139145 2.909979 10053171
-6.607231 6.921716 1.750670 10053171
-5.188354 7.059411 1.695704 10053171
-5.111086 7.152412 2.134625 10053171
-4.511616 6.864318 0.012696 10053171
-5.353293 6.757720 2.595133 10053171
-5.178933 6.753486 1.372896 10053171
-4.073349 6.888381 0.704823 10053171
-4.382833 7.055121 1.046613 10053171
-5.214624 7.136051 0.702068 10053171
-3.755484 6.777568 1.894023 10053171
-3.664325 7.237498 2.748699 10053171
-3.364433 7.135405 0.995591 10053171
-4.077115 7.195461 2.644652 10053171
-3.092325 7.177142 2.867693 10053171
-3.551462 7.035304 1.681572 10053171
-5.341555 7.123884 0.083881 10053171
-3.923401 6.939051 2.292926 10053171
-6.393653 7.041061 2.540566 10053171
-3.128048 7.093093 2.798934 10053171
-4.847070 7.142270 0.116809 10053171
-5.885064 6.896042 0.165204 10053171
-4.284171 7.039883 0.585955 10053171
-4.642072 7.154032 0.005144 10053171
-6.605881 7.207608 1.381485 10053171
-6.047493 6.924796 0.090831 10053171
-5.825201 6.771048 2.891600 10053171
-4.483650 7.053389 2.822005 10053171
-5.621465 7.200258 2.538056 10053171
-3.129712 6.947413 0.623288 10053171
-5.746371 6.945778 0.600269 10053171
-4.069811 7.123405 1.565138 10053171
-4.677292 6.787281 1.658620 10053171
-4.973288 7.120375 1.218704 10053171
-4.458480 6.976945 0.519436 10053171
-5.306116 7.248115 0.302608 10053171
-3.875330 6.954619 0.834721 10053171
-4.252964 6.931198 2.667352 10053171
-5.247850 7.095844 1.729028 10053171
-3.029473 6.980662 0.230890 10053171
-5.430050 6.855308 1.066679 10053171
-6.580465 7.084017 2.712104 10053171
-5.125933 6.810285 1.653059 10053171
-3.028961 6.907664 0.752814 10053171
-6.559597 6.969947 1.172831 10053171
-3.079749 6.987602 0.191988 10053171
-6.266655 7.213201 1.913973 10053171
-3.694255 6.925163 1.374995 10053171
-4.170649 7.108910 0.213590 10053171
-3.853130 7.145066 1.790136 10053171
-4.173969 7.012055 1.328421 10053171
-3.106732 6.792624 0.734726 10053171
-5.579430 7.214172 0.114253 10053171
-5.673056 7.019983 2.775108 10053171
-4.790065 6.936863 1.837156 10053171
-5.942107 7.185211 2.035487 10053171
-3.337116 7.102993 0.971618 10053171
-6.482278 6.816985 0.728935 10053171
-6.573788 7.077212 1.923093 10053171
-3.742368 6.850749 0.028054 10053171
-4.631653 7.132305 2.053861 10053171
-5.607545 6.764577 2.664681 10053171
-3.963413 7.088849 0.427544 10053171
-3.924471 6.776217 1.636327 10053171
-5.391053 7.018216 0.796371 10053171
-4.854454 6.829953 1.743347 10053171
-5.768825 6.941539 1.071561 10053171
-6.599478 6.864597 0.182067 10053171
-4.530393 6.969651 1.700254 10053171
-3.732890 7.102040 2.805174 10053171
-5.695142 6.864273 0.077415 10053171
-5.656412 7.055228 0.382980 10053171
-4.260740 6.861045 0.870772 10053171
-5.864972 6.842570 2.068079 10053171
-4.912259 6.837997 2.911729 10053171
-3.177241 7.007132 2.043338 10053171
-3.600526 6.911496 1.082796 10053171
-4.791148 7.142671 2.845405 10053171
-4.515385 7.161037 1.489875 10053171
-3.441216 7.092327 1.087973 10053171
-3.161426 7.156438 0.517168 10053171
-5.439126 7.096800 0.823040 10053171
-6.661743 6.965813 2.571082 10053171
-3.318145 6.903884 2.379729 10053171
-5.826779 7.151880 2.054462 10053171
-4.657965 6.927272 1.485775 10053171
-4.287642 6.841237 2.123308 10053171
-3.024874 6.757559 2.451303 10053171
-3.036332 6.979335 1.075560 10053171
-4.375012 7.197567 0.296754 10053171
-5.473022 7.229962 2.293319 10053171
-5.609776 7.118217 1.113433 10053171
-3.870460 6.893769 1.856494 10053171
-4.673418 7.102282 2.946414 10053171
-4.753238 7.162803 2.670083 10053171
-6.292626 7.033434 1.581881 10053171
-3.098612 7.199952 0.306367 10053171
-4.491330 6.879284 2.796662 10053171
-3.039460 6.931365 1.114987 10053171
-4.450718 7.242711 2.831124 10053171
-5.015525 6.906019 2.689862 10053171
-3.207364 6.974627 0.534127 10053171
-5.982334 6.832822 0.801817 10053171
-4.691078 7.147015 0.317267 10053171
-3.020040 7.061341 0.554420 10053171
-5.431005 6.900812 1.108900 10053171
-3.922315 6.815601 0.615684 10053171
-6.066034 6.981282 2.736779 10053171
-3.321132 6.934856 0.556221 10053171
-5.745907 6.747222 2.850948 10053171
-4.197034 6.846145 0.631064 10053171
-6.596323 6.989200 2.950442 10053171
-6.917093 7.214684 2.536143 10053171
-6.909613 7.203935 0.748452 10053171
-5.290077 6.995941 2.446056 10053171
-5.217044 6.945722 1.281585 10053171
-3.157799 7.171698 1.913895 10053171
-6.407054 6.958015 1.707379 10053171
-4.095285 6.871697 0.124786 10053171
-3.496305 6.893392 0.006009 10053171
-6.115423 6.879130 1.906235 10053171
-3.139354 7.083768 0.785290 10053171
-3.586158 7.034579 2.732493 10053171
-4.246896 7.042378 2.617019 10053171
-3.449665 6.895133 2.423832 10053171
-5.108964 6.895130 2.886006 10053171
-4.469101 7.117923 1.049320 10053171
-6.610452 6.844996 2.048101 10053171
-3.850965 6.875513 2.278979 10053171
-3.554846 6.978362 1.033109 10053171
-4.263824 6.755228 0.874958 10053171
-3.851126 7.014252 1.019619 10053171
-5.366440 6.958797 2.086390 10053171
-3.236672 6.833807 0.506849 10053171
-3.421205 7.256347 0.638422 10053171
-6.377160 6.756830 1.229863 10053171
-5.805390 7.241923 1.583054 10053171
-3.792200 6.911161 0.797223 10053171
-6.575398 6.854131 1.587069 10053171
-4.375616 6.777728 0.958760 10053171
-5.659673 6.928315 0.055776 10053171
-4.395008 7.026829 1.201775 10053171
-4.177183 6.896758 2.110899 10053171
-3.274280 7.190105 1.288571 10053171
-3.735404 7.223238 2.657825 10053171
-5.891826 6.808232 0.041962 10053171
-5.661139 6.794869 1.578836 10053171
-4.943972 6.939614 2.470611 10053171
-6.097125 7.059790 1.115543 10053171
-6.771667 7.242282 2.098469 10053171
-5.449829 6.872571 1.247353 10053171
-6.151217 6.906773 2.907674 10053171
-5.577453 6.787011 2.400523 10053171
-4.524670 7.163664 1.517515 10053171
-5.290971 6.882628 0.611340 10053171
-6.021862 7.237098 1.486624 10053171
-3.515198 6.842160 2.506291 10053171
-5.666638 6.938741 2.276015 10053171
-6.072162 6.967926 1.440419 10053171
-6.575943 6.863507 1.244519 10053171
-6.777759 7.062912 2.614941 10053171
-6.565759 6.867508 1.820598 10053171
-6.065979 6.980739 2.774920 10053171
-4.208367 7.181432 2.762851 10053171
-4.900670 7.082012 2.173954 10053171
-4.882565 7.143295 0.051192 10053171
-4.091740 6.839272 1.571907 10053171
-6.999683 7.246012 0.308335 10053171
-5.467497 7.157410 0.035096 10053171
-3.507345 6.801137 0.744735 10053171
-6.078529 6.773916 0.900142 10053171
-3.529210 6.811051 2.846114 10053171
-3.540431 7.189231 0.917086 10053171
-5.206026 6.845451 2.938335 10053171
-6.942185 6.856903 2.317691 10053171
-4.326346 6.866832 0.579624 10053171
-4.585456 6.857395 0.856331 10053171
-3.511969 6.815739 0.300551 10053171
-6.443954 7.014530 1.137368 10053171
-5.304885 7.227344 1.658846 10053171
-4.217667 7.183869 1.723889 10053171
-5.748222 7.131688 0.943861 10053171
-4.632186 6.963115 2.942374 10053171
-5.845228 7.030350 1.044179 10053171
-5.179871 7.139779 0.281169 10053171
-4.795523 6.862684 2.736549 10053171
-3.340133 6.995755 0.795728 10053171
-3.906637 7.019815 1.814486 10053171
-5.789006 7.007341 1.300287 10053171
-3.332818 6.978604 1.644605 10053171
-3.000888 7.225638 0.814653 10053171
-3.205415 7.219908 2.792785 10053171
-3.162886 7.179100 2.302153 10053171
-6.075933 6.935194 2.258312 10053171
-6.813469 7.047685 2.057997 10053171
-4.065719 6.793773 1.158665 10053171
-3.200691 7.231306 1.681841 10053171
-6.938244 7.153337 1.474041 10053171
-4.302867 6.875068 1.102448 10053171
-5.307593 7.022024 0.091065 10053171
-6.806672 7.159212 2.902765 10053171
-4.227254 6.825987 2.434685 10053171
-3.461485 7.030444 2.658736 10053171
-3.066318 6.786510 1.149642 10053171
-3.494628 7.216834 0.584814 10053171
-3.446930 6.955123 2.307592 10053171
-4.111378 7.085878 2.691231 10053171
-3.752006 7.060662 2.915156 10053171
-5.753042 6.919416 0.491904 10053171
-4.730748 7.103819 1.564777 10053171
5.887462 -5.969987 1.146998 8342706
6.136105 -5.720494 1.777665 8342706
5.429475 -6.089323 3.628455 8342706
6.175446 -6.474992 0.552630 8342706
5.449584 -6.221559 3.056802 8342706
6.170998 -6.447845 4.066808 8342706
6.367063 -6.043880 4.907066 8342706
6.182658 -5.618088 0.320127 8342706
6.012077 -6.179715 4.005970 8342706
6.193756 -5.984081 0.481944 8342706
5.566487 -5.674710 1.985348 8342706
6.163246 -6.449375 3.309409 8342706
6.542745 -5.784739 4.820570 8342706
6.064682 -5.625174 2.393713 8342706
6.466209 -5.966786 1.316801 8342706
6.099442 -6.218773 2.958307 8342706
6.528766 -5.866364 0.281021 8342706
6.354968 -6.417883 2.980822 8342706
6.280144 -5.515382 2.217625 8342706
6.449453 -6.378700 2.661543 8342706
6.191239 -6.107753 2.959028 8342706
6.286860 -5.586155 2.048816 8342706
5.643650 -6.282835 3.511931 8342706
5.802573 -5.563232 0.202261 8342706
5.650688 -5.777804 0.512791 8342706
6.512344 -5.787963 1.407833 8342706
6.025929 -5.426626 0.747781 8342706
6.205842 -6.320655 1.523404 8342706
6.424134 -6.137391 1.588462 8342706
6.505099 -6.054203 3.478304 8342706
5.613621 -6.183203 3.367218 8342706
5.838535 -6.183481 4.707336 8342706
5.768476 -5.518606 2.029078 8342706
6.346557 -5.787723 2.904467 8342706
6.270909 -5.937365 3.531350 8342706
5.441672 -6.098569 0.545489 8342706
6.389377 -5.810121 1.990607 8342706
5.909911 -5.793168 1.741704 8342706
5.740599 -5.875652 3.152949 8342706
5.643442 -6.192404 1.852762 8342706
5.805713 -5.512794 0.785345 8342706
6.459289 -6.090988 0.411965 8342706
6.003496 -6.135038 4.301730 8342706
5.593318 -6.188362 4.560959 8342706
5.732857 -5.772277 4.176775 8342706
5.756178 -5.914987 3.130653 8342706
6.019238 -5.988944 1.417671 8342706
6.408997 -6.289816 1.995997 8342706
5.666572 -5.717078 3.101542 8342706
6.283549 -6.077338 3.915745 8342706
5.423555 -5.997939 4.568049 8342706
5.970517 -5.451597 4.492644 8342706
5.512087 -5.963699 3.227496 8342706
6.417475 -5.918629 1.946605 8342706
6.160614 -6.491868 4.301162 8342706
6.378352 -5.882722 1.208727 8342706
5.410129 -5.951204 2.341705 8342706
5.512736 -5.742672 4.324420 8342706
6.450006 -6.003729 2.983463 8342706
6.099527 -5.679086 4.842172 8342706
6.260573 -5.886957 2.117560 8342706
5.819966 -5.460805 2.063578 8342706
5.881569 -6.345165 3.550114 8342706
5.989902 -5.514375 3.512947 8342706
5.761875 -6.032318 4.515856 8342706
5.833339 -6.071332 1.766479 8342706
6.162020 -5.742624 1.994068 8342706
6.172194 -6.275795 1.946618 8342706
5.783961 -6.209979 1.498768 8342706
5.600869 -6.246395 1.038396 8342706
5.864206 -6.407312 1.260117 8342706
5.968997 -5.953375 3.008685 8342706
6.071193 -6.099931 4.754853 8342706
5.803153 -5.809907 0.592913 8342706
5.720949 -6.089108 2.512187 8342706
5.954296 -6.000361 3.154542 8342706
5.467233 -6.193851 1.922637 8342706
6.110558 -5.599052 0.137198 8342706
6.438384 -5.937647 1.224251 8342706
6.559335 -6.062930 3.876577 8342706
6.027362 -6.211421 3.286654 8342706
5.572957 -5.660078 1.962650 8342706
6.110929 -6.304556 4.451238 8342706
6.115743 -5.586573 4.659538 8342706
6.434203 -5.687218 0.224437 8342706
5.967278 -6.170197 2.689914 8342706
6.229910 -5.965709 2.429971 8342706
5.505572 -6.170166 3.673322 8342706
6.046274 -6.322423 1.991001 8342706
5.877566 -6.349658 1.014709 8342706
6.179733 -6.410960 4.413992 8342706
5.558201 -5.933583 3.866699 8342706
5.687627 -6.380055 2.515130 8342706
6.111788 -6.523281 1.385703 8342706
5.829158 -5.891480 4.537002 8342706
5.608428 -5.772613 2.356244 8342706
6.467150 -5.839626 2.597350 8342706
6.101218 -6.442581 0.599971 8342706
5.572992 -6.146410 1.866939 8342706
6.297944 -6.048656 1.876012 8342706
6.571510 -6.068214 3.650070 8342706
5.642604 -6.363468 0.622945 8342706
5.684225 -6.459807 0.773789 8342706
6.223364 -6.008505 2.579953 8342706
5.643104 -6.005414 3.297624 8342706
5.762362 -5.601988 4.703399 8342706
5.752970 -6.244521 4.022101 8342706
5.642205 -5.818209 1.210412 8342706
6.415419 -5.958822 4.442618 8342706
5.835276 -5.626787 3.519723 8342706
6.020629 -5.816057 0.942996 8342706
6.164031 -6.383748 1.774674 8342706
6.139496 -5.796510 1.596853 8342706
5.950688 -5.754948 4.083219 8342706
6.041541 -6.186965 4.602218 8342706
5.778044 -6.126262 0.214931 8342706
5.902798 -5.653792 1.683179 8342706
6.207712 -5.630846 3.863253 8342706
5.711850 -5.977478 3.118370 8342706
5.813338 -6.201843 2.588322 8342706
5.685805 -5.852038 2.917169 8342706
5.602186 -6.244422 3.718567 8342706
5.906977 -6.582177 1.085440 8342706
6.130892 -5.797760 1.657305 8342706
6.296772 -6.335371 0.534697 8342706
6.352859 -5.686212 2.319586 8342706
6.138340 -5.578492 3.061445 8342706
5.662620 -5.683877 1.209758 8342706
5.994555 -5.726332 3.681516 8342706
6.210512 -6.028868 4.414729 8342706
6.497200 -6.102427 2.688893 8342706
6.340143 -6.147901 3.364005 8342706
5.685093 -6.297317 4.692208 8342706
6.293863 -5.534895 4.623152 8342706
5.980100 -6.215338 3.554178 8342706
5.755468 -5.646212 2.604759 8342706
6.069743 -6.567415 4.481931 8342706
5.537892 -5.762601 4.271183 8342706
5.537317 -6.170531 2.881896 8342706
6.113235 -5.650131 2.488888 8342706
5.689469 -5.885322 4.033673 8342706
5.886813 -5.436866 3.064695 8342706
6.491719 -5.813430 0.126619 8342706
6.072161 -5.429528 0.412487 8342706
6.383894 -5.741202 0.062774 8342706
6.047969 -5.753047 0.496145 8342706
5.647939 -5.719266 3.068757 8342706
6.338056 -6.219918 1.517419 8342706
6.137960 -5.803582 2.478415 8342706
5.776014 -6.152429 1.604361 8342706
5.973863 -6.211034 0.125302 8342706
5.862573 -6.052543 3.736354 8342706
5.729160 -6.164260 3.383046 8342706
6.305455 -6.247840 4.575873 8342706
6.322835 -6.455344 3.368575 8342706
6.021363 -6.556887 4.176967 8342706
6.012365 -5.687470 4.228399 8342706
5.722311 -5.625475 4.226111 8342706
6.185964 -5.855327 1.886895 8342706
5.523624 -6.235283 4.648087 8342706
5.904432 -6.320657 4.691695 8342706
6.066010 -6.432452 1.322818 8342706
6.143011 -5.652216 2.036329 8342706
5.951398 -6.202287 1.690073 8342706
6.023007 -6.033284 4.532841 8342706
6.100842 -5.614680 1.152477 8342706
6.136846 -6.307834 1.571879 8342706
5.734391 -5.741269 0.119350 8342706
6.370973 -6.159940 3.047866 8342706
6.114169 -5.569661 2.640408 8342706
6.247998 -5.863609 1.022108 8342706
5.610998 -6.075039 1.909447 8342706
5.730195 -5.668782 2.246694 8342706
5.800305 -5.643427 2.589337 8342706
5.509685 -5.941828 3.582793 8342706
6.015515 -5.855000 1.870639 8342706
5.705761 -5.877981 1.462193 8342706
5.743121 -6.262472 2.807726 8342706
5.980912 -6.313945 4.897563 8342706
5.997353 -6.451849 4.818552 8342706
6.087289 -5.590949 3.824452 8342706
5.609732 -5.571183 2.005629 8342706
6.556471 -6.028976 4.248370 8342706
5.663671 -5.610330 1.919414 8342706
6.093223 -6.468779 1.683740 8342706
5.591420 -6.230359 1.859999 8342706
6.315660 -5.914766 3.497776 8342706
6.476153 -5.805249 3.822244 8342706
6.421286 -6.118981 3.854202 8342706
6.125215 -5.867748 3.348556 8342706
6.142432 -6.391761 1.008749 8342706
5.657643 -6.146752 3.352587 8342706
6.511589 -6.305328 0.130186 8342706
6.380152 -6.094306 4.948802 8342706
5.438029 -5.914491 3.796957 8342706
6.482543 -6.036218 0.209334 8342706
6.250985 -5.654906 3.709235 8342706
6.117468 -6.012868 2.481922 8342706
6.266409 -5.979657 0.670331 8342706
6.421969 -5.973816 2.429026 8342706
6.060319 -6.496964 2.761153 8342706
6.391670 -6.084938 1.393259 8342706
6.213248 -5.668976 1.095431 8342706
6.246079 -5.576228 4.322735 8342706
6.160492 -6.453450 0.736552 8342706
5.632857 -6.048378 3.183073 8342706
6.533829 -5.793515 1.083441 8342706
6.155820 -5.789050 2.596139 8342706
5.992194 -6.072299 2.543406 8342706
6.371480 -5.703400 1.818722 8342706
5.977177 -6.104606 3.835003 8342706
6.511649 -5.995992 1.572052 8342706
5.488266 -6.267167 0.722042 8342706
5.810161 -6.365959 4.991681 8342706
6.469764 -5.771646 3.988921 8342706
6.226182 -6.025263 0.124262 8342706
6.262535 -5.834563 3.570532 8342706
6.486663 -6.075158 4.564633 8342706
5.903952 -6.069124 3.147996 8342706
6.402398 -6.257659 1.764396 8342706
6.028952 -5.437263 1.960770 8342706
5.416883 -5.970026 4.247869 8342706
6.093786 -6.065665 2.964939 8342706
6.263381 -5.928705 3.235341 8342706
5.646096 -6.171619 3.343469 8342706
6.158561 -6.363807 4.396613 8342706
6.101943 -5.511045 4.131197 8342706
5.940515 -5.844341 2.918420 8342706
5.426168 -6.117718 2.049451 8342706
6.313470 -6.413358 4.871916 8342706
5.647266 -6.394231 2.955877 8342706
6.316560 -6.331964 2.369351 8342706
6.443013 -5.816951 1.062825 8342706
6.465685 -5.870462 2.248881 8342706
5.991417 -5.508461 2.064151 8342706
6.227889 -5.773115 0.489500 8342706
5.888253 -6.268396 1.571042 8342706
6.387094 -5.759211 2.451061 8342706
6.369282 -5.536841 4.084480 8342706
6.454230 -6.168216 1.473830 8342706
6.178162 -5.805686 3.237580 8342706
5.743025 -6.397589 3.107781 8342706
6.248888 -5.545432 4.465825 8342706
6.009776 -5.897692 0.787628 8342706
5.586375 -6.374446 4.418176 8342706
5.608840 -5.748898 4.266454 8342706
6.201592 -5.841509 1.378613 8342706
5.736695 -5.806857 1.060200 8342706
5.858281 -6.106882 0.607133 8342706
6.191998 -5.468809 1.174961 8342706
6.287884 -5.550109 1.171325 8342706
5.634402 -6.252862 4.287073 8342706
5.927409 -6.051891 4.935997 8342706
6.209608 -5.552663 3.765860 8342706
5.657794 -6.039140 4.275791 8342706
6.095727 -6.542695 4.283473 8342706
5.710035 -5.730022 3.967833 8342706
5.562061 -6.092710 3.775248 8342706
6.224026 -6.418469 1.031908 8342706
6.559391 -5.955669 0.499593 8342706
5.988342 -5.528936 2.920704 8342706
6.208749 -6.402563 1.664164 8342706
5.502341 -6.212638 3.915819 8342706
5.581877 -6.455315 2.805056 8342706
5.785480 -5.493365 2.250075 8342706
6.537132 -6.217118 2.064649 8342706
6.061358 -6.362953 0.553820 8342706
5.426485 -5.866713 2.599708 8342706
5.841040 -5.692887 2.556760 8342706
6.283630 -6.085139 0.228303 8342706
6.057867 -5.617891 4.356162 8342706
6.527329 -6.306463 4.419982 8342706
5.826013 -6.401189 4.395845 8342706
5.451370 -5.759351 4.328055 8342706
5.943072 -5.488053 1.506127 8342706
6.536560 -6.218246 4.020848 8342706
6.391325 -6.163044 1.416937 8342706
5.830534 -6.174121 3.733730 8342706
6.113625 -6.343884 1.922430 8342706
5.554971 -5.637706 3.386947 8342706
5.784152 -6.457106 3.553931 8342706
5.503380 -5.693443 3.924369 8342706
6.177431 -5.552454 0.057695 8342706
6.355714 -5.942923 2.656645 8342706
6.366311 -6.101889 1.778521 8342706
5.785691 -5.798358 3.213521 8342706
6.019178 -5.820611 3.174852 8342706
6.306685 -6.056774 2.039177 8342706
6.374420 -5.821260 2.204337 8342706
6.059825 -5.812777 0.102191 8342706
5.836028 -6.065486 0.088438 8342706
6.224564 -6.449079 0.872994 8342706
6.354465 -6.475026 0.741189 8342706
6.134235 -6.364161 4.241540 8342706
5.842937 -6.525287 1.820261 8342706
5.635898 -5.899302 0.971351 8342706
5.777632 -5.683668 2.703792 8342706
6.194533 -5.731155 0.407118 8342706
6.086818 -5.416420 2.083053 8342706
6.009171 -6.477836 1.077997 8342706
6.237406 -5.561549 1.290061 8342706
6.447705 -5.660915 3.605569 8342706
6.483329 -6.252832 0.318605 8342706
5.763227 -5.912649 4.008375 8342706
6.168559 -6.105991 1.731241 8342706
6.099135 -6.234788 3.253327 8342706
5.592500 -6.273348 3.678942 8342706
6.515876 -6.151275 1.856343 8342706
6.252391 -6.216224 1.668570 8342706
5.576215 -5.781920 2.483338 8342706
6.383975 -6.395085 2.040847 8342706
6.098134 -6.209273 3.572854 8342706
6.175810 -6.570906 4.295686 8342706
6.431527 -6.377867 3.688732 8342706
6.138406 -5.535626 2.010741 8342706
6.078310 -5.461711 0.892582 8342706
6.134810 -6.434923 1.176653 8342706
5.655249 -6.075965 0.151207 8342706
5.868136 -5.584269 2.612474 8342706
5.783968 -6.384282 2.618605 8342706
6.100098 -5.482897 3.488425 8342706
5.758378 -6.270209 3.360723 8342706
6.286994 -6.323584 1.081831 8342706
5.806539 -6.541516 4.765425 8342706
6.242828 -5.666680 4.888731 8342706
6.004649 -6.475531 1.858290 8342706
5.690595 -5.786457 0.309772 8342706
6.292656 -5.551161 4.287978 8342706
5.588703 -5.850600 4.376109 8342706
6.237194 -5.582913 0.503335 8342706
6.273887 -6.365023 4.011271 8342706
6.194273 -6.539898 0.569002 8342706
6.188297 -5.848916 1.007423 8342706
6.439784 -6.151299 2.783155 8342706
6.040677 -6.395123 3.731714 8342706
5.994758 -5.543457 2.084459 8342706
6.450593 -6.192739 3.305856 8342706
6.115165 -5.433578 0.229084 8342706
5.487889 -5.705078 4.388135 8342706
6.174510 -6.341926 1.670058 8342706
6.422865 -5.590482 1.852856 8342706
5.869785 -6.093391 0.937024 8342706
6.359340 -5.607422 3.705110 8342706
5.634034 -6.135605 3.743960 8342706
6.520216 -5.895614 1.158258 8342706
5.743320 -6.007015 2.420650 8342706
6.260521 -6.327403 2.956685 8342706
5.726886 -6.383004 4.092001 8342706
6.057452 -6.288717 3.913562 8342706
6.395909 -5.557278 4.968105 8342706
6.513216 -6.266910 4.651551 8342706
6.001653 -5.923292 3.874145 8342706
6.173156 -6.372718 4.354186 8342706
5.724881 -6.206833 2.001917 8342706
6.432758 -5.858333 2.118185 8342706
6.468338 -5.982346 2.194801 8342706
5.857045 -5.434739 1.058818 8342706
6.501476 -5.799393 0.285258 8342706
5.860256 -5.466062 1.397936 8342706
6.248706 -5.702089 4.816147 8342706
5.982003 -5.639345 1.245482 8342706
6.486279 -5.808027 2.252947 8342706
5.798518 -6.225021 3.675594 8342706
6.281384 -6.183727 1.509805 8342706
5.968685 -6.391349 3.983103 8342706
5.997874 -5.830784 2.287849 8342706
6.178906 -6.056204 4.099618 8342706
6.144004 -6.433990 4.344367 8342706
6.284472 -5.584951 4.744505 8342706
6.340517 -5.811841 3.613267 8342706
6.003839 -5.783841 3.177653 8342706
6.539590 -5.851502 3.037320 8342706
6.278354 -5.876947 2.859084 8342706
6.306701 -6.319695 2.004641 8342706
5.761889 -5.701025 3.620159 8342706
5.709541 -5.728946 3.084019 8342706
6.247608 -5.971095 1.446704 8342706
6.390701 -6.196906 1.072670 8342706
5.822206 -5.611064 2.971155 8342706
5.509900 -5.893980 0.125865 8342706
5.647020 -5.657954 0.457683 8342706
5.629072 -5.574202 2.865724 8342706
5.977664 -5.506668 2.122161 8342706
5.521389 -6.101967 1.873850 8342706
6.117630 -5.514534 3.503940 8342706
5.431274 -5.900159 4.598550 8342706
5.453513 -5.822959 2.918628 8342706
6.188697 -6.323739 1.839437 8342706
5.562783 -6.389110 0.839301 8342706
5.870767 -6.511179 1.616447 8342706
6.088572 -6.335385 3.417211 8342706
5.965238 -6.488385 4.603768 8342706
6.350296 -6.158416 0.797149 8342706
6.496921 -6.310247 1.461865 8342706
6.539227 -5.920856 3.379178 8342706
5.581974 -6.081488 1.104924 8342706
6.280197 -6.277602 1.956584 8342706
6.156571 -6.306875 2.942491 8342706
6.080052 -6.519105 4.952013 8342706
5.972068 -6.449913 0.616050 8342706
6.287838 -5.783942 1.741820 8342706
6.394594 -5.927255 1.315754 8342706
6.229036 -6.414177 0.494530 8342706
6.291672 -6.124948 2.907999 8342706
6.494922 -6.154885 0.079662 8342706
6.088268 -5.642443 1.217533 8342706
6.500537 -6.286545 4.306259 8342706
6.473304 -5.640855 4.799890 8342706
6.492052 -6.176056 3.634385 8342706
6.312446 -6.330930 1.604493 8342706
5.742283 -6.296665 0.415566 8342706
6.160472 -5.586759 2.703522 8342706
6.239976 -6.050418 3.855866 8342706
6.328387 -5.848741 0.385946 8342706
6.200219 -5.858516 3.930506 8342706
5.779057 -6.424353 3.283737 8342706
6.407737 -6.193371 0.003958 8342706
6.345639 -5.758945 1.373164 8342706
6.295354 -6.033835 4.229828 8342706
6.344076 -6.065489 2.027882 8342706
5.767866 -5.580434 4.371961 8342706
5.833065 -6.012593 0.873001 8342706
6.050239 -5.739459 4.170171 8342706
5.503483 -5.730855 3.988811 8342706
6.471188 -6.120724 1.760215 8342706
6.288364 -6.459758 1.702378 8342706
6.275099 -6.212156 4.634195 8342706
5.530821 -6.333506 1.227256 8342706
6.006530 -6.228665 3.451005 8342706
6.238385 -5.558115 3.756210 8342706
6.033846 -6.571824 3.662638 8342706
5.946179 -6.004430 1.761019 8342706
5.787036 -5.656418 2.730267 8342706
6.190006 -6.306884 0.944090 8342706
6.185852 -5.994680 3.882652 8342706
6.114036 -6.295580 1.974162 8342706
5.790573 -6.139596 1.030573 8342706
6.579971 -5.987173 1.746094 8342706
5.732920 -6.094344 4.314668 8342706
6.461867 -5.778435 1.026049 8342706
5.564429 -5.865629 0.773737 8342706
6.310011 -6.008045 4.994789 8342706
6.179326 -6.549141 4.091351 8342706
6.082415 -6.406080 4.718233 8342706
6.005722 -5.827074 1.393083 8342706
6.503616 -6.152604 5.001984 8342706
6.126755 -6.078821 1.653440 8342706
5.842267 -5.963256 2.088979 8342706
5.744317 -5.941610 3.024879 8342706
6.491095 -6.252067 4.109282 8342706
5.493407 -5.879795 3.607641 8342706
6.177497 -6.089444 0.978893 8342706
5.847075 -6.267380 1.913324 8342706
5.959750 -5.642207 2.395749 8342706
6.318219 -6.277113 0.088660 8342706
5.807453 -5.569600 4.550426 8342706
5.984157 -5.480172 4.065523 8342706
5.755126 -5.447841 3.545922 8342706
6.395513 -6.353179 1.555919 8342706
5.527595 -6.013619 4.735258 8342706
6.059047 -6.533948 0.125151 8342706
6.542665 -5.934952 1.501265 8342706
6.346497 -5.561998 3.347728 8342706
5.769288 -5.891590 0.828508 8342706
6.007407 -5.996224 0.882843 8342706
5.630251 -5.916677 2.229999 8342706
5.722976 -5.622298 2.288467 8342706
5.785140 -6.116322 3.543726 8342706
6.334608 -5.516183 1.131975 8342706
5.651307 -5.775860 4.827475 8342706
5.886489 -5.784197 0.078922 8342706
5.638594 -6.470675 2.473033 8342706
5.889583 -6.464433 3.630996 8342706
6.035347 -6.601421 0.581460 8342706
6.049006 -5.728614 1.735254 8342706
6.109903 -5.909648 1.784550 8342706
6.162086 -5.764703 4.169214 8342706
5.478445 -6.272728 4.961759 8342706
6.570856 -5.831403 2.137860 8342706
6.224102 -6.431035 3.893444 8342706
6.231484 -5.727563 2.516480 8342706
6.235417 -6.381031 2.383457 8342706
6.066960 -5.643634 4.508460 8342706
5.639874 -6.288852 3.475138 8342706
5.992837 -6.446117 2.729720 8342706
6.569854 -6.112693 0.456335 8342706
5.728622 -5.647327 4.809843 8342706
6.296111 -5.789983 0.297905 8342706
5.966004 -5.727556 4.688648 8342706
6.067975 -5.562265 2.427020 8342706
6.362186 -5.929828 1.871978 8342706
5.830977 -6.325135 3.422177 8342706
6.100440 -5.692235 4.247959 8342706
6.458080 -5.823079 0.466704 8342706
6.381006 -5.785629 4.615714 8342706
6.234532 -6.028763 2.774276 8342706
6.322471 -6.240504 0.712976 8342706
5.448589 -6.033535 2.431181 8342706
5.676360 -5.964499 4.332055 8342706
6.277767 -5.930486 4.804648 8342706
6.288509 -5.570398 1.396110 8342706
5.821812 -6.235686 4.050196 8342706
6.451679 -5.680020 4.603780 8342706
5.862661 -5.515260 4.367375 8342706
5.678113 -5.867230 0.483486 8342706
6.416058 -5.830190 3.479007 8342706
