# .PCD v0.7 - Point Cloud Data file format
VERSION 0.7
FIELDS x y z rgb
SIZE 4 4 4 4
TYPE F F F U
COUNT 1 1 1 1
WIDTH 1303
HEIGHT 1
VIEWPOINT 0 0 0 1 0 0 0
POINTS 1303
DATA ascii
-7.838910 3.241811 0.489395 15014169
-8.134633 3.188041 1.083466 15014169
-7.732365 3.083412 0.847572 15014169
-7.685415 3.438849 0.462869 15014169
-8.207291 3.311376 1.093838 15014169
-7.636442 3.399091 1.418864 15014169
-8.147795 3.232425 1.184867 15014169
-8.314713 3.231685 0.921927 15014169
-8.063931 3.058546 1.564009 15014169
-8.289636 3.100049 0.690343 15014169
-7.611024 2.892083 0.948890 15014169
-8.094430 3.343242 1.258678 15014169
-7.833403 3.492317 1.631747 15014169
-8.263176 2.943837 0.346386 15014169
-7.665797 3.565403 0.854135 15014169
-8.269232 2.954382 1.521746 15014169
-7.993560 3.015495 1.162460 15014169
-7.775362 3.187486 0.361274 15014169
-8.043552 3.485187 0.437284 15014169
-8.220810 3.437656 0.490115 15014169
-8.215320 3.035223 0.718024 15014169
-8.080502 3.432037 0.658234 15014169
-8.240723 2.952036 0.797068 15014169
-8.142297 3.451701 1.136100 15014169
-8.099960 3.571059 0.894872 15014169
-7.678005 3.073965 0.758501 15014169
-7.618046 2.913041 1.527509 15014169
-7.623538 3.104493 1.586009 15014169
-7.679557 3.557976 0.446792 15014169
-7.897889 3.418476 1.330371 15014169
-7.720153 2.871015 1.626756 15014169
-8.185101 2.907954 1.678420 15014169
-8.188127 3.443314 0.307117 15014169
-8.305696 2.912271 1.168765 15014169
-8.138871 3.157365 1.643225 15014169
-8.170249 3.028561 0.964551 15014169
-8.112728 3.228109 0.940346 15014169
-8.084061 2.880907 1.356940 15014169
-7.689176 3.126616 0.962111 15014169
-8.268353 3.376321 0.625457 15014169
-8.216994 2.965455 0.571619 15014169
-7.804103 3.163280 1.289790 15014169
-8.224415 3.060174 1.450367 15014169
-8.304360 3.011012 1.479616 15014169
-7.831326 3.063820 1.464493 15014169
-8.197974 3.256917 1.142043 15014169
-7.639891 3.363717 0.776169 15014169
-7.949357 3.049481 1.694299 15014169
-8.006750 2.934006 1.654279 15014169
-7.677978 3.236200 0.360675 15014169
-7.724833 3.497553 1.164504 15014169
-8.121167 3.531916 0.323292 15014169
-8.090161 3.116686 1.477583 15014169
-8.300835 3.338068 1.101491 15014169
-8.065656 2.933213 0.501188 15014169
-7.842815 2.910149 0.389417 15014169
-7.984759 3.232543 0.328960 15014169
-7.952326 2.964244 0.448767 15014169
-7.821844 3.072181 1.401564 15014169
0.245756 -11.688963 0.609456 1690649
-0.034289 -12.097043 0.782524 1690649
0.183422 -12.055562 0.710078 1690649
-0.377146 -12.144471 1.318744 1690649
0.279434 -11.947313 0.485103 1690649
-0.016789 -11.875379 0.589805 1690649
0.225256 -11.944020 1.007775 1690649
-0.035142 -12.042483 1.104841 1690649
0.446014 -12.028773 1.305235 1690649
-0.185300 -11.999249 0.947903 1690649
0.414734 -11.873005 0.524303 1690649
0.116279 -12.120407 1.768163 1690649
0.027155 -12.353522 0.187515 1690649
-0.275650 -11.763826 1.060983 1690649
0.114985 -11.675713 1.028760 1690649
0.254237 -12.312387 1.157472 1690649
0.447285 -12.108369 1.028667 1690649
-0.138179 -12.141090 0.580852 1690649
0.198710 -11.865781 1.400259 1690649
0.120873 -12.039406 1.139996 1690649
0.112547 -11.586164 1.741190 1690649
0.118070 -12.374884 1.167732 1690649
-0.349347 -12.153606 0.868964 1690649
-0.392059 -12.142916 0.896198 1690649
-0.246222 -11.613750 1.526362 1690649
0.185260 -12.088285 1.835944 1690649
-0.293668 -12.093175 1.427186 1690649
0.194071 -11.653413 1.821605 1690649
0.046086 -12.286087 0.636338 1690649
0.281117 -11.727405 1.258312 1690649
-0.152866 -11.638306 1.427331 1690649
-0.129956 -11.838431 1.600376 1690649
0.398249 -12.148401 0.979394 1690649
-0.169386 -11.872187 0.739391 1690649
0.042415 -12.091352 1.074934 1690649
0.287401 -11.604097 1.097034 1690649
-0.390125 -11.950212 0.553918 1690649
0.090087 -11.780322 0.630741 1690649
-0.261877 -12.099829 1.252999 1690649
0.065515 -11.742083 1.884756 1690649
0.188153 -11.824196 1.080060 1690649
-0.111403 -12.275270 0.329996 1690649
0.173311 -11.807727 1.882298 1690649
0.031070 -12.258033 1.004632 1690649
-0.232819 -11.630468 1.899598 1690649
0.246758 -12.126520 1.134806 1690649
0.059276 -12.296021 1.436353 1690649
-0.014075 -11.789034 1.019404 1690649
-0.117519 -11.559431 1.025243 1690649
0.003278 -11.614848 1.359493 1690649
-0.151722 -11.827870 1.218825 1690649
0.193655 -11.549747 0.415372 1690649
0.405599 -11.836201 1.504559 1690649
-0.192000 -11.761847 1.014400 1690649
-0.366386 -12.147026 1.852280 1690649
-0.035844 -12.310757 1.701283 1690649
-0.148183 -12.044506 0.800977 1690649
-0.138869 -11.831121 0.580416 1690649
0.376840 -12.201161 0.932018 1690649
0.008646 -12.015645 1.466321 1690649
-0.317122 -11.991888 0.934857 1690649
0.161930 -11.962911 0.119023 1690649
-0.205828 -11.831628 0.194084 1690649
0.054566 -12.333893 0.189352 1690649
0.028350 -11.722469 0.970993 1690649
0.148705 -12.172335 1.741474 1690649
-0.173364 -12.235927 1.653383 1690649
0.063996 -12.410154 1.800510 1690649
-0.167171 -11.809074 0.219466 1690649
-0.292750 -12.128368 0.352533 1690649
-0.168791 -11.854601 1.353207 1690649
0.140575 -12.122547 0.655136 1690649
-0.145245 -12.207530 1.639017 1690649
0.398309 -12.008476 1.162594 1690649
0.172537 -11.979617 0.111927 1690649
0.008895 -11.615345 1.223656 1690649
0.067597 -11.792538 0.220357 1690649
0.016302 -12.307159 1.109742 1690649
0.316682 -11.989854 0.741038 1690649
0.210563 -11.689051 1.205361 1690649
-0.027853 -11.549582 0.228091 1690649
-0.005286 -12.174641 0.472821 1690649
0.110303 -11.792908 0.921848 1690649
-0.112063 -11.928000 1.775855 1690649
-0.316806 -11.879271 0.699839 1690649
0.127249 -12.320664 0.199860 1690649
-0.002768 -12.327840 1.455128 1690649
-0.154095 -12.262540 0.163736 1690649
0.251472 -11.792820 1.497322 1690649
0.320809 -12.168959 1.253872 1690649
0.048625 -11.684656 1.689275 1690649
-0.041658 -11.629649 1.122927 1690649
0.230792 -11.670029 0.758818 1690649
-0.159563 -12.053548 0.157410 1690649
-0.196436 -11.645100 1.257746 1690649
0.333716 -12.244830 0.591570 1690649
-0.195009 -11.822246 1.668036 1690649
-0.047868 -11.948915 1.910049 1690649
0.294670 -11.798638 0.484559 1690649
-0.100310 -12.179846 1.625370 1690649
-0.309064 -12.181707 0.954657 1690649
-0.095978 -11.639731 1.738960 1690649
-0.128501 -12.211497 1.459712 1690649
-0.298057 -11.737686 0.592391 1690649
-0.192781 -11.765124 0.151440 1690649
-0.282288 -12.301729 1.139968 1690649
-0.218945 -11.733798 0.611918 1690649
-0.167191 -11.737922 1.077867 1690649
-0.304519 -12.166907 0.765769 1690649
-0.189488 -12.098174 1.271738 1690649
0.360905 -12.254004 0.133299 1690649
0.031971 -11.556116 1.890323 1690649
0.423213 -11.881745 0.983737 1690649
0.230499 -12.343085 1.819693 1690649
0.408842 -11.870066 1.454422 1690649
0.151574 -12.228119 1.039828 1690649
0.294435 -11.783266 1.358177 1690649
0.054746 -12.300929 1.126229 1690649
-0.020708 -11.629234 0.771118 1690649
0.097555 -12.368120 0.141889 1690649
-0.348700 -12.013046 0.967760 1690649
-0.267852 -11.715602 0.307087 1690649
0.312774 -11.849624 1.331670 1690649
0.231579 -12.244944 0.107626 1690649
-0.203793 -11.988041 1.071061 1690649
0.077103 -12.174788 0.244110 1690649
-0.333102 -12.025004 0.955312 1690649
0.031416 -12.244513 0.470983 1690649
0.404424 -11.788163 0.706245 1690649
-0.284243 -11.872878 1.872719 1690649
-0.079309 -11.838254 0.248275 1690649
0.148377 -11.999449 0.448267 1690649
0.347187 -12.292672 0.876474 1690649
-0.380827 -11.793324 1.412670 1690649
-0.223833 -11.887670 1.529849 1690649
-0.177781 -11.945227 0.329328 1690649
0.212291 -12.247501 1.467172 1690649
-0.050761 -12.021199 0.521701 1690649
0.238879 -12.115331 1.362921 1690649
0.151389 -11.737122 0.183639 1690649
-0.343455 -12.002388 0.661775 1690649
0.426879 -12.094080 0.763267 1690649
0.326885 -11.859306 1.294746 1690649
-0.098625 -11.883658 0.892720 1690649
-0.260332 -11.988370 0.645905 1690649
0.426045 -11.809809 1.196330 1690649
0.086259 -12.092695 1.295145 1690649
-0.154929 -11.866384 1.663186 1690649
0.064029 -11.579538 1.190596 1690649
0.433780 -11.934145 1.278414 1690649
0.226502 -12.160317 0.528546 1690649
-0.203744 -11.963940 1.013152 1690649
0.114870 -11.946223 1.224095 1690649
0.190631 -12.080569 0.695478 1690649
-4.363971 7.174634 0.461366 10053171
-5.974806 7.093097 0.417699 10053171
-4.438779 6.987651 2.377384 10053171
-5.176422 7.138718 2.886976 10053171
-3.853686 6.991459 0.277295 10053171
-6.690373 6.773287 2.474645 10053171
-4.110793 7.148361 2.558173 10053171
-3.166899 6.942175 1.341616 10053171
-4.372196 6.990214 0.517380 10053171
-3.498039 7.195718 2.570495 10053171
-3.680110 7.185785 2.493861 10053171
-3.268798 6.961844 0.843423 10053171
-3.988861 7.060762 0.170997 10053171
-4.975549 6.829176 1.147591 10053171
-6.806166 6.986997 0.178540 10053171
-4.600138 7.125453 2.171392 10053171
-6.414549 6.982490 1.210362 10053171
-4.676662 6.950288 0.462333 10053171
-6.893548 6.747682 2.810270 10053171
-6.311631 7.221587 2.866002 10053171
-6.079492 7.095443 0.764837 10053171
-6.147735 6.798460 2.791058 10053171
-3.729943 6.876561 2.209528 10053171
-4.820043 7.069054 2.512060 10053171
-6.578433 7.004587 2.648638 10053171
-6.057193 7.147396 1.117040 10053171
-3.411607 7.137640 1.457846 10053171
-4.622848 6.957729 1.358182 10053171
-5.992954 7.233105 2.400786 10053171
-6.685221 7.018004 2.943477 10053171
-6.873528 7.048457 1.108521 10053171
-5.974986 6.766139 0.133771 10053171
-6.148669 7.010796 1.953897 10053171
-3.855719 6.975966 0.565676 10053171
-4.710247 7.142876 0.112562 10053171
-5.880291 7.154710 2.098190 10053171
-4.845546 6.963834 1.398405 10053171
-5.493270 7.243725 2.742410 10053171
-5.046308 6.761469 1.324182 10053171
-6.168669 6.989990 2.532813 10053171
-4.482381 6.935778 2.125516 10053171
-4.118330 7.109293 1.108790 10053171
-3.890075 6.783237 0.892143 10053171
-4.724717 6.918021 2.249375 10053171
-5.542447 6.965825 0.655864 10053171
-3.817788 7.036750 1.163715 10053171
-3.484101 7.059872 2.117927 10053171
-4.296945 7.194895 0.703117 10053171
-4.115448 7.249021 2.567611 10053171
-5.294448 6.961068 1.615019 10053171
-6.769060 7.048388 2.599534 10053171
-5.677736 6.960018 1.216083 10053171
-5.763968 6.849524 2.780093 10053171
-3.546957 6.864692 2.692933 10053171
-3.105322 6.890700 0.625698 10053171
-5.026967 7.040714 2.166980 10053171
-3.513347 7.051478 0.803878 10053171
-5.450776 7.024011 1.611366 10053171
-3.341087 7.090266 2.176284 10053171
-6.490839 7.183144 0.022245 10053171
-6.371465 6.758883 2.579703 10053171
-4.385009 6.932967 2.930174 10053171
-6.323810 6.928374 0.883602 10053171
-3.766865 7.171625 1.035254 10053171
-3.563205 7.069122 2.682019 10053171
-4.186444 6.917946 2.158082 10053171
-6.354174 6.802055 1.036772 10053171
-3.777077 7.007278 1.909213 10053171
-3.883687 7.053105 1.245139 10053171
-5.459868 7.203138 0.695292 10053171
-5.918451 6.946434 2.513209 10053171
-3.261156 6.932942 1.509199 10053171
-6.797386 6.746521 2.278819 10053171
-3.693611 6.979508 0.997036 10053171
-6.513916 7.209298 1.567206 10053171
-5.313227 6.972563 0.858218 10053171
-6.485626 6.877039 0.459359 10053171
-4.538849 7.119859 2.272644 10053171
-6.749660 7.168917 1.135599 10053171
-4.006896 6.887205 0.246173 10053171
-5.772828 7.216666 0.715035 10053171
-6.961567 7.076343 2.902570 10053171
-3.129648 7.090236 2.191606 10053171
-4.128850 7.102377 0.029480 10053171
-4.414870 7.178062 1.352977 10053171
-6.618034 7.225864 0.422346 10053171
-5.831996 6.870157 0.138600 10053171
-3.252295 6.891158 0.159062 10053171
-6.554749 6.918289 1.327737 10053171
-5.962595 6.847989 0.016709 10053171
-5.441091 7.033889 1.778852 10053171
-6.378247 7.010181 2.960418 10053171
-6.085729 6.832146 2.946316 10053171
-4.232328 7.219359 1.409505 10053171
-4.285706 7.112292 2.191415 10053171
-3.905393 7.192055 2.396890 10053171
-5.647844 7.212147 0.385830 10053171
-5.351622 6.915359 0.445663 10053171
-3.349170 6.975118 0.982481 10053171
-6.871944 6.961290 0.250825 10053171
-4.483634 6.809277 1.778829 10053171
-6.240589 7.209274 1.518590 10053171
-3.844659 7.190097 0.858630 10053171
-3.795609 6.968797 2.090993 10053171
-4.817038 7.129485 1.238009 10053171
-5.642604 7.255845 1.591521 10053171
-4.241630 6.946598 0.408360 10053171
-5.525520 7.209214 0.301955 10053171
-3.281951 7.078618 0.150689 10053171
-5.129581 6.791751 1.800996 10053171
-5.639574 7.045611 2.630012 10053171
-5.434216 6.877321 2.391222 10053171
-4.470325 6.928358 0.695066 10053171
-4.762036 6.954422 2.319367 10053171
-6.488348 6.942607 1.167888 10053171
-5.740416 6.785781 1.376333 10053171
-4.592273 6.919941 1.781065 10053171
-4.044509 7.077552 2.557270 10053171
-3.315503 7.049355 0.188278 10053171
-4.620572 6.754346 1.411826 10053171
-3.799380 7.218355 0.838883 10053171
-5.167361 6.859632 0.233012 10053171
-6.435911 6.765984 0.306855 10053171
-5.593472 7.013210 0.837074 10053171
-3.145259 7.185109 1.551648 10053171
-5.392529 7.074166 2.713499 10053171
-5.310096 6.916303 2.680048 10053171
-4.400267 6.897734 0.775846 10053171
-6.981354 7.108057 2.649568 10053171
-4.266113 7.036463 2.888171 10053171
-4.870665 6.960326 0.240726 10053171
-6.478122 6.899966 2.227339 10053171
-5.365180 6.906110 1.733878 10053171
-5.257389 7.072242 1.656359 10053171
-4.650972 6.828246 0.818581 10053171
-3.287666 6.834153 0.434748 10053171
-4.001361 6.963851 1.203555 10053171
-3.771953 7.227828 0.801763 10053171
-5.132078 7.046304 2.749431 10053171
-4.754895 7.173816 1.087737 10053171
-5.645617 6.795771 2.540466 10053171
-5.408727 7.169197 2.291418 10053171
-6.053499 6.992288 2.989235 10053171
-3.699118 6.933274 1.079600 10053171
-4.247546 7.078010 2.727851 10053171
-5.929639 7.055939 0.665918 10053171
-4.950802 6.814488 2.305611 10053171
-3.925078 6.826779 1.366915 10053171
-6.036592 7.195788 1.741684 10053171
-3.625612 7.205824 0.402249 10053171
-5.840227 6.911337 2.271945 10053171
-6.570995 6.883612 1.751512 10053171
-4.776855 6.784522 2.782542 10053171
-6.482334 7.163261 1.222368 10053171
-3.573566 7.002016 1.067160 10053171
-6.253701 6.814375 1.549243 10053171
-3.024457 6.867630 1.570163 10053171
-6.405818 7.217317 0.943652 10053171
-4.789113 6.998755 1.235901 10053171
-6.429395 7.084096 0.898961 10053171
-6.870446 6.879600 2.251919 10053171
-3.717810 7.230340 1.811323 10053171
-4.231135 7.171243 0.798062 10053171
-6.322416 6.799871 2.940308 10053171
-3.038589 6.794046 2.259209 10053171
-6.436695 6.921972 1.497571 10053171
-6.293078 6.990331 0.997467 10053171
-5.145185 6.781338 1.230983 10053171
-3.942501 7.153286 0.935179 10053171
-6.421106 7.082460 0.840948 10053171
-6.221894 6.733986 2.110903 10053171
-3.519898 7.049351 0.947866 10053171
-5.312559 6.967868 2.331710 10053171
-4.516324 6.771047 0.611546 10053171
-5.589862 7.214618 0.161380 10053171
-3.609364 6.930647 1.809025 10053171
-6.993416 7.182469 2.110921 10053171
-6.186558 7.173856 1.958534 10053171
-4.689072 6.908575 0.441361 10053171
-5.558011 6.964310 1.751908 10053171
-6.754302 6.779726 1.275969 10053171
-5.566568 6.817068 1.499446 10053171
-6.407622 6.895937 2.022884 10053171
-5.975288 6.778046 1.063159 10053171
-5.777412 6.771230 2.079503 10053171
-5.563298 6.787982 1.561263 10053171
-3.363448 7.071615 2.636955 10053171
-5.039874 7.036275 0.354998 10053171
-4.199247 7.194264 0.550549 10053171
-5.054287 7.127900 0.848537 10053171
-6.388222 6.923522 2.843363 10053171
-6.855899 6.828934 2.535799 10053171
-6.719050 6.762601 0.428278 10053171
-3.253193 7.100406 1.566189 10053171
-6.024814 6.749817 2.609593 10053171
-4.051867 6.946022 1.516513 10053171
-6.732415 7.223509 0.606637 10053171
-6.907672 6.966493 2.988864 10053171
-4.475914 6.930237 1.933573 10053171
-4.904412 7.082485 2.555885 10053171
-3.972620 7.122342 0.780846 10053171
-4.125108 7.249848 0.528532 10053171
-3.916098 6.772878 1.145511 10053171
-3.486037 7.217935 2.487251 10053171
-3.395307 7.176004 0.183665 10053171
-3.159680 6.798771 0.452471 10053171
-4.787887 7.208655 1.108248 10053171
-6.914447 7.104665 0.596680 10053171
-6.252832 6.758939 1.862068 10053171
-6.639232 6.955147 0.617306 10053171
-6.361624 7.162811 1.717429 10053171
-6.432936 6.824157 1.114289 10053171
-4.972203 6.811652 0.314722 10053171
-5.290306 7.029305 1.133845 10053171
-6.007641 7.083610 1.256063 10053171
-3.183641 7.011503 2.076127 10053171
-4.523333 6.892076 0.147922 10053171
-6.051726 6.818240 0.153299 10053171
-3.627489 7.151827 0.333425 10053171
-3.316260 7.204488 2.596377 10053171
-4.024822 6.909480 2.653862 10053171
-4.119528 6.849010 2.982016 10053171
-5.524126 7.083900 1.932060 10053171
-4.338793 7.143426 0.732469 10053171
-4.256140 6.945779 0.582403 10053171
-3.590913 7.146560 0.606078 10053171
-3.739891 6.946633 0.904668 10053171
-4.643521 7.022348 0.621555 10053171
-4.187302 6.932035 0.211244 10053171
-6.545400 6.788359 2.353491 10053171
-4.728401 7.156706 0.505112 10053171
-5.150640 6.989377 1.448281 10053171
-6.458673 7.255527 1.317482 10053171
-6.969487 7.014690 2.102106 10053171
-6.603841 7.237180 1.467725 10053171
-5.036788 7.141557 2.896013 10053171
-4.737804 6.838498 0.744710 10053171
-4.280985 6.925342 1.330223 10053171
-5.446295 6.803617 2.059197 10053171
-3.995326 6.764488 2.799891 10053171
-5.949475 7.006813 1.412067 10053171
-6.732368 6.778804 0.266650 10053171
-3.277296 7.154696 2.697931 10053171
-5.115559 7.066812 1.730000 10053171
-5.840640 7.195997 0.509069 10053171
-6.235873 6.878298 1.076428 10053171
-6.949242 7.083540 1.622451 10053171
-5.757551 7.204340 2.554403 10053171
-6.205846 6.928657 2.030706 10053171
-3.777615 6.968398 1.348750 10053171
-5.704596 7.150605 0.866830 10053171
-3.123616 6.799216 0.973860 10053171
-3.890825 6.845234 1.110051 10053171
-5.360128 7.177386 1.644249 10053171
-3.503972 6.774708 0.874451 10053171
-4.686953 7.229269 1.546033 10053171
-3.672378 7.012417 2.198960 10053171
-4.567600 7.122200 2.689503 10053171
-4.897056 7.075849 2.087271 10053171
-6.916656 6.784629 2.374206 10053171
-3.414885 7.101998 0.853667 10053171
-5.545398 7.059289 2.921635 10053171
-4.806375 6.922771 0.682937 10053171
-4.606464 7.020188 2.167903 10053171
-6.915556 7.040020 2.187434 10053171
-3.640829 6.846214 1.216950 10053171
-4.319191 6.921077 0.843553 10053171
-6.428214 6.793336 2.068166 10053171
-6.022178 6.789286 2.074914 10053171
-4.850035 6.778552 0.950373 10053171
-3.705119 6.860246 0.013796 10053171
-4.868658 7.131339 2.496408 10053171
-3.758041 7.008331 2.463519 10053171
-5.183287 7.093544 1.522963 10053171
-6.238254 6.842891 1.597561 10053171
-6.691396 7.188077 2.932904 10053171
-3.950751 6.939734 0.944142 10053171
-6.246357 7.058217 0.949544 10053171
-4.882792 7.154120 1.522640 10053171
-3.297792 7.223862 0.915479 10053171
-6.350515 7.070636 1.855589 10053171
-5.692315 6.800701 1.329883 10053171
-3.577344 6.905814 0.401119 10053171
-5.630963 6.791750 2.119847 10053171
-4.295836 7.253370 0.432242 10053171
-3.204457 7.007218 1.425267 10053171
-3.111903 6.959846 1.813017 10053171
-4.076843 6.764532 0.882290 10053171
-4.287271 7.205317 1.330521 10053171
-3.076810 6.861591 0.294644 10053171
-4.021646 7.132970 1.438787 10053171
-5.431048 6.924107 1.062104 10053171
-3.972702 6.941983 0.376177 10053171
-3.776459 6.954890 0.163412 10053171
-5.717879 7.241692 1.856657 10053171
-5.699747 7.200950 1.780684 10053171
-6.043382 6.760166 2.378613 10053171
-3.611827 6.942254 0.810409 10053171
-5.212604 7.126830 1.182914 10053171
-5.139039 6.844193 2.492754 10053171
-4.277942 7.179036 0.637345 10053171
-6.974075 7.204434 0.086128 10053171
-4.029837 6.789493 1.113608 10053171
-4.055283 6.782325 1.829423 10053171
-5.414314 6.859912 2.724770 10053171
-3.285633 7.039334 1.536281 10053171
-3.316333 7.205557 -0.002721 10053171
-3.237681 6.797380 1.495101 10053171
-4.649761 6.958246 1.556128 10053171
-4.973526 6.857250 0.141671 10053171
-6.800447 6.827133 1.567800 10053171
-5.543264 6.944350 0.142521 10053171
-6.935072 6.915761 1.417673 10053171
-4.218751 6.767473 1.305607 10053171
-6.395598 6.911595 0.232771 10053171
-3.341264 6.755533 2.852525 10053171
-4.127862 6.798533 1.401265 10053171
-4.737059 6.831751 1.939257 10053171
-6.164297 6.789934 0.136020 10053171
-5.195314 7.131785 1.848628 10053171
-6.263999 7.101424 2.252734 10053171
-5.138192 7.085998 1.393288 10053171
-6.454267 6.944649 1.311082 10053171
-5.465936 7.073883 0.310442 10053171
-4.924930 7.192338 1.796273 10053171
-3.845394 6.974483 1.633018 10053171
-5.416070 7.075979 2.713694 10053171
-5.713336 7.054374 2.982802 10053171
-6.855062 7.136642 0.776646 10053171
-4.905455 7.159184 1.126405 10053171
-6.960038 6.943596 0.260996 10053171
-6.736948 6.958229 1.037193 10053171
-4.304026 6.811840 1.950036 10053171
-3.993555 7.154667 0.071032 10053171
-3.121906 7.051552 1.308847 10053171
-3.841710 7.017434 0.405557 10053171
-3.114465 6.739450 1.704178 10053171
-3.471513 6.847289 0.318398 10053171
-6.633855 7.084820 1.206246 10053171
-4.086749 7.145252 0.743953 10053171
-3.772502 6.991391 2.099963 10053171
-3.797666 7.026984 1.242088 10053171
-4.622857 7.148303 2.664437 10053171
-4.633632 7.231840 2.350382 10053171
-6.246741 7.152135 0.861315 10053171
-3.107611 6.914695 0.030164 10053171
-4.396132 6.769898 0.510008 10053171
-5.186030 7.014788 2.856920 10053171
-5.333228 7.000746 2.497359 10053171
-3.668400 7.233452 1.068789 10053171
-4.835269 6.780836 0.084947 10053171
-4.738093 7.114186 0.913324 10053171
-4.069796 6.859209 1.513347 10053171
-3.543142 6.983160 0.988971 10053171
-6.952960 7.127671 0.882002 10053171
-3.906559 6.921149 1.353034 10053171
-3.586213 6.964482 2.729164 10053171
-5.518135 6.832560 2.589447 10053171
-5.388476 6.805764 2.410961 10053171
-3.022316 6.813008 2.938176 10053171
-6.145818 6.842019 2.042053 10053171
-4.453288 7.123750 0.776954 10053171
-4.536819 7.019067 0.701822 10053171
-3.175173 7.228518 2.726300 10053171
-5.865108 7.195168 2.517185 10053171
-4.226923 6.898748 2.131321 10053171
-3.200696 6.933595 0.506381 10053171
-5.009730 6.824662 1.842660 10053171
-3.748807 6.953235 0.086681 10053171
-4.326534 7.224908 0.547139 10053171
-6.185737 6.886812 1.530517 10053171
-3.857803 7.196711 0.579929 10053171
-5.436825 6.774079 1.457502 10053171
-3.208355 6.807471 2.172955 10053171
-3.443234 6.947917 0.323652 10053171
-3.952062 7.244183 2.045986 10053171
-6.168291 7.191854 0.271181 10053171
-6.564635 6.893087 0.535345 10053171
-4.630426 6.903615 1.233331 10053171
-5.128508 6.797530 0.002159 10053171
-5.453089 6.805830 0.510152 10053171
-3.760078 6.793126 0.401792 10053171
-5.352755 7.199514 0.691466 10053171
-3.207847 7.197134 1.376849 10053171
-4.930782 6.749412 2.534051 10053171
-6.734018 7.120922 1.633491 10053171
-4.807975 6.782044 1.170218 10053171
-4.086432 7.046923 1.626042 10053171
-4.080228 7.034513 1.615557 10053171
-3.486749 6.926526 2.932601 10053171
-4.096340 7.158861 2.902650 10053171
-6.622868 6.895506 1.739821 10053171
-5.181887 7.045216 1.692093 10053171
-5.092201 7.176788 2.147783 10053171
-4.502368 6.845579 0.027480 10053171
-5.332326 6.758637 2.585854 10053171
-5.181117 6.758674 1.377510 10053171
-4.063904 6.882455 0.714469 10053171
-4.391124 7.029875 1.042658 10053171
-5.230178 7.128826 0.702894 10053171
-3.751948 6.772789 1.900159 10053171
-3.645861 7.248545 2.731442 10053171
-3.361828 7.159763 0.993304 10053171
-4.084123 7.211485 2.643368 10053171
-3.091637 7.171794 2.845538 10053171
-3.579766 7.037658 1.673101 10053171
-5.327603 7.117366 0.093119 10053171
-3.928871 6.933034 2.305693 10053171
-6.404890 7.032526 2.540301 10053171
-3.108346 7.084202 2.795226 10053171
-4.849613 7.145453 0.123316 10053171
-5.899295 6.891568 0.147474 10053171
-4.273975 7.046580 0.561572 10053171
-4.628726 7.119901 -0.002325 10053171
-6.618884 7.212736 1.384066 10053171
-6.052331 6.934804 0.101630 10053171
-5.837359 6.752253 2.911916 10053171
-4.469270 7.053107 2.819753 10053171
-5.636744 7.201277 2.530381 10053171
-3.119363 6.980160 0.619037 10053171
-5.742946 6.950610 0.610066 10053171
-4.090852 7.092577 1.532064 10053171
-4.704541 6.781677 1.660028 10053171
-5.001562 7.155180 1.217812 10053171
-4.443275 6.964687 0.522454 10053171
-5.301735 7.221676 0.310225 10053171
-3.862437 6.972472 0.823177 10053171
-4.260260 6.930336 2.680747 10053171
-5.232620 7.089902 1.706961 10053171
-3.033020 6.986143 0.251921 10053171
-5.448336 6.855490 1.055274 10053171
-6.579914 7.084672 2.698785 10053171
-5.102139 6.832809 1.658864 10053171
-3.043390 6.896436 0.735911 10053171
-6.566086 6.988021 1.166532 10053171
-3.059089 6.995421 0.188243 10053171
-6.263325 7.228897 1.925258 10053171
-3.684904 6.934404 1.365925 10053171
-4.175515 7.125238 0.210052 10053171
-3.855633 7.160128 1.812357 10053171
-4.181464 7.014544 1.355159 10053171
-3.078999 6.815366 0.737844 10053171
-5.591733 7.223715 0.138492 10053171
-5.672666 7.012570 2.798776 10053171
-4.782370 6.931948 1.797451 10053171
-5.934121 7.165785 2.040718 10053171
-3.333685 7.090466 0.994079 10053171
-6.495592 6.803996 0.755127 10053171
-6.597561 7.067236 1.905856 10053171
-3.748524 6.858428 0.008908 10053171
-4.633733 7.120385 2.000563 10053171
-5.588182 6.764314 2.685997 10053171
-3.996144 7.097517 0.427754 10053171
-3.918473 6.790613 1.637453 10053171
-5.380616 7.014951 0.814995 10053171
-4.827944 6.837132 1.738998 10053171
-5.779375 6.928625 1.075491 10053171
-6.611790 6.847428 0.177294 10053171
-4.526718 6.966616 1.704527 10053171
-3.711422 7.094014 2.796113 10053171
-5.709611 6.869790 0.078008 10053171
-5.678325 7.047778 0.372406 10053171
-4.256712 6.854300 0.871288 10053171
-5.860337 6.852035 2.072859 10053171
-4.916108 6.837475 2.924076 10053171
-3.196236 6.996836 2.037331 10053171
-3.611522 6.922159 1.090546 10053171
-4.785082 7.145216 2.841364 10053171
-4.520814 7.171010 1.479709 10053171
-3.448165 7.075569 1.059067 10053171
-3.140774 7.176849 0.526861 10053171
-5.414970 7.096845 0.839172 10053171
-6.655532 6.975606 2.589775 10053171
-3.295842 6.898565 2.380785 10053171
-5.845450 7.142519 2.056617 10053171
-4.660635 6.935186 1.475357 10053171
-4.299494 6.841341 2.113525 10053171
-3.006133 6.748800 2.447518 10053171
-3.045627 6.991279 1.060114 10053171
-4.365088 7.208706 0.310620 10053171
-5.479626 7.234792 2.311432 10053171
-5.598455 7.116467 1.104060 10053171
-3.888571 6.894035 1.864611 10053171
-4.678405 7.093392 2.942406 10053171
-4.733347 7.173920 2.682103 10053171
-6.279671 7.037947 1.581231 10053171
-3.119591 7.182694 0.324705 10053171
-4.512340 6.883396 2.794183 10053171
-3.054933 6.933353 1.115145 10053171
-4.441584 7.243340 2.840314 10053171
-4.999324 6.915899 2.683424 10053171
-3.219878 6.968645 0.518566 10053171
-5.979737 6.811691 0.796474 10053171
-4.702518 7.165165 0.311276 10053171
-3.011856 7.074301 0.543652 10053171
-5.448256 6.920613 1.103671 10053171
-3.905742 6.803774 0.628628 10053171
-6.055300 7.008624 2.737800 10053171
-3.322532 6.923254 0.561127 10053171
-5.724622 6.760925 2.842606 10053171
-4.207120 6.855051 0.642163 10053171
-6.594307 7.001889 2.951907 10053171
-6.908990 7.251880 2.533817 10053171
-6.894480 7.226907 0.746754 10053171
-5.288163 7.000620 2.454846 10053171
-5.219986 6.959212 1.258448 10053171
-3.163085 7.146458 1.916941 10053171
-6.388739 6.957709 1.704563 10053171
-4.080848 6.864081 0.126223 10053171
-3.500521 6.892944 0.004874 10053171
-6.103156 6.870520 1.895675 10053171
-3.111982 7.075740 0.777926 10053171
-3.567568 7.029955 2.728125 10053171
-4.240079 7.046163 2.627757 10053171
-3.441773 6.899183 2.406504 10053171
-5.132475 6.897797 2.874481 10053171
-4.456896 7.127343 1.037661 10053171
-6.596835 6.840066 2.036094 10053171
-3.832312 6.877003 2.267381 10053171
-3.556080 6.970398 1.029487 10053171
-4.299390 6.760623 0.869451 10053171
-3.871093 7.022741 1.001060 10053171
-5.351039 6.967793 2.078128 10053171
-3.238496 6.853838 0.513617 10053171
-3.410489 7.237626 0.648003 10053171
-6.374332 6.743648 1.221428 10053171
-5.823764 7.212190 1.590444 10053171
-3.799116 6.894014 0.809716 10053171
-6.577811 6.874957 1.575568 10053171
-4.382309 6.801014 0.979069 10053171
-5.658698 6.932848 0.061692 10053171
-4.402897 7.011556 1.182858 10053171
-4.179039 6.890112 2.121814 10053171
-3.247202 7.164567 1.304496 10053171
-3.758826 7.220470 2.651281 10053171
-5.891315 6.817643 0.051425 10053171
-5.693444 6.806379 1.570158 10053171
-4.929065 6.969087 2.465061 10053171
-6.078164 7.060026 1.131785 10053171
-6.773432 7.227166 2.099138 10053171
-5.457581 6.897052 1.243460 10053171
-6.172777 6.914053 2.927397 10053171
-5.562275 6.768709 2.390501 10053171
-4.524962 7.171995 1.520043 10053171
-5.300236 6.867460 0.627841 10053171
-6.018635 7.211074 1.499780 10053171
-3.509572 6.845928 2.530675 10053171
-5.672374 6.926354 2.279090 10053171
-6.074915 6.971773 1.436724 10053171
-6.570035 6.860763 1.235023 10053171
-6.777937 7.075927 2.626758 10053171
-6.588949 6.874769 1.822856 10053171
-6.069854 6.984844 2.779809 10053171
-4.208525 7.195155 2.765323 10053171
-4.897393 7.063314 2.193972 10053171
-4.862988 7.138162 0.046838 10053171
-4.079628 6.839696 1.580739 10053171
-6.976529 7.242548 0.317356 10053171
-5.493707 7.145981 0.039839 10053171
-3.510366 6.813947 0.747672 10053171
-6.066966 6.791095 0.903779 10053171
-3.541852 6.788565 2.850799 10053171
-3.532264 7.178508 0.913508 10053171
-5.193504 6.830536 2.956571 10053171
-6.954278 6.856494 2.344286 10053171
-4.324507 6.865514 0.576293 10053171
-4.579606 6.863532 0.861230 10053171
-3.501955 6.820241 0.297602 10053171
-6.424562 6.982082 1.156792 10053171
-5.275340 7.238191 1.659142 10053171
-4.218548 7.186420 1.722907 10053171
-5.749275 7.132428 0.942681 10053171
-4.631902 6.941682 2.951140 10053171
-5.835295 7.046884 1.050942 10053171
-5.195875 7.154672 0.289980 10053171
-4.793386 6.856012 2.727531 10053171
-3.337973 6.979967 0.778637 10053171
-3.907849 7.020392 1.818403 10053171
-5.788182 7.011625 1.305790 10053171
-3.333110 6.948006 1.639545 10053171
-2.993306 7.217655 0.795239 10053171
-3.204131 7.217997 2.783428 10053171
-3.162732 7.178783 2.302388 10053171
-6.062753 6.928733 2.239316 10053171
-6.831186 7.054816 2.059711 10053171
-4.052690 6.808648 1.170979 10053171
-3.194621 7.213435 1.676664 10053171
-6.939628 7.147029 1.466484 10053171
-4.319250 6.899622 1.115415 10053171
-5.307540 7.043112 0.109188 10053171
-6.798049 7.168856 2.891159 10053171
-4.232499 6.803315 2.435225 10053171
-3.434060 7.056117 2.651257 10053171
-3.070247 6.786751 1.144391 10053171
-3.512686 7.219672 0.570545 10053171
-3.473453 6.933714 2.301527 10053171
-4.087186 7.092286 2.709310 10053171
-3.753219 7.050331 2.910941 10053171
-5.755059 6.929679 0.484221 10053171
-4.738094 7.120345 1.545002 10053171
5.900382 -5.950572 1.141499 8342706
6.114965 -5.712742 1.797708 8342706
5.445061 -6.095576 3.622354 8342706
6.164237 -6.474350 0.550909 8342706
5.442695 -6.207239 3.028134 8342706
6.181501 -6.442401 4.081553 8342706
6.351260 -6.064070 4.907941 8342706
6.192911 -5.650653 0.302068 8342706
6.011060 -6.161987 3.990203 8342706
6.178383 -5.982217 0.492458 8342706
5.560004 -5.669083 2.012743 8342706
6.170123 -6.438592 3.289120 8342706
6.529349 -5.794436 4.808335 8342706
6.062516 -5.621274 2.402471 8342706
6.451812 -5.958364 1.332610 8342706
6.078869 -6.229690 2.933206 8342706
6.534821 -5.866759 0.282508 8342706
6.359402 -6.424600 2.984712 8342706
6.277226 -5.534626 2.203921 8342706
6.454274 -6.378402 2.656999 8342706
6.199675 -6.103562 2.963156 8342706
6.278044 -5.584901 2.048165 8342706
5.616177 -6.280177 3.518271 8342706
5.827428 -5.573171 0.200376 8342706
5.665309 -5.757175 0.524096 8342706
6.503718 -5.803596 1.428732 8342706
6.042718 -5.438628 0.757873 8342706
6.212199 -6.321586 1.500656 8342706
6.443674 -6.145103 1.591691 8342706
6.543048 -6.028919 3.476281 8342706
5.625812 -6.193375 3.395529 8342706
5.854933 -6.194723 4.702507 8342706
5.796294 -5.530168 2.069234 8342706
6.322279 -5.758342 2.918343 8342706
6.264328 -5.938799 3.529442 8342706
5.446636 -6.094574 0.541873 8342706
6.403490 -5.818372 1.980933 8342706
5.905667 -5.779996 1.749823 8342706
5.738840 -5.860784 3.164367 8342706
5.663836 -6.162250 1.855457 8342706
5.807646 -5.516054 0.798111 8342706
6.463360 -6.084198 0.394170 8342706
5.993824 -6.142187 4.277232 8342706
5.592857 -6.172712 4.571957 8342706
5.760057 -5.752591 4.176729 8342706
5.744590 -5.924200 3.109657 8342706
6.037134 -5.987225 1.423168 8342706
6.413146 -6.275466 2.008695 8342706
5.655739 -5.727863 3.088232 8342706
6.287921 -6.089606 3.896649 8342706
5.414727 -6.009462 4.587472 8342706
5.968486 -5.466697 4.479907 8342706
5.498363 -5.969258 3.236970 8342706
6.417640 -5.931482 1.937296 8342706
6.164664 -6.495060 4.280560 8342706
6.389989 -5.887586 1.208723 8342706
5.399332 -5.964294 2.350582 8342706
5.508810 -5.752178 4.318619 8342706
6.430435 -6.007376 3.005015 8342706
6.083957 -5.669183 4.825144 8342706
6.289474 -5.878950 2.111731 8342706
5.815413 -5.447139 2.068991 8342706
5.886755 -6.315235 3.547570 8342706
5.995617 -5.508202 3.508637 8342706
5.753226 -6.049549 4.518101 8342706
5.856708 -6.090713 1.753256 8342706
6.166026 -5.760381 2.005029 8342706
6.174878 -6.295018 1.962101 8342706
5.774325 -6.237644 1.525874 8342706
5.612281 -6.242981 1.060607 8342706
5.851731 -6.373716 1.254262 8342706
5.963826 -5.954974 3.019117 8342706
6.070895 -6.105961 4.755245 8342706
5.784204 -5.811792 0.594937 8342706
5.740709 -6.081756 2.495517 8342706
5.946614 -5.991316 3.159344 8342706
5.473119 -6.181992 1.929289 8342706
6.105007 -5.600510 0.153750 8342706
6.446780 -5.936965 1.248540 8342706
6.559659 -6.068083 3.864191 8342706
6.047903 -6.224360 3.299262 8342706
5.558882 -5.661951 1.929729 8342706
6.105270 -6.283239 4.420453 8342706
6.117787 -5.608335 4.638358 8342706
6.420516 -5.669538 0.221923 8342706
5.949155 -6.158264 2.692161 8342706
6.234675 -5.979778 2.426536 8342706
5.500802 -6.186107 3.678102 8342706
6.051615 -6.324711 2.012576 8342706
5.885140 -6.332823 1.014637 8342706
6.179682 -6.410863 4.421736 8342706
5.537391 -5.938822 3.845314 8342706
5.718600 -6.386649 2.530413 8342706
6.109934 -6.512042 1.382425 8342706
5.853249 -5.882849 4.552557 8342706
5.597034 -5.790190 2.354651 8342706
6.459619 -5.845907 2.615124 8342706
6.112959 -6.429612 0.600999 8342706
5.562403 -6.172981 1.869349 8342706
6.313851 -6.050881 1.879179 8342706
6.572499 -6.049783 3.636830 8342706
5.647445 -6.370181 0.626538 8342706
5.670431 -6.429285 0.781938 8342706
6.211498 -6.033482 2.585505 8342706
5.650096 -6.026341 3.303510 8342706
5.768092 -5.578855 4.708959 8342706
5.771482 -6.229886 4.032453 8342706
5.634517 -5.843337 1.235707 8342706
6.423617 -5.972972 4.440116 8342706
5.834902 -5.618297 3.507141 8342706
6.038097 -5.804631 0.935263 8342706
6.144013 -6.363804 1.770438 8342706
6.149812 -5.810344 1.581833 8342706
5.959539 -5.774930 4.090654 8342706
6.042810 -6.183004 4.590386 8342706
5.777132 -6.157238 0.234757 8342706
5.912110 -5.646765 1.677109 8342706
6.183691 -5.625539 3.866724 8342706
5.700491 -5.976022 3.113114 8342706
5.798051 -6.202969 2.597963 8342706
5.687180 -5.850544 2.898897 8342706
5.624537 -6.241590 3.726951 8342706
5.905286 -6.598317 1.085979 8342706
6.101265 -5.809912 1.686194 8342706
6.292605 -6.314515 0.563986 8342706
6.354682 -5.696428 2.291836 8342706
6.138044 -5.557480 3.075169 8342706
5.671078 -5.683005 1.216878 8342706
5.999596 -5.701468 3.704931 8342706
6.212121 -6.026992 4.398616 8342706
6.509826 -6.143447 2.694056 8342706
6.345348 -6.145621 3.379096 8342706
5.680744 -6.313778 4.705686 8342706
6.282977 -5.529005 4.643601 8342706
5.962327 -6.223855 3.548331 8342706
5.763409 -5.669037 2.622772 8342706
6.079012 -6.570800 4.490987 8342706
5.544391 -5.767037 4.268341 8342706
5.531771 -6.142984 2.911409 8342706
6.113719 -5.645514 2.471584 8342706
5.679177 -5.876032 4.042443 8342706
5.859032 -5.426464 3.062660 8342706
6.486309 -5.797362 0.135755 8342706
6.050893 -5.440681 0.406355 8342706
6.406561 -5.727272 0.073158 8342706
6.063687 -5.758209 0.488797 8342706
5.672357 -5.714318 3.078244 8342706
6.337928 -6.223224 1.536953 8342706
6.120626 -5.794730 2.488880 8342706
5.779189 -6.152524 1.602450 8342706
5.996375 -6.217572 0.125275 8342706
5.852439 -6.034504 3.745244 8342706
5.736643 -6.159668 3.377180 8342706
6.316440 -6.261014 4.599748 8342706
6.316012 -6.478558 3.373936 8342706
6.031383 -6.551547 4.178519 8342706
6.020345 -5.672846 4.249355 8342706
5.699607 -5.637496 4.230955 8342706
6.217259 -5.872817 1.897862 8342706
5.502426 -6.249738 4.643943 8342706
5.897553 -6.342628 4.692956 8342706
6.047265 -6.431352 1.321882 8342706
6.122293 -5.631929 2.042459 8342706
5.954455 -6.200614 1.709208 8342706
6.027483 -6.008214 4.525088 8342706
6.079799 -5.643019 1.150663 8342706
6.129741 -6.306501 1.588700 8342706
5.737234 -5.740996 0.127113 8342706
6.316833 -6.164304 3.033134 8342706
6.093520 -5.569526 2.635059 8342706
6.259192 -5.862975 1.022637 8342706
5.633864 -6.073084 1.899053 8342706
5.717811 -5.677319 2.244096 8342706
5.784900 -5.650479 2.612036 8342706
5.529208 -5.930882 3.589255 8342706
6.018868 -5.827617 1.892065 8342706
5.711882 -5.865552 1.462225 8342706
5.722809 -6.273504 2.830324 8342706
6.030049 -6.314319 4.893694 8342706
5.989326 -6.436205 4.840732 8342706
6.074823 -5.610647 3.847823 8342706
5.612323 -5.585488 1.985268 8342706
6.547555 -6.034053 4.267326 8342706
5.677277 -5.594181 1.925283 8342706
6.104315 -6.468358 1.664289 8342706
5.614582 -6.218913 1.855727 8342706
6.328757 -5.910718 3.515175 8342706
6.466422 -5.813164 3.820500 8342706
6.427853 -6.079550 3.864752 8342706
6.132930 -5.843067 3.357522 8342706
6.152150 -6.382903 1.017270 8342706
5.673907 -6.129941 3.347595 8342706
6.499013 -6.299253 0.147641 8342706
6.373513 -6.117292 4.937689 8342706
5.449667 -5.931196 3.796641 8342706
6.480040 -6.011947 0.233509 8342706
6.223316 -5.669956 3.727722 8342706
6.098613 -6.006415 2.450188 8342706
6.283496 -5.978594 0.696197 8342706
6.428375 -5.962028 2.424113 8342706
6.072013 -6.504704 2.762556 8342706
6.412920 -6.088910 1.373967 8342706
6.214400 -5.659598 1.090491 8342706
6.255813 -5.594909 4.318356 8342706
6.152921 -6.456668 0.714808 8342706
5.644590 -6.073028 3.169603 8342706
6.551259 -5.794283 1.086799 8342706
6.155726 -5.792463 2.591570 8342706
6.005382 -6.094728 2.546514 8342706
6.367267 -5.681862 1.810557 8342706
5.969410 -6.114458 3.827765 8342706
6.496996 -6.014419 1.578027 8342706
5.495690 -6.300184 0.718433 8342706
5.827960 -6.365652 5.000302 8342706
6.474095 -5.781780 3.986387 8342706
6.236036 -6.025676 0.104927 8342706
6.269279 -5.817853 3.589290 8342706
6.494355 -6.068188 4.584247 8342706
5.903615 -6.050947 3.129127 8342706
6.388334 -6.244579 1.756928 8342706
6.031147 -5.426457 1.985399 8342706
5.416498 -5.964495 4.248110 8342706
6.097116 -6.053687 2.970082 8342706
6.263095 -5.929360 3.230702 8342706
5.640639 -6.179249 3.365530 8342706
6.135467 -6.360563 4.396947 8342706
6.084341 -5.514704 4.134860 8342706
5.929494 -5.842217 2.943976 8342706
5.417656 -6.095653 2.060469 8342706
6.312394 -6.418211 4.860354 8342706
5.657482 -6.398781 2.934861 8342706
6.307513 -6.339514 2.385661 8342706
6.424556 -5.799958 1.046712 8342706
6.424735 -5.890749 2.283469 8342706
5.987803 -5.515038 2.064167 8342706
6.221478 -5.752017 0.474888 8342706
5.878437 -6.289656 1.564681 8342706
6.392209 -5.748378 2.433955 8342706
6.364975 -5.544307 4.084109 8342706
6.478486 -6.163093 1.486025 8342706
6.160538 -5.828219 3.247759 8342706
5.729276 -6.406062 3.118188 8342706
6.253651 -5.550499 4.478949 8342706
6.025850 -5.897069 0.778089 8342706
5.588243 -6.345980 4.399157 8342706
5.610706 -5.755120 4.258265 8342706
6.201730 -5.826222 1.374319 8342706
5.751094 -5.793125 1.068905 8342706
5.880433 -6.115493 0.643557 8342706
6.185280 -5.431975 1.185390 8342706
6.280716 -5.532822 1.170399 8342706
5.661246 -6.255961 4.294830 8342706
5.935608 -6.069047 4.931690 8342706
6.193512 -5.576158 3.779911 8342706
5.667632 -6.058522 4.272269 8342706
6.099169 -6.571448 4.289753 8342706
5.679752 -5.731809 3.963779 8342706
5.540337 -6.093367 3.765119 8342706
6.225787 -6.432281 1.026271 8342706
6.582510 -5.943106 0.506086 8342706
5.999860 -5.527769 2.920198 8342706
6.191294 -6.410286 1.653109 8342706
5.511790 -6.226174 3.923333 8342706
5.600019 -6.465512 2.808132 8342706
5.798663 -5.507650 2.261566 8342706
6.546383 -6.232858 2.070042 8342706
6.077305 -6.361303 0.538185 8342706
5.452207 -5.868553 2.606497 8342706
5.836870 -5.667842 2.554611 8342706
6.281904 -6.079026 0.214618 8342706
6.053991 -5.609575 4.355490 8342706
6.525653 -6.300085 4.414741 8342706
5.812212 -6.393658 4.418416 8342706
5.464510 -5.765175 4.324331 8342706
5.951057 -5.492260 1.508725 8342706
6.533117 -6.208849 4.019960 8342706
6.389079 -6.161645 1.422033 8342706
5.818014 -6.204169 3.748090 8342706
6.117221 -6.322377 1.920199 8342706
5.526897 -5.621819 3.371959 8342706
5.784672 -6.460138 3.526140 8342706
5.510882 -5.695984 3.932655 8342706
6.151882 -5.568742 0.048231 8342706
6.360933 -5.962749 2.646924 8342706
6.362106 -6.097712 1.749238 8342706
5.790863 -5.776851 3.220170 8342706
6.008457 -5.833969 3.176548 8342706
6.316308 -6.050198 2.030540 8342706
6.341736 -5.825472 2.235085 8342706
6.054390 -5.775843 0.094661 8342706
5.832278 -6.083217 0.109306 8342706
6.231773 -6.455738 0.886012 8342706
6.356345 -6.463851 0.742519 8342706
6.149583 -6.350051 4.229684 8342706
5.860686 -6.529388 1.811725 8342706
5.626450 -5.922185 0.980418 8342706
5.773417 -5.670585 2.711322 8342706
6.222385 -5.746862 0.410563 8342706
6.077587 -5.422373 2.097734 8342706
6.015609 -6.490328 1.069338 8342706
6.241545 -5.566992 1.302541 8342706
6.448494 -5.671472 3.603980 8342706
6.506956 -6.255373 0.332026 8342706
5.779924 -5.917581 4.031825 8342706
6.159842 -6.106333 1.756014 8342706
6.084826 -6.230193 3.241276 8342706
5.607037 -6.262351 3.690237 8342706
6.552608 -6.142082 1.851295 8342706
6.256537 -6.231529 1.712244 8342706
5.558286 -5.807274 2.485981 8342706
6.367182 -6.412570 2.006913 8342706
6.098924 -6.214668 3.578646 8342706
6.144932 -6.571180 4.286149 8342706
6.448973 -6.386428 3.684064 8342706
6.131072 -5.528994 2.033293 8342706
6.105816 -5.448809 0.894303 8342706
6.126545 -6.439619 1.149726 8342706
5.656022 -6.067605 0.130944 8342706
5.843794 -5.599679 2.614969 8342706
5.806470 -6.379792 2.646227 8342706
6.091900 -5.487002 3.501291 8342706
5.754972 -6.289350 3.367391 8342706
6.310412 -6.345317 1.081039 8342706
5.805394 -6.514696 4.738588 8342706
6.240213 -5.669464 4.909977 8342706
6.017059 -6.468900 1.860638 8342706
5.692555 -5.786507 0.305615 8342706
6.288193 -5.534906 4.287460 8342706
5.603235 -5.847267 4.357181 8342706
6.230412 -5.594083 0.493642 8342706
6.284273 -6.353886 3.999612 8342706
6.180088 -6.540555 0.570418 8342706
6.183598 -5.844777 1.032447 8342706
6.454470 -6.166142 2.781835 8342706
6.031476 -6.393006 3.746580 8342706
5.983307 -5.542023 2.062323 8342706
6.459148 -6.172499 3.308895 8342706
6.111703 -5.440969 0.251936 8342706
5.466680 -5.713504 4.397533 8342706
6.183248 -6.354816 1.661879 8342706
6.439572 -5.597186 1.836727 8342706
5.886550 -6.104397 0.926511 8342706
6.350462 -5.606442 3.689662 8342706
5.641895 -6.125237 3.759510 8342706
6.521306 -5.905398 1.169389 8342706
5.741853 -5.992472 2.427931 8342706
6.257152 -6.344147 2.936652 8342706
5.705117 -6.398127 4.093408 8342706
6.054426 -6.260108 3.915574 8342706
6.399438 -5.549691 4.941824 8342706
6.502095 -6.284881 4.648684 8342706
6.026834 -5.922251 3.891480 8342706
6.157890 -6.383993 4.333094 8342706
5.725857 -6.213192 2.014226 8342706
6.453137 -5.875825 2.128432 8342706
6.427481 -5.978905 2.220143 8342706
5.871073 -5.431080 1.044569 8342706
6.490641 -5.794489 0.278332 8342706
5.854825 -5.472803 1.385286 8342706
6.237807 -5.723689 4.818609 8342706
5.972424 -5.642463 1.224513 8342706
6.507213 -5.816208 2.260107 8342706
5.767053 -6.208772 3.702848 8342706
6.266843 -6.200975 1.514101 8342706
5.964723 -6.387419 3.973543 8342706
6.012558 -5.821405 2.296551 8342706
6.151825 -6.048887 4.097784 8342706
6.165632 -6.398422 4.367787 8342706
6.289412 -5.594231 4.736709 8342706
6.346364 -5.818902 3.588262 8342706
6.004657 -5.790566 3.185163 8342706
6.524172 -5.872504 3.040386 8342706
6.270467 -5.867333 2.834195 8342706
6.299603 -6.331338 1.990474 8342706
5.750490 -5.710379 3.619568 8342706
5.713120 -5.720663 3.083061 8342706
6.283123 -5.973870 1.480147 8342706
6.382171 -6.226319 1.075902 8342706
5.819848 -5.598097 2.949518 8342706
5.508863 -5.909862 0.126380 8342706
5.656031 -5.654668 0.447143 8342706
5.608545 -5.591737 2.878549 8342706
6.014787 -5.513865 2.125645 8342706
5.505518 -6.118069 1.870225 8342706
6.126028 -5.507042 3.487255 8342706
5.434203 -5.901365 4.601452 8342706
5.452510 -5.791297 2.922923 8342706
6.183893 -6.305173 1.855497 8342706
5.568864 -6.409364 0.846934 8342706
5.882176 -6.504835 1.619491 8342706
6.105160 -6.344450 3.437333 8342706
5.967939 -6.478366 4.606702 8342706
6.356226 -6.169387 0.781906 8342706
6.501696 -6.330486 1.442668 8342706
6.556391 -5.911652 3.398651 8342706
5.583261 -6.091504 1.096869 8342706
6.283594 -6.287225 1.941360 8342706
6.162313 -6.297619 2.946502 8342706
6.073424 -6.521259 4.959972 8342706
5.971055 -6.454228 0.612101 8342706
6.274720 -5.762317 1.736773 8342706
6.403100 -5.916717 1.292105 8342706
6.224904 -6.399971 0.468858 8342706
6.306819 -6.103815 2.885351 8342706
6.487578 -6.127349 0.097213 8342706
6.078358 -5.662508 1.228242 8342706
6.511143 -6.279392 4.289352 8342706
6.471934 -5.644225 4.805858 8342706
6.492826 -6.169420 3.624699 8342706
6.322217 -6.326744 1.595062 8342706
5.758698 -6.293896 0.416312 8342706
6.172574 -5.580680 2.704414 8342706
6.242342 -6.032012 3.852443 8342706
6.333677 -5.844337 0.372557 8342706
6.189796 -5.856821 3.960657 8342706
5.785732 -6.432152 3.269306 8342706
6.400564 -6.209392 -0.000903 8342706
6.343084 -5.752923 1.374327 8342706
6.283940 -6.013878 4.222948 8342706
6.342522 -6.078772 2.046412 8342706
5.784546 -5.577791 4.393141 8342706
5.845294 -6.025226 0.856255 8342706
6.046422 -5.750784 4.194322 8342706
5.499804 -5.709901 3.969307 8342706
6.448848 -6.122123 1.761281 8342706
6.280221 -6.460498 1.706327 8342706
6.289738 -6.201703 4.625618 8342706
5.534570 -6.338508 1.231260 8342706
6.009788 -6.238230 3.477645 8342706
6.230541 -5.574151 3.785496 8342706
6.017032 -6.576387 3.656091 8342706
5.926401 -6.019101 1.744766 8342706
5.806580 -5.646777 2.739868 8342706
6.173683 -6.331596 0.924026 8342706
6.167066 -5.993974 3.884506 8342706
6.112325 -6.293562 1.962693 8342706
5.739709 -6.150015 1.032014 8342706
6.587444 -6.018637 1.767193 8342706
5.726182 -6.108279 4.304967 8342706
6.469144 -5.747775 1.025950 8342706
5.562066 -5.888811 0.773189 8342706
6.314660 -6.002472 4.994906 8342706
6.168350 -6.545733 4.118028 8342706
6.086264 -6.417555 4.718743 8342706
6.001728 -5.819795 1.396040 8342706
6.509508 -6.154321 5.009575 8342706
6.147371 -6.080728 1.674466 8342706
5.807245 -5.989421 2.089179 8342706
5.744875 -5.969321 3.034639 8342706
6.510500 -6.229109 4.097107 8342706
5.480660 -5.874733 3.599099 8342706
6.184511 -6.087446 0.996119 8342706
5.874253 -6.268214 1.889205 8342706
5.946364 -5.633109 2.385213 8342706
6.322320 -6.271529 0.087883 8342706
5.815250 -5.547800 4.537587 8342706
5.987084 -5.482477 4.068689 8342706
5.776935 -5.450686 3.559585 8342706
6.393702 -6.338949 1.534616 8342706
5.490471 -6.035038 4.722877 8342706
6.055378 -6.544539 0.118793 8342706
6.515303 -5.974484 1.488649 8342706
6.364540 -5.561815 3.369306 8342706
5.771856 -5.889572 0.819795 8342706
6.000097 -5.993854 0.880240 8342706
5.634149 -5.926891 2.229275 8342706
5.726358 -5.618327 2.286981 8342706
5.780892 -6.103623 3.532076 8342706
6.336795 -5.496640 1.138362 8342706
5.652646 -5.788847 4.825309 8342706
5.884326 -5.800134 0.079130 8342706
5.638159 -6.470868 2.446265 8342706
5.877822 -6.467419 3.622770 8342706
6.032297 -6.593358 0.587698 8342706
6.049542 -5.694235 1.729638 8342706
6.117362 -5.924140 1.782877 8342706
6.154505 -5.771616 4.158230 8342706
5.499030 -6.266806 4.945899 8342706
6.562862 -5.856986 2.137708 8342706
6.216210 -6.431285 3.900872 8342706
6.210419 -5.716941 2.536993 8342706
6.226761 -6.367398 2.382920 8342706
6.087264 -5.641047 4.519997 8342706
5.653614 -6.299328 3.484468 8342706
5.989709 -6.423635 2.719116 8342706
6.582138 -6.079501 0.471254 8342706
5.697231 -5.648787 4.812029 8342706
6.290517 -5.799276 0.294255 8342706
5.965458 -5.734941 4.694030 8342706
6.081629 -5.544464 2.421296 8342706
