# .PCD v0.7 - Point Cloud Data file format
VERSION 0.7
FIELDS x y z rgb
SIZE 4 4 4 4
TYPE F F F U
COUNT 1 1 1 1
WIDTH 1302
HEIGHT 1
VIEWPOINT 0 0 0 1 0 0 0
POINTS 1302
DATA ascii
-2.885297 -17.781496 0.490086 1645029
-2.867305 -17.505823 1.197968 1645029
-3.375845 -17.986727 1.066753 1645029
-3.160655 -17.770599 1.023136 1645029
-3.064143 -17.668993 1.184616 1645029
-3.141158 -17.704645 1.489237 1645029
-3.110498 -17.655340 0.612929 1645029
-3.242973 -17.527391 1.280285 1645029
-3.002970 -17.719419 0.963024 1645029
-3.040775 -18.152390 0.620645 1645029
-2.530608 -17.883495 1.068482 1645029
-2.732573 -18.153923 1.279582 1645029
-3.246413 -17.871006 0.632215 1645029
-2.581788 -18.028042 1.233946 1645029
-3.197891 -17.866186 0.851159 1645029
-3.383725 -17.587603 1.140322 1645029
-3.480315 -18.116280 0.949001 1645029
-2.868593 -17.476168 1.155599 1645029
-2.775652 -17.665873 1.281719 1645029
-3.046454 -17.961966 0.910814 1645029
-2.818265 -18.047346 1.158406 1645029
-3.223448 -18.073524 1.315249 1645029
-2.883667 -17.574986 1.268799 1645029
-3.031552 -18.201689 0.683449 1645029
-2.942037 -18.298538 0.761700 1645029
-3.180202 -17.614094 1.127951 1645029
-2.950964 -18.126680 0.854428 1645029
-3.104391 -17.830832 0.926725 1645029
-2.689454 -17.836212 1.020022 1645029
-2.775705 -17.965641 1.113585 1645029
-3.227007 -18.038406 0.848895 1645029
-3.379097 -17.840614 0.645226 1645029
-3.240595 -17.818140 1.344293 1645029
-3.211195 -17.846699 0.914679 1645029
-2.651282 -18.135923 0.948024 1645029
-3.067488 -17.835127 1.065512 1645029
-2.982308 -17.450935 1.067571 1645029
-3.520016 -18.158346 1.065707 1645029
-3.001621 -17.818085 1.153912 1645029
-3.257165 -18.181137 1.080708 1645029
-3.202040 -18.028662 0.525059 1645029
-3.412393 -17.884356 0.876179 1645029
-2.790249 -18.010395 1.138137 1645029
-3.016110 -17.924427 1.202610 1645029
-3.186336 -17.718781 0.685282 1645029
-2.920843 -17.755224 0.681124 1645029
-2.903858 -17.476746 0.997732 1645029
-2.954340 -17.856215 0.868416 1645029
-3.130397 -17.876225 0.670646 1645029
-2.740945 -18.163130 0.798849 1645029
-3.149925 -18.308384 0.935682 1645029
-2.667138 -17.944839 0.974645 1645029
-3.095903 -18.036312 0.839684 1645029
-3.210167 -18.174574 1.354053 1645029
-3.122211 -17.736729 0.527276 1645029
-2.598615 -17.880228 1.270630 1645029
-3.338667 -17.561779 0.717966 1645029
-3.342412 -17.655254 0.674037 1645029
-2.929553 -18.308907 0.921347 1645029
-3.320590 -18.033333 0.875350 1645029
-3.020153 -18.295763 0.942276 1645029
-2.893687 -17.961336 0.967864 1645029
-3.326443 -18.006966 1.018569 1645029
-3.130372 -17.609289 0.903542 1645029
-3.150975 -17.373508 0.947879 1645029
-3.250965 -17.950642 1.410843 1645029
-3.166707 -18.010294 1.152467 1645029
-2.924750 -17.713184 1.254254 1645029
-2.701176 -17.774637 1.129753 1645029
-2.597533 -17.776728 1.010506 1645029
-3.344264 -18.236116 1.227469 1645029
-2.784633 -17.554214 1.048155 1645029
-2.646470 -17.884680 1.021252 1645029
-3.286846 -17.664677 0.583420 1645029
-3.137687 -17.564711 1.240579 1645029
-2.990260 -17.454414 1.055244 1645029
-2.848484 -17.694712 0.853625 1645029
-3.025246 -17.701931 0.522112 1645029
-2.720757 -17.859505 1.015332 1645029
-2.695451 -17.617943 1.211065 1645029
17.358429 -5.617422 0.601246 1690649
17.092093 -6.044979 0.759340 1690649
17.300100 -5.986372 0.717223 1690649
16.748217 -6.056511 1.311545 1690649
17.408211 -5.885246 0.481514 1690649
17.106094 -5.812394 0.568021 1690649
17.351772 -5.904895 0.997091 1690649
17.068932 -5.981476 1.082089 1690649
17.572943 -5.987614 1.301996 1690649
16.922760 -5.926977 0.944562 1690649
17.543507 -5.814148 0.522040 1690649
17.225056 -6.059319 1.768300 1690649
17.138346 -6.284515 0.187311 1690649
16.857019 -5.712591 1.077413 1690649
17.250120 -5.601130 1.041432 1690649
17.384504 -6.244335 1.154121 1690649
17.563486 -6.039502 1.015575 1690649
17.013926 -6.070196 0.573095 1690649
17.329008 -5.805976 1.411356 1690649
17.287069 -5.962829 1.142956 1690649
17.242731 -5.532087 1.717667 1690649
17.278536 -6.302558 1.143927 1690649
16.756475 -6.084947 0.870930 1690649
16.752558 -6.080130 0.871084 1690649
16.871193 -5.548228 1.546094 1690649
17.312449 -6.025429 1.857366 1690649
16.842224 -6.020917 1.421923 1690649
17.323013 -5.610503 1.841995 1690649
17.142595 -6.227294 0.652292 1690649
17.395372 -5.660097 1.237601 1690649
16.978807 -5.587682 1.428585 1690649
17.005518 -5.784101 1.598112 1690649
17.514198 -6.102422 0.981499 1690649
16.977013 -5.807213 0.768800 1690649
17.176424 -6.034446 1.061746 1690649
17.450985 -5.551759 1.123578 1690649
16.754074 -5.878023 0.528957 1690649
17.245491 -5.701355 0.607452 1690649
16.874516 -6.039792 1.275181 1690649
17.202074 -5.629513 1.868422 1690649
17.324297 -5.785474 1.075736 1690649
17.019186 -6.221112 0.376122 1690649
17.288124 -5.759983 1.886499 1690649
17.143110 -6.210660 1.012474 1690649
16.877035 -5.595973 1.899106 1690649
17.379747 -6.069241 1.140935 1690649
17.185059 -6.215813 1.437887 1690649
17.131729 -5.738315 0.981411 1690649
16.993502 -5.518239 1.047732 1690649
17.131668 -5.566786 1.379937 1690649
16.974043 -5.751579 1.224857 1690649
17.328928 -5.484486 0.413269 1690649
17.536556 -5.781756 1.520447 1690649
16.950962 -5.708067 1.011228 1690649
16.755352 -6.084826 1.835164 1690649
17.089279 -6.271158 1.710416 1690649
16.983667 -6.003224 0.814889 1690649
16.995903 -5.743571 0.585547 1690649
17.499830 -6.157715 0.926413 1690649
17.128103 -5.927130 1.458078 1690649
16.798922 -5.927658 0.929243 1690649
17.289139 -5.886786 0.143690 1690649
16.938751 -5.748027 0.200046 1690649
17.185297 -6.299604 0.200985 1690649
17.137918 -5.636614 0.985711 1690649
17.267784 -6.124670 1.725942 1690649
16.987629 -6.191500 1.677710 1690649
17.208982 -6.336107 1.785654 1690649
16.968086 -5.746848 0.219073 1690649
16.838827 -6.042449 0.338484 1690649
16.965273 -5.779863 1.330232 1690649
17.279852 -6.030491 0.657133 1690649
16.974712 -6.144895 1.625050 1690649
17.519638 -5.969956 1.168796 1690649
17.307888 -5.903931 0.112593 1690649
17.114349 -5.554783 1.224405 1690649
17.186676 -5.768298 0.225812 1690649
17.132843 -6.256308 1.111831 1690649
17.450392 -5.936590 0.724106 1690649
17.318991 -5.620183 1.175429 1690649
17.075203 -5.501151 0.233795 1690649
17.153151 -6.116250 0.482338 1690649
17.226362 -5.726556 0.920039 1690649
16.995726 -5.865123 1.771001 1690649
16.807772 -5.793766 0.688492 1690649
17.245453 -6.261032 0.196966 1690649
17.111382 -6.291897 1.475170 1690649
16.957964 -6.199505 0.146095 1690649
17.371641 -5.721278 1.503947 1690649
17.443413 -6.100043 1.254967 1690649
17.183767 -5.614822 1.691928 1690649
17.113924 -5.562139 1.120288 1690649
17.349815 -5.606762 0.769105 1690649
16.949137 -5.995431 0.163600 1690649
16.944586 -5.587306 1.285214 1690649
17.425915 -6.180866 0.588721 1690649
16.957548 -5.762005 1.664366 1690649
17.076288 -5.864000 1.896434 1690649
17.429535 -5.747824 0.500731 1690649
17.017832 -6.110705 1.630995 1690649
16.814207 -6.106812 0.976038 1690649
17.015463 -5.619510 1.748045 1690649
16.987928 -6.173843 1.459728 1690649
16.836523 -5.676573 0.640833 1690649
16.938465 -5.690158 0.159901 1690649
16.846617 -6.222995 1.137120 1690649
16.922869 -5.677970 0.624086 1690649
16.957146 -5.681581 1.067086 1690649
16.826397 -6.104817 0.778531 1690649
16.945366 -6.027557 1.281623 1690649
17.501801 -6.181334 0.133947 1690649
17.168793 -5.495887 1.879384 1690649
17.559801 -5.842047 0.971734 1690649
17.371138 -6.296548 1.824730 1690649
17.536018 -5.811989 1.454433 1690649
17.290277 -6.189212 1.063074 1690649
17.404032 -5.728186 1.371804 1690649
17.190153 -6.259368 1.136837 1690649
17.080248 -5.564262 0.771635 1690649
17.232121 -6.293527 0.140248 1690649
16.765919 -5.939612 0.968953 1690649
16.858551 -5.663135 0.301127 1690649
17.441977 -5.761250 1.314393 1690649
17.385839 -6.189068 0.100264 1690649
16.919672 -5.918752 1.062376 1690649
17.193064 -6.129348 0.261914 1690649
16.793646 -5.937357 0.942091 1690649
17.153915 -6.214472 0.465661 1690649
17.538986 -5.733939 0.676057 1690649
16.855778 -5.800592 1.843775 1690649
17.067390 -5.777089 0.232940 1690649
17.282534 -5.947289 0.471819 1690649
17.479467 -6.212315 0.887962 1690649
16.741320 -5.754773 1.412550 1690649
16.899212 -5.815512 1.524235 1690649
16.956507 -5.892050 0.323214 1690649
17.343332 -6.200731 1.465107 1690649
17.075773 -5.959935 0.521399 1690649
17.349224 -6.042429 1.348559 1690649
17.298794 -5.685481 0.198824 1690649
16.769716 -5.967322 0.645700 1690649
17.567898 -6.026116 0.773570 1690649
17.460897 -5.778587 1.268377 1690649
17.039421 -5.819476 0.907140 1690649
16.848356 -5.927107 0.642341 1690649
17.570189 -5.736636 1.215552 1690649
17.215771 -6.022834 1.301500 1690649
16.982870 -5.801272 1.683437 1690649
17.185390 -5.511189 1.202406 1690649
17.565578 -5.885540 1.272000 1690649
17.376558 -6.114490 0.506838 1690649
16.934515 -5.913516 1.014940 1690649
17.244955 -5.893260 1.235108 1690649
17.314863 -6.016027 0.677093 1690649
-4.370502 7.181912 0.476493 10053171
-5.960201 7.085811 0.425725 10053171
-4.441930 6.976713 2.359555 10053171
-5.167258 7.150879 2.877974 10053171
-3.838113 6.988485 0.272159 10053171
-6.681825 6.752717 2.484922 10053171
-4.092829 7.175828 2.556789 10053171
-3.178073 6.953024 1.350331 10053171
-4.377298 6.977021 0.508810 10053171
-3.509918 7.213607 2.568281 10053171
-3.678620 7.192175 2.508785 10053171
-3.272002 6.966645 0.843512 10053171
-4.004486 7.069149 0.163275 10053171
-4.971597 6.815931 1.162165 10053171
-6.807986 6.971522 0.180350 10053171
-4.622169 7.122716 2.198408 10053171
-6.433423 6.981916 1.232509 10053171
-4.666638 6.953939 0.454011 10053171
-6.884192 6.779459 2.816289 10053171
-6.318681 7.232054 2.871553 10053171
-6.074860 7.061781 0.754509 10053171
-6.148881 6.790801 2.805467 10053171
-3.761237 6.839372 2.226895 10053171
-4.811104 7.063279 2.525770 10053171
-6.592316 7.002138 2.653938 10053171
-6.046923 7.153629 1.126177 10053171
-3.398629 7.178686 1.454089 10053171
-4.624139 6.964432 1.353034 10053171
-6.009984 7.218599 2.388518 10053171
-6.681299 7.026828 2.954902 10053171
-6.858922 7.078871 1.119709 10053171
-5.995569 6.769339 0.161329 10053171
-6.132647 7.020636 1.953710 10053171
-3.842710 6.960170 0.569121 10053171
-4.733015 7.153018 0.098627 10053171
-5.878123 7.159006 2.092301 10053171
-4.848907 6.929356 1.388064 10053171
-5.505784 7.244572 2.744483 10053171
-5.054881 6.767004 1.295359 10053171
-6.158075 6.980981 2.542145 10053171
-4.495890 6.925788 2.122972 10053171
-4.116378 7.111960 1.123424 10053171
-3.869935 6.766989 0.877919 10053171
-4.719151 6.941576 2.260795 10053171
-5.541185 6.959513 0.614842 10053171
-3.797274 7.053543 1.177033 10053171
-3.499765 7.072361 2.127579 10053171
-4.292981 7.192528 0.682308 10053171
-4.127109 7.253220 2.537825 10053171
-5.301429 6.974558 1.606468 10053171
-6.761196 7.070506 2.618249 10053171
-5.690135 6.969776 1.201335 10053171
-5.768557 6.856751 2.785978 10053171
-3.542153 6.853662 2.669752 10053171
-3.071309 6.881374 0.632897 10053171
-5.039712 7.033453 2.172005 10053171
-3.526399 7.053084 0.807320 10053171
-5.430500 7.046839 1.635672 10053171
-3.355528 7.080623 2.166191 10053171
-6.447796 7.181901 0.031915 10053171
-6.372699 6.742402 2.595904 10053171
-4.420017 6.958062 2.947420 10053171
-6.323686 6.946917 0.872401 10053171
-3.753228 7.169247 1.053899 10053171
-3.525394 7.070522 2.693485 10053171
-4.192444 6.924831 2.151335 10053171
-6.338047 6.797598 1.067273 10053171
-3.765255 6.996521 1.941492 10053171
-3.895617 7.072667 1.227891 10053171
-5.459079 7.185646 0.691295 10053171
-5.925359 6.945177 2.500396 10053171
-3.276513 6.901662 1.502315 10053171
-6.807592 6.745832 2.273207 10053171
-3.708241 6.981155 1.001568 10053171
-6.503994 7.206549 1.577636 10053171
-5.307783 6.958042 0.867473 10053171
-6.500402 6.878888 0.442138 10053171
-4.543185 7.094602 2.284041 10053171
-6.740290 7.183392 1.132343 10053171
-4.053960 6.881433 0.239233 10053171
-5.777923 7.212546 0.714354 10053171
-6.965968 7.079344 2.888791 10053171
-3.139911 7.068199 2.163476 10053171
-4.131636 7.084363 0.035866 10053171
-4.453998 7.182485 1.341534 10053171
-6.611794 7.221090 0.417917 10053171
-5.838172 6.851928 0.185408 10053171
-3.262609 6.880166 0.146607 10053171
-6.532946 6.905574 1.311220 10053171
-5.952914 6.843037 0.002158 10053171
-5.439436 7.057916 1.774428 10053171
-6.374387 7.011275 2.987411 10053171
-6.093688 6.830957 2.949754 10053171
-4.234196 7.188214 1.407088 10053171
-4.296346 7.095931 2.204071 10053171
-3.915993 7.194172 2.398520 10053171
-5.655128 7.224737 0.391507 10053171
-5.348298 6.894584 0.461819 10053171
-3.347389 6.975398 0.984070 10053171
-6.872457 6.945981 0.237105 10053171
-4.499372 6.793517 1.769758 10053171
-6.237583 7.219893 1.533458 10053171
-3.848186 7.176981 0.863893 10053171
-3.783886 6.964314 2.103829 10053171
-4.824479 7.121779 1.235510 10053171
-5.637612 7.251489 1.578228 10053171
-4.232620 6.959524 0.415969 10053171
-5.527871 7.207764 0.306194 10053171
-3.269686 7.080486 0.132704 10053171
-5.108546 6.783680 1.795727 10053171
-5.620043 7.053631 2.639531 10053171
-5.447931 6.884953 2.384953 10053171
-4.456032 6.922309 0.679099 10053171
-4.786866 6.942595 2.311185 10053171
-6.494173 6.934836 1.165205 10053171
-5.721503 6.785388 1.379548 10053171
-4.564341 6.911495 1.763504 10053171
-4.062167 7.074918 2.545143 10053171
-3.343642 7.025043 0.190603 10053171
-4.632256 6.747899 1.400523 10053171
-3.786396 7.203876 0.835226 10053171
-5.171559 6.871445 0.234348 10053171
-6.452085 6.746386 0.315085 10053171
-5.591348 6.999687 0.803014 10053171
-3.139193 7.192970 1.569572 10053171
-5.371525 7.087355 2.724627 10053171
-5.337576 6.932187 2.710778 10053171
-4.401452 6.917480 0.785177 10053171
-6.970874 7.111080 2.668380 10053171
-4.292814 7.057760 2.888718 10053171
-4.869389 6.967672 0.245053 10053171
-6.481349 6.904887 2.238242 10053171
-5.348783 6.906124 1.728193 10053171
-5.260692 7.040503 1.630759 10053171
-4.649144 6.834580 0.814116 10053171
-3.269603 6.837646 0.414087 10053171
-4.002841 6.962916 1.222361 10053171
-3.765245 7.232062 0.798024 10053171
-5.122403 7.060377 2.769055 10053171
-4.759606 7.169027 1.103090 10053171
-5.647572 6.797672 2.549291 10053171
-5.409433 7.158155 2.293371 10053171
-6.079198 7.007941 2.952107 10053171
-3.715983 6.942668 1.079132 10053171
-4.244554 7.082752 2.730276 10053171
-5.920372 7.054981 0.651816 10053171
-4.969080 6.806368 2.310593 10053171
-3.920701 6.826649 1.382971 10053171
-6.012082 7.205620 1.731314 10053171
-3.625124 7.206750 0.408450 10053171
-5.869977 6.940797 2.274183 10053171
-6.570760 6.830798 1.769022 10053171
-4.786705 6.812052 2.804400 10053171
-6.490005 7.158120 1.228498 10053171
-3.592440 7.004465 1.087472 10053171
-6.250268 6.834870 1.547386 10053171
-3.027187 6.860821 1.555369 10053171
-6.393169 7.242621 0.932341 10053171
-4.783501 7.000677 1.221385 10053171
-6.416995 7.094725 0.930942 10053171
-6.878080 6.880810 2.259287 10053171
-3.718921 7.214705 1.820075 10053171
-4.231837 7.215863 0.805041 10053171
-6.314555 6.807815 2.958120 10053171
-3.035167 6.776319 2.276465 10053171
-6.402328 6.914147 1.490904 10053171
-6.309083 6.980097 1.011090 10053171
-5.139104 6.796492 1.218053 10053171
-3.956469 7.167755 0.940831 10053171
-6.408451 7.067811 0.874102 10053171
-6.221087 6.753211 2.087752 10053171
-3.519546 7.046486 0.963103 10053171
-5.322423 6.947598 2.319150 10053171
-4.498702 6.753248 0.622096 10053171
-5.571423 7.201794 0.161010 10053171
-3.613691 6.925654 1.820665 10053171
-6.990689 7.177465 2.103112 10053171
-6.187820 7.160281 1.926895 10053171
-4.697283 6.899136 0.457078 10053171
-5.535948 6.945931 1.736281 10053171
-6.761937 6.763840 1.270933 10053171
-5.563821 6.821464 1.482128 10053171
-6.398548 6.880883 2.026108 10053171
-5.974582 6.790084 1.062645 10053171
-5.785198 6.778801 2.074435 10053171
-5.550581 6.804681 1.564895 10053171
-3.366725 7.070119 2.637061 10053171
-5.058516 7.042611 0.351513 10053171
-4.184284 7.189112 0.549528 10053171
-5.045616 7.119801 0.846628 10053171
-6.379580 6.907545 2.849703 10053171
-6.867874 6.818836 2.535076 10053171
-6.702918 6.760813 0.438720 10053171
-3.241047 7.104446 1.596353 10053171
-6.018202 6.738756 2.597809 10053171
-4.075168 6.930086 1.569450 10053171
-6.719792 7.228075 0.599741 10053171
-6.903371 6.962876 2.975804 10053171
-4.477116 6.936498 1.914407 10053171
-4.899536 7.071931 2.562212 10053171
-3.970634 7.111237 0.794139 10053171
-4.124711 7.231596 0.498506 10053171
-3.910725 6.780231 1.161162 10053171
-3.475038 7.211523 2.458552 10053171
-3.371780 7.192188 0.199924 10053171
-3.135871 6.773839 0.445330 10053171
-4.788995 7.208159 1.092932 10053171
-6.935860 7.088489 0.575721 10053171
-6.265962 6.773876 1.878656 10053171
-6.635367 6.939810 0.607618 10053171
-6.345379 7.145925 1.711791 10053171
-6.410440 6.838112 1.120612 10053171
-4.971705 6.825361 0.312325 10053171
-5.287189 7.043891 1.128881 10053171
-5.979215 7.083572 1.241525 10053171
-3.185383 7.016472 2.075771 10053171
-4.538858 6.919654 0.173448 10053171
-6.039372 6.856988 0.184053 10053171
-3.648188 7.155389 0.334695 10053171
-3.331002 7.189345 2.601385 10053171
-4.001964 6.899302 2.648391 10053171
-4.125204 6.849151 2.988449 10053171
-5.528165 7.083958 1.932693 10053171
-4.319197 7.167610 0.739764 10053171
-4.251391 6.938819 0.577882 10053171
-3.612124 7.150835 0.595382 10053171
-3.738417 6.940403 0.931184 10053171
-4.658319 7.021807 0.617515 10053171
-4.186533 6.941981 0.202992 10053171
-6.539644 6.781615 2.383517 10053171
-4.720422 7.164505 0.518546 10053171
-5.154795 6.987445 1.448587 10053171
-6.452325 7.229997 1.320865 10053171
-6.965859 7.020140 2.094572 10053171
-6.604626 7.240238 1.469804 10053171
-5.021139 7.119815 2.894426 10053171
-4.711904 6.851946 0.718328 10053171
-4.297157 6.905826 1.305122 10053171
-5.440589 6.817735 2.065229 10053171
-4.006349 6.760623 2.818691 10053171
-5.961477 7.010819 1.386860 10053171
-6.756886 6.744732 0.265883 10053171
-3.277912 7.167112 2.693050 10053171
-5.112461 7.084533 1.719816 10053171
-5.845405 7.194066 0.509582 10053171
-6.246899 6.891869 1.059795 10053171
-6.962364 7.072378 1.628333 10053171
-5.751051 7.208910 2.564512 10053171
-6.235700 6.945839 2.020890 10053171
-3.787654 6.957987 1.361632 10053171
-5.714614 7.151225 0.848771 10053171
-3.116840 6.801615 0.981842 10053171
-3.919053 6.841590 1.104162 10053171
-5.344090 7.195823 1.636302 10053171
-3.504053 6.756178 0.874945 10053171
-4.688546 7.226055 1.578069 10053171
-3.649958 6.994797 2.202029 10053171
-4.567566 7.132463 2.706439 10053171
-4.894626 7.088487 2.073243 10053171
-6.909504 6.800738 2.390920 10053171
-3.418454 7.121404 0.857944 10053171
-5.516292 7.063990 2.908767 10053171
-4.817142 6.930012 0.673074 10053171
-4.602860 6.997621 2.180873 10053171
-6.913069 7.040548 2.201176 10053171
-3.657634 6.861862 1.218330 10053171
-4.326934 6.920393 0.824928 10053171
-6.430856 6.773980 2.071711 10053171
-6.040231 6.801850 2.078256 10053171
-4.830757 6.757810 0.961280 10053171
-3.727766 6.862508 0.005300 10053171
-4.859143 7.106232 2.487043 10053171
-3.752531 7.011593 2.479546 10053171
-5.168373 7.072152 1.509940 10053171
-6.249501 6.839125 1.598564 10053171
-6.690980 7.179288 2.915456 10053171
-3.958917 6.921167 0.955567 10053171
-6.242034 7.044555 0.927685 10053171
-4.890447 7.155107 1.512392 10053171
-3.269188 7.202994 0.905380 10053171
-6.361576 7.063614 1.855868 10053171
-5.682076 6.800653 1.330615 10053171
-3.554704 6.902385 0.419665 10053171
-5.648953 6.803097 2.112018 10053171
-4.299457 7.259581 0.452964 10053171
-3.208455 7.005391 1.424377 10053171
-3.115433 6.949288 1.806914 10053171
-4.088241 6.755788 0.907183 10053171
-4.276495 7.212862 1.319644 10053171
-3.087299 6.861497 0.294138 10053171
-4.010774 7.141057 1.432295 10053171
-5.435490 6.904578 1.069378 10053171
-3.988065 6.949021 0.366817 10053171
-3.781272 6.932619 0.158837 10053171
-5.733638 7.233726 1.849649 10053171
-5.702796 7.196661 1.782001 10053171
-6.023430 6.737249 2.390248 10053171
-3.608670 6.976639 0.808847 10053171
-5.214111 7.123372 1.195649 10053171
-5.138324 6.831263 2.482435 10053171
-4.296130 7.179647 0.626365 10053171
-6.948312 7.214543 0.045183 10053171
-4.025081 6.801197 1.111362 10053171
-4.050797 6.779052 1.842609 10053171
-5.398994 6.878933 2.731214 10053171
-3.283113 7.017263 1.529717 10053171
-3.313375 7.201983 -0.005141 10053171
-3.237855 6.823438 1.509889 10053171
-4.641991 6.931840 1.562405 10053171
-4.960519 6.857889 0.143575 10053171
-6.796567 6.841163 1.570969 10053171
-5.547910 6.944718 0.147353 10053171
-6.916146 6.912097 1.411843 10053171
-4.202343 6.760273 1.308361 10053171
-6.370702 6.918114 0.227405 10053171
-3.351223 6.760512 2.820472 10053171
-4.115008 6.793371 1.412720 10053171
-4.733060 6.840627 1.919800 10053171
-6.164052 6.777020 0.133143 10053171
-5.202495 7.133535 1.820352 10053171
-6.242745 7.107222 2.251375 10053171
-5.149252 7.079050 1.377288 10053171
-6.462436 6.942029 1.308984 10053171
-5.475698 7.084544 0.274763 10053171
-4.947988 7.165136 1.788090 10053171
-3.861797 6.971902 1.623484 10053171
-5.422227 7.062615 2.720940 10053171
-5.714037 7.053515 2.975080 10053171
-6.833888 7.151029 0.757781 10053171
-4.911678 7.154990 1.132850 10053171
-6.988164 6.955691 0.275219 10053171
-6.737262 6.975176 1.067735 10053171
-4.293422 6.786796 1.926303 10053171
-3.979537 7.163466 0.085339 10053171
-3.094413 7.064598 1.332218 10053171
-3.861635 7.030420 0.424132 10053171
-3.115062 6.769383 1.711219 10053171
-3.445708 6.856878 0.323472 10053171
-6.634469 7.084596 1.204518 10053171
-4.089494 7.117998 0.742169 10053171
-3.802292 7.002499 2.069578 10053171
-3.776549 7.027184 1.232884 10053171
-4.625296 7.129015 2.687978 10053171
-4.594360 7.229180 2.343439 10053171
-6.246914 7.152370 0.859158 10053171
-3.122579 6.908395 0.011174 10053171
-4.389304 6.756870 0.508516 10053171
-5.164245 7.020024 2.848330 10053171
-5.344704 7.012494 2.493512 10053171
-3.672971 7.246007 1.067264 10053171
-4.848091 6.788472 0.088046 10053171
-4.756248 7.129465 0.915983 10053171
-4.080823 6.868493 1.497166 10053171
-3.557946 6.962287 0.970537 10053171
-6.968140 7.122250 0.907124 10053171
-3.907975 6.938424 1.354210 10053171
-3.577522 6.945292 2.725796 10053171
-5.502543 6.829814 2.600226 10053171
-5.419014 6.783543 2.406429 10053171
-3.019377 6.815958 2.922103 10053171
-6.147420 6.855741 2.036782 10053171
-4.428729 7.142563 0.761393 10053171
-4.522336 7.004295 0.704138 10053171
-3.177762 7.227844 2.735608 10053171
-5.877444 7.187611 2.528535 10053171
-4.231421 6.914849 2.118783 10053171
-3.189354 6.951552 0.533216 10053171
-5.001638 6.843296 1.847161 10053171
-3.736662 6.970695 0.109511 10053171
-4.314220 7.211318 0.527105 10053171
-6.205942 6.876350 1.559650 10053171
-3.867975 7.198943 0.580928 10053171
-5.414183 6.779317 1.456789 10053171
-3.226588 6.819274 2.174455 10053171
-3.442737 6.963541 0.303691 10053171
-3.947604 7.245481 2.070804 10053171
-6.177910 7.201005 0.264782 10053171
-6.564713 6.878102 0.542500 10053171
-4.629112 6.889568 1.227358 10053171
-5.137939 6.788742 -0.001076 10053171
-5.456616 6.781630 0.514152 10053171
-3.776265 6.799491 0.428816 10053171
-5.341909 7.206481 0.680782 10053171
-3.190270 7.194690 1.386482 10053171
-4.942513 6.754892 2.549130 10053171
-6.742450 7.141445 1.629647 10053171
-4.801294 6.769934 1.146403 10053171
-4.083480 7.035234 1.627951 10053171
-4.073912 7.038411 1.615116 10053171
-3.499761 6.915612 2.927259 10053171
-4.082846 7.132727 2.903179 10053171
-6.601518 6.934980 1.758384 10053171
-5.183449 7.057789 1.681850 10053171
-5.131886 7.196117 2.144155 10053171
-4.502485 6.847209 0.039378 10053171
-5.338433 6.754439 2.601719 10053171
-5.164149 6.774735 1.365236 10053171
-4.061989 6.899038 0.708342 10053171
-4.374938 7.055438 1.038060 10053171
-5.218360 7.134321 0.706569 10053171
-3.751114 6.769454 1.914041 10053171
-3.632855 7.243941 2.736182 10053171
-3.377848 7.135753 0.994953 10053171
-4.063163 7.212358 2.640617 10053171
-3.111374 7.159582 2.865476 10053171
-3.569555 7.052708 1.642739 10053171
-5.327514 7.122030 0.096405 10053171
-3.934850 6.905966 2.296331 10053171
-6.418100 7.036996 2.560178 10053171
-3.100597 7.106810 2.795103 10053171
-4.865172 7.168907 0.116887 10053171
-5.908967 6.890142 0.122761 10053171
-4.276298 7.039474 0.561549 10053171
-4.636537 7.118811 0.023724 10053171
-6.627812 7.222841 1.383722 10053171
-6.053651 6.930209 0.104821 10053171
-5.852275 6.765262 2.901590 10053171
-4.472875 7.043048 2.818258 10053171
-5.613321 7.215582 2.549733 10053171
-3.123203 6.944557 0.613038 10053171
-5.758837 6.942480 0.615924 10053171
-4.069545 7.106239 1.552191 10053171
-4.678587 6.782251 1.671247 10053171
-4.986279 7.131451 1.224050 10053171
-4.448181 6.966785 0.518654 10053171
-5.292892 7.246614 0.322168 10053171
-3.874109 6.946952 0.835500 10053171
-4.251774 6.954211 2.664468 10053171
-5.241994 7.098359 1.726802 10053171
-3.030697 6.978799 0.257904 10053171
-5.451002 6.857711 1.050100 10053171
-6.591079 7.088737 2.708343 10053171
-5.112552 6.815793 1.645757 10053171
-3.043269 6.917923 0.766708 10053171
-6.569936 6.993459 1.169743 10053171
-3.074644 7.006533 0.204438 10053171
-6.258820 7.235938 1.911307 10053171
-3.682603 6.940773 1.359145 10053171
-4.166992 7.107842 0.213677 10053171
-3.854205 7.153132 1.799818 10053171
-4.178231 7.001222 1.328375 10053171
-3.097302 6.814339 0.711699 10053171
-5.610975 7.219721 0.120569 10053171
-5.657312 7.009008 2.803880 10053171
-4.802351 6.944641 1.810484 10053171
-5.942977 7.173120 2.026389 10053171
-3.324980 7.084421 0.981740 10053171
-6.467217 6.821809 0.708101 10053171
-6.588580 7.066579 1.908252 10053171
-3.734645 6.875484 0.043002 10053171
-4.629538 7.139336 2.033141 10053171
-5.590752 6.757514 2.659242 10053171
-3.963106 7.075054 0.424497 10053171
-3.923978 6.772672 1.664601 10053171
-5.393343 7.024265 0.782968 10053171
-4.825050 6.833779 1.751728 10053171
-5.780614 6.949333 1.077517 10053171
-6.615828 6.871332 0.180439 10053171
-4.520929 6.958592 1.716457 10053171
-3.717925 7.136929 2.786965 10053171
-5.705174 6.830307 0.079037 10053171
-5.650776 7.048357 0.403180 10053171
-4.247184 6.854116 0.868292 10053171
-5.881133 6.865323 2.053777 10053171
-4.901833 6.827063 2.911407 10053171
-3.175310 6.983751 2.017836 10053171
-3.638762 6.910245 1.091670 10053171
-4.782384 7.156193 2.859048 10053171
-4.518205 7.150074 1.477037 10053171
-3.442737 7.091363 1.053009 10053171
-3.163467 7.161773 0.512425 10053171
-5.425685 7.095007 0.824163 10053171
-6.662632 6.965996 2.613262 10053171
-3.303726 6.905813 2.380375 10053171
-5.839716 7.144608 2.062450 10053171
-4.667268 6.918365 1.474967 10053171
-4.302526 6.831935 2.100183 10053171
-3.006928 6.749287 2.451849 10053171
-3.034998 6.993420 1.079257 10053171
-4.373962 7.204883 0.297943 10053171
-5.485261 7.236883 2.281117 10053171
-5.589864 7.140539 1.110318 10053171
-3.887907 6.892819 1.866806 10053171
-4.682837 7.095696 2.936974 10053171
-4.736255 7.162303 2.685341 10053171
-6.286149 7.045165 1.590600 10053171
-3.125232 7.209089 0.326254 10053171
-4.501092 6.869973 2.791348 10053171
-3.060370 6.929410 1.116760 10053171
-4.461018 7.248636 2.832866 10053171
-5.025786 6.923127 2.701631 10053171
-3.209645 6.976693 0.516212 10053171
-5.977330 6.808775 0.788650 10053171
-4.689240 7.124111 0.310762 10053171
-3.022362 7.065021 0.552121 10053171
-5.441462 6.898508 1.082408 10053171
-3.921890 6.793119 0.624380 10053171
-6.053692 6.984981 2.729498 10053171
-3.297488 6.929023 0.565925 10053171
-5.731699 6.756513 2.861985 10053171
-4.188739 6.833393 0.619545 10053171
-6.612005 7.007372 2.948207 10053171
-6.897566 7.242481 2.512298 10053171
-6.915464 7.208091 0.744444 10053171
-5.274897 6.986124 2.463326 10053171
-5.203228 6.950443 1.266861 10053171
-3.157068 7.145387 1.907099 10053171
-6.395663 6.963835 1.720589 10053171
-4.090055 6.855728 0.132710 10053171
-3.502052 6.889107 0.019496 10053171
-6.111893 6.879606 1.891476 10053171
-3.119203 7.092168 0.764498 10053171
-3.570779 7.033394 2.712521 10053171
-4.231460 7.031539 2.631232 10053171
-3.449709 6.912079 2.417795 10053171
-5.091598 6.902847 2.888057 10053171
-4.456715 7.120498 1.055812 10053171
-6.601977 6.834886 2.041779 10053171
-3.838202 6.880750 2.265098 10053171
-3.567602 6.997412 1.030350 10053171
-4.292915 6.769284 0.869631 10053171
-3.854399 7.015400 0.999403 10053171
-5.343360 6.967363 2.080621 10053171
-3.252950 6.845120 0.493490 10053171
-3.399144 7.256211 0.667693 10053171
-6.370164 6.741953 1.234825 10053171
-5.814116 7.225616 1.594735 10053171
-3.793571 6.905801 0.795318 10053171
-6.570882 6.868667 1.577347 10053171
-4.361418 6.815683 0.970535 10053171
-5.657568 6.925480 0.027303 10053171
-4.409868 7.040946 1.193808 10053171
-4.175354 6.897633 2.128491 10053171
-3.279892 7.194255 1.303109 10053171
-3.711943 7.244257 2.662749 10053171
-5.880858 6.816923 0.056932 10053171
-5.685074 6.797133 1.567288 10053171
-4.939054 6.972352 2.470483 10053171
-6.079244 7.045743 1.109411 10053171
-6.783963 7.240079 2.106567 10053171
-5.472430 6.875486 1.244944 10053171
-6.177252 6.886344 2.929466 10053171
-5.552175 6.781083 2.401638 10053171
-4.510678 7.173332 1.535477 10053171
-5.293145 6.873461 0.614333 10053171
-6.038505 7.237270 1.499416 10053171
-3.506809 6.841034 2.496834 10053171
-5.687709 6.951243 2.282384 10053171
-6.058732 6.972453 1.438612 10053171
-6.587554 6.868142 1.254927 10053171
-6.768667 7.076672 2.645794 10053171
-6.585602 6.872314 1.838911 10053171
-6.072855 6.978155 2.787780 10053171
-4.206136 7.174083 2.782594 10053171
-4.900847 7.072765 2.201651 10053171
-4.861362 7.148047 0.048680 10053171
-4.097166 6.841193 1.569519 10053171
-6.997772 7.230056 0.335338 10053171
-5.497236 7.160755 0.032166 10053171
-3.507526 6.800946 0.724839 10053171
-6.069355 6.787197 0.923629 10053171
-3.536029 6.805187 2.835297 10053171
-3.553234 7.164317 0.914766 10053171
-5.207993 6.824076 2.962250 10053171
-6.959663 6.845099 2.326416 10053171
-4.315647 6.852936 0.592760 10053171
-4.574433 6.862169 0.879246 10053171
-3.489915 6.816522 0.279869 10053171
-6.417489 7.007081 1.127174 10053171
-5.272306 7.228407 1.674775 10053171
-4.237227 7.195289 1.718452 10053171
-5.755353 7.138078 0.940822 10053171
-4.660728 6.933605 2.930166 10053171
-5.836623 7.025916 1.032229 10053171
-5.201017 7.146921 0.292302 10053171
-4.802022 6.851857 2.715551 10053171
-3.324467 6.990134 0.791483 10053171
-3.911952 7.018464 1.840168 10053171
-5.788467 6.982804 1.293610 10053171
-3.329211 6.978279 1.655475 10053171
-2.999945 7.228575 0.802044 10053171
-3.193078 7.232899 2.784228 10053171
-3.180017 7.210213 2.284666 10053171
-6.035269 6.946062 2.240427 10053171
-6.820841 7.053868 2.058188 10053171
-4.072141 6.809390 1.149259 10053171
-3.190079 7.239933 1.668179 10053171
-6.934841 7.145727 1.482970 10053171
-4.307555 6.886575 1.115282 10053171
-5.298419 7.054393 0.103157 10053171
-6.814374 7.139548 2.884458 10053171
-4.223030 6.820678 2.433322 10053171
-3.468503 7.046360 2.643894 10053171
-3.072511 6.769641 1.150432 10053171
-3.468074 7.212118 0.579159 10053171
-3.471567 6.941700 2.299672 10053171
-4.096630 7.086284 2.708609 10053171
-3.759107 7.058194 2.906842 10053171
-5.758123 6.943539 0.486129 10053171
-4.721962 7.116427 1.557779 10053171
5.880628 -5.978735 1.142148 8342706
6.113761 -5.723735 1.810399 8342706
5.462355 -6.087141 3.643509 8342706
6.178429 -6.481243 0.565898 8342706
5.440717 -6.221533 3.034968 8342706
6.170151 -6.443218 4.086541 8342706
6.361136 -6.055440 4.913411 8342706
6.206129 -5.636036 0.315534 8342706
6.021150 -6.200765 4.008555 8342706
6.216102 -6.007392 0.482201 8342706
5.572775 -5.665334 2.007276 8342706
6.153192 -6.428950 3.308274 8342706
6.537340 -5.792212 4.822086 8342706
6.064574 -5.611298 2.396219 8342706
6.472101 -5.972498 1.317438 8342706
6.078438 -6.238752 2.926937 8342706
6.535233 -5.875340 0.297500 8342706
6.349725 -6.437199 2.974803 8342706
6.335745 -5.516397 2.197863 8342706
6.460049 -6.369987 2.675845 8342706
6.174531 -6.089053 2.970497 8342706
6.269024 -5.585561 2.042673 8342706
5.631138 -6.304408 3.498092 8342706
5.805019 -5.559307 0.191131 8342706
5.642437 -5.755309 0.533595 8342706
6.505690 -5.795515 1.424022 8342706
6.014232 -5.426210 0.765184 8342706
6.209546 -6.326576 1.500069 8342706
6.439095 -6.150514 1.574992 8342706
6.550843 -6.030215 3.492257 8342706
5.591432 -6.182332 3.380181 8342706
5.843276 -6.193299 4.703067 8342706
5.781027 -5.530061 2.055314 8342706
6.316193 -5.769064 2.920318 8342706
6.258423 -5.941357 3.533562 8342706
5.458288 -6.115410 0.541525 8342706
6.401936 -5.816345 1.990110 8342706
5.917531 -5.789812 1.713508 8342706
5.738197 -5.865921 3.167804 8342706
5.652920 -6.185418 1.859329 8342706
5.807310 -5.515244 0.770133 8342706
6.475674 -6.081876 0.377672 8342706
6.006441 -6.128371 4.279027 8342706
5.583988 -6.185907 4.550911 8342706
5.742593 -5.734554 4.168614 8342706
5.745445 -5.933427 3.118669 8342706
6.021617 -5.978902 1.432499 8342706
6.400042 -6.289622 2.012713 8342706
5.665607 -5.734878 3.091660 8342706
6.288025 -6.061510 3.915440 8342706
5.418123 -5.998312 4.570867 8342706
5.967752 -5.443412 4.496305 8342706
5.500581 -5.964697 3.228188 8342706
6.425743 -5.933249 1.949978 8342706
6.177013 -6.485939 4.297298 8342706
6.378315 -5.884484 1.221164 8342706
5.421129 -5.950181 2.347115 8342706
5.505146 -5.780496 4.328604 8342706
6.446585 -5.990639 3.012417 8342706
6.097644 -5.675610 4.838521 8342706
6.258616 -5.868385 2.107394 8342706
5.799287 -5.467970 2.080981 8342706
5.866113 -6.334881 3.547887 8342706
5.983865 -5.493841 3.499892 8342706
5.754571 -6.041180 4.529183 8342706
5.844493 -6.086551 1.761468 8342706
6.191251 -5.749136 2.002651 8342706
6.161516 -6.310040 1.959575 8342706
5.778275 -6.229935 1.530215 8342706
5.609459 -6.247808 1.052198 8342706
5.846112 -6.394289 1.261644 8342706
5.974318 -5.957639 3.026299 8342706
6.055948 -6.113204 4.759558 8342706
5.787954 -5.805808 0.594666 8342706
5.745627 -6.098506 2.502062 8342706
5.978412 -6.015104 3.159784 8342706
5.473673 -6.183109 1.916779 8342706
6.073370 -5.608559 0.146336 8342706
6.436467 -5.934250 1.221027 8342706
6.552835 -6.073885 3.876729 8342706
6.054924 -6.200585 3.279500 8342706
5.578907 -5.629493 1.968217 8342706
6.101747 -6.261476 4.454615 8342706
6.110574 -5.594263 4.638009 8342706
6.436063 -5.657944 0.214588 8342706
5.982794 -6.166706 2.680652 8342706
6.211926 -5.986756 2.440103 8342706
5.501607 -6.165638 3.675115 8342706
6.058957 -6.308265 1.994153 8342706
5.880608 -6.314772 1.017026 8342706
6.169749 -6.419472 4.440548 8342706
5.541339 -5.928978 3.871756 8342706
5.698932 -6.386038 2.520555 8342706
6.091970 -6.507625 1.393170 8342706
5.840724 -5.895480 4.554464 8342706
5.605563 -5.768908 2.336080 8342706
6.449137 -5.859519 2.617371 8342706
6.098038 -6.437670 0.613304 8342706
5.569095 -6.151072 1.865300 8342706
6.318193 -6.016014 1.875008 8342706
6.585671 -6.056206 3.641545 8342706
5.667299 -6.362230 0.625164 8342706
5.689750 -6.459651 0.767154 8342706
6.207043 -6.016326 2.573191 8342706
5.657959 -6.027430 3.318598 8342706
5.747026 -5.591186 4.732897 8342706
5.782945 -6.234787 4.008464 8342706
5.642396 -5.829880 1.235252 8342706
6.425265 -5.956553 4.433602 8342706
5.843029 -5.626596 3.514159 8342706
6.021172 -5.788537 0.926647 8342706
6.173251 -6.359685 1.740973 8342706
6.156762 -5.795439 1.616290 8342706
5.968428 -5.753784 4.094233 8342706
6.052929 -6.182892 4.589778 8342706
5.784575 -6.129900 0.209207 8342706
5.903697 -5.647884 1.671361 8342706
6.183219 -5.638795 3.852984 8342706
5.687135 -5.984431 3.119456 8342706
5.814544 -6.209706 2.596652 8342706
5.681491 -5.849378 2.914011 8342706
5.607214 -6.237792 3.732335 8342706
5.912999 -6.576031 1.076284 8342706
6.113970 -5.829178 1.681104 8342706
6.302521 -6.325851 0.561455 8342706
6.367089 -5.704830 2.289625 8342706
6.145962 -5.560035 3.083067 8342706
5.679021 -5.682715 1.210592 8342706
6.001209 -5.725787 3.699419 8342706
6.179814 -6.022708 4.403271 8342706
6.502478 -6.125166 2.685464 8342706
6.346159 -6.162528 3.371937 8342706
5.667527 -6.320355 4.703275 8342706
6.290303 -5.509705 4.642841 8342706
5.981722 -6.234589 3.550617 8342706
5.771567 -5.646158 2.598492 8342706
6.065651 -6.561743 4.497128 8342706
5.543612 -5.770897 4.278368 8342706
5.538018 -6.135131 2.895463 8342706
6.106808 -5.646605 2.470416 8342706
5.677885 -5.873169 4.029215 8342706
5.875600 -5.440980 3.046376 8342706
6.490072 -5.807586 0.111334 8342706
6.075339 -5.460259 0.396374 8342706
6.382202 -5.732250 0.061878 8342706
6.045851 -5.736815 0.515867 8342706
5.675929 -5.705606 3.069350 8342706
6.315156 -6.209164 1.536849 8342706
6.130574 -5.810276 2.476566 8342706
5.781331 -6.165527 1.600195 8342706
5.988372 -6.209795 0.145657 8342706
5.853204 -6.043389 3.748787 8342706
5.733632 -6.167415 3.394916 8342706
6.305102 -6.247321 4.580939 8342706
6.317190 -6.446839 3.368762 8342706
6.010908 -6.551363 4.183954 8342706
6.000217 -5.672918 4.216926 8342706
5.712128 -5.624588 4.204682 8342706
6.197128 -5.890004 1.877675 8342706
5.509457 -6.221999 4.635105 8342706
5.887787 -6.343281 4.707408 8342706
6.056624 -6.457733 1.315155 8342706
6.134126 -5.614645 2.029208 8342706
5.938676 -6.207388 1.694916 8342706
6.009591 -6.046700 4.535671 8342706
6.085142 -5.642379 1.131869 8342706
6.126236 -6.310796 1.564283 8342706
5.739207 -5.719234 0.110529 8342706
6.351881 -6.157799 3.060617 8342706
6.100314 -5.574390 2.631502 8342706
6.243419 -5.845034 1.017371 8342706
5.619363 -6.076953 1.902988 8342706
5.715157 -5.664643 2.261695 8342706
5.792706 -5.644670 2.589697 8342706
5.523473 -5.933477 3.586300 8342706
6.036222 -5.838336 1.862412 8342706
5.710511 -5.884988 1.478053 8342706
5.738823 -6.255235 2.818722 8342706
6.009031 -6.315383 4.881053 8342706
5.986117 -6.445550 4.832403 8342706
6.088318 -5.607099 3.835778 8342706
5.653275 -5.560724 2.009418 8342706
6.545360 -6.040777 4.269258 8342706
5.656309 -5.626413 1.946128 8342706
6.078191 -6.437732 1.670644 8342706
5.611505 -6.226674 1.866220 8342706
6.322233 -5.907397 3.514707 8342706
6.477610 -5.818624 3.817885 8342706
6.435490 -6.095322 3.867952 8342706
6.131748 -5.860547 3.383126 8342706
6.152606 -6.394575 1.041381 8342706
5.652686 -6.148492 3.323562 8342706
6.498135 -6.324833 0.135739 8342706
6.371806 -6.071881 4.943429 8342706
5.432904 -5.904736 3.786795 8342706
6.485009 -6.018925 0.241418 8342706
6.239081 -5.651937 3.710535 8342706
6.101957 -6.009315 2.476085 8342706
6.282282 -5.987398 0.689698 8342706
6.438445 -5.952990 2.426553 8342706
6.097868 -6.510149 2.779465 8342706
6.421029 -6.102053 1.393651 8342706
6.212569 -5.659315 1.063438 8342706
6.268720 -5.574659 4.330542 8342706
6.181046 -6.454508 0.751299 8342706
5.634951 -6.068336 3.201765 8342706
6.521428 -5.783669 1.072428 8342706
6.162602 -5.802317 2.595361 8342706
6.000609 -6.076881 2.533338 8342706
6.390789 -5.693401 1.797027 8342706
5.963001 -6.118982 3.840619 8342706
6.500732 -6.006783 1.595438 8342706
5.493633 -6.288416 0.735873 8342706
5.809856 -6.360040 4.995490 8342706
6.458532 -5.780502 3.980601 8342706
6.237195 -6.037598 0.108181 8342706
6.269312 -5.819572 3.581703 8342706
6.494678 -6.070795 4.588695 8342706
5.910427 -6.057623 3.142849 8342706
6.382463 -6.252450 1.773026 8342706
6.036720 -5.436953 1.973938 8342706
5.404109 -5.961683 4.245023 8342706
6.088208 -6.070683 2.988057 8342706
6.254660 -5.921519 3.242682 8342706
5.643001 -6.189163 3.370610 8342706
6.155762 -6.359638 4.402659 8342706
6.097507 -5.522996 4.120158 8342706
5.925098 -5.849846 2.923141 8342706
5.425644 -6.087804 2.054419 8342706
6.297856 -6.419733 4.882401 8342706
5.646697 -6.379109 2.940526 8342706
6.313554 -6.331031 2.360585 8342706
6.446930 -5.827119 1.047542 8342706
6.461514 -5.888182 2.275674 8342706
5.987954 -5.533533 2.067092 8342706
6.223244 -5.748599 0.465138 8342706
5.888556 -6.288806 1.580490 8342706
6.392299 -5.755718 2.456863 8342706
6.376500 -5.549788 4.090373 8342706
6.470842 -6.176977 1.477192 8342706
6.154082 -5.800964 3.251072 8342706
5.733204 -6.393695 3.106115 8342706
6.270838 -5.527311 4.460094 8342706
6.025577 -5.885633 0.766822 8342706
5.584457 -6.362479 4.412109 8342706
5.610918 -5.743982 4.264975 8342706
6.204484 -5.825877 1.370651 8342706
5.760208 -5.799237 1.060911 8342706
5.878590 -6.106191 0.619003 8342706
6.176390 -5.443817 1.182316 8342706
6.290063 -5.529288 1.157540 8342706
5.667742 -6.257920 4.273181 8342706
5.921658 -6.048575 4.943966 8342706
6.214348 -5.550612 3.759357 8342706
5.641595 -6.022441 4.234868 8342706
6.087199 -6.566491 4.281313 8342706
5.694751 -5.727096 3.986439 8342706
5.567080 -6.086464 3.782495 8342706
6.226078 -6.409023 1.047874 8342706
6.560003 -5.953767 0.505217 8342706
6.011961 -5.548322 2.908987 8342706
6.200133 -6.387704 1.669746 8342706
5.505389 -6.208498 3.912096 8342706
5.585370 -6.449987 2.808099 8342706
5.792944 -5.508092 2.237224 8342706
6.526040 -6.238621 2.081387 8342706
6.080739 -6.345626 0.541882 8342706
5.460247 -5.854638 2.611083 8342706
5.833613 -5.666457 2.549238 8342706
6.287624 -6.072289 0.211961 8342706
6.043079 -5.613808 4.360348 8342706
6.514309 -6.282344 4.430810 8342706
5.831025 -6.375031 4.421369 8342706
5.457201 -5.768441 4.336024 8342706
5.956576 -5.479298 1.516894 8342706
6.524707 -6.208518 4.024373 8342706
6.401073 -6.173212 1.422279 8342706
5.828223 -6.192389 3.726288 8342706
6.114486 -6.344340 1.910512 8342706
5.556568 -5.606584 3.386905 8342706
5.787193 -6.464938 3.524091 8342706
5.505420 -5.674947 3.932099 8342706
6.157654 -5.561804 0.033743 8342706
6.341733 -5.954499 2.631543 8342706
6.384653 -6.090321 1.762676 8342706
5.787713 -5.809539 3.218968 8342706
6.009923 -5.814158 3.154121 8342706
6.297814 -6.065299 2.041320 8342706
6.365521 -5.834432 2.209376 8342706
6.059751 -5.798615 0.092406 8342706
5.835940 -6.072138 0.087206 8342706
6.219309 -6.447014 0.887632 8342706
6.355091 -6.459836 0.732254 8342706
6.152747 -6.361369 4.240020 8342706
5.871566 -6.515527 1.821978 8342706
5.642324 -5.927101 0.996718 8342706
5.775535 -5.680442 2.698418 8342706
6.189294 -5.730877 0.412752 8342706
6.103470 -5.416102 2.086752 8342706
6.022798 -6.495015 1.058982 8342706
6.253975 -5.553075 1.306358 8342706
6.446038 -5.676094 3.612451 8342706
6.483600 -6.274004 0.306431 8342706
5.756615 -5.918514 4.015676 8342706
6.176511 -6.098823 1.732620 8342706
6.088116 -6.239078 3.224940 8342706
5.610819 -6.243072 3.692045 8342706
6.537056 -6.153512 1.838947 8342706
6.270648 -6.223550 1.702964 8342706
5.546080 -5.799151 2.484499 8342706
6.404012 -6.404786 2.013872 8342706
6.117717 -6.209318 3.589355 8342706
6.146672 -6.584383 4.297047 8342706
6.436706 -6.388756 3.682023 8342706
6.119450 -5.525224 2.007153 8342706
6.098912 -5.462335 0.890827 8342706
6.151119 -6.441857 1.154454 8342706
5.645892 -6.067495 0.144261 8342706
5.837625 -5.605098 2.622559 8342706
5.803156 -6.392756 2.629755 8342706
6.074833 -5.467878 3.498791 8342706
5.762137 -6.306279 3.371803 8342706
6.310434 -6.340293 1.093506 8342706
5.812603 -6.535150 4.765715 8342706
6.263088 -5.661011 4.891015 8342706
6.026780 -6.487711 1.867751 8342706
5.687524 -5.781876 0.310663 8342706
6.292814 -5.530202 4.304940 8342706
5.598147 -5.852017 4.363880 8342706
6.239697 -5.570392 0.477026 8342706
6.287713 -6.357973 4.014112 8342706
6.171607 -6.535048 0.544470 8342706
6.188771 -5.842000 1.022779 8342706
6.461826 -6.160783 2.784103 8342706
6.023677 -6.398051 3.734881 8342706
6.012429 -5.540265 2.043521 8342706
6.448223 -6.181476 3.317172 8342706
6.118861 -5.448560 0.238691 8342706
5.481364 -5.702559 4.398755 8342706
6.168870 -6.350960 1.667862 8342706
6.416491 -5.605062 1.855403 8342706
5.886475 -6.125128 0.925689 8342706
6.351698 -5.620111 3.711271 8342706
5.620623 -6.142178 3.750359 8342706
6.503647 -5.904632 1.175356 8342706
5.734944 -5.984098 2.425408 8342706
6.249260 -6.347358 2.947151 8342706
5.692596 -6.393565 4.094549 8342706
6.044583 -6.289638 3.905379 8342706
6.411947 -5.565625 4.943315 8342706
6.523120 -6.270972 4.656459 8342706
6.036429 -5.921981 3.871149 8342706
6.168722 -6.386139 4.345027 8342706
5.729541 -6.205896 1.995475 8342706
6.454253 -5.866583 2.125561 8342706
6.447179 -5.987900 2.201103 8342706
5.851622 -5.442726 1.046377 8342706
6.503762 -5.790109 0.281481 8342706
5.845986 -5.482378 1.389066 8342706
6.237013 -5.706493 4.844054 8342706
5.970342 -5.639549 1.241551 8342706
6.502404 -5.814896 2.264997 8342706
5.776698 -6.208204 3.701759 8342706
6.267849 -6.212852 1.519950 8342706
5.973368 -6.397746 3.985677 8342706
6.002711 -5.812833 2.274187 8342706
6.158607 -6.054430 4.120140 8342706
6.160209 -6.391490 4.348225 8342706
6.267181 -5.616729 4.743410 8342706
6.341901 -5.806507 3.627825 8342706
5.996367 -5.784167 3.165286 8342706
6.530642 -5.880731 3.048785 8342706
6.304868 -5.871383 2.847197 8342706
6.286746 -6.326189 2.001841 8342706
5.741192 -5.707850 3.620299 8342706
5.713024 -5.723208 3.078575 8342706
6.266945 -5.988593 1.457158 8342706
6.376224 -6.232709 1.085574 8342706
5.822049 -5.594075 2.983644 8342706
5.488942 -5.891345 0.114185 8342706
5.628463 -5.656782 0.446396 8342706
5.620674 -5.576924 2.869396 8342706
5.994047 -5.509760 2.129645 8342706
5.526981 -6.103132 1.867450 8342706
6.130372 -5.489840 3.469447 8342706
5.436713 -5.900122 4.607296 8342706
5.461552 -5.817888 2.934102 8342706
6.209089 -6.306799 1.841946 8342706
5.560789 -6.372880 0.856561 8342706
5.883151 -6.526857 1.605994 8342706
6.098289 -6.344378 3.413950 8342706
5.951498 -6.469493 4.591169 8342706
6.352589 -6.164104 0.792510 8342706
6.476291 -6.317166 1.466883 8342706
6.554999 -5.910931 3.403826 8342706
5.587902 -6.091157 1.119043 8342706
6.283622 -6.302541 1.944433 8342706
6.179349 -6.304133 2.939914 8342706
6.066616 -6.526613 4.966008 8342706
5.968056 -6.457734 0.613856 8342706
6.292699 -5.763427 1.754090 8342706
6.395346 -5.923066 1.317744 8342706
6.223822 -6.408445 0.495777 8342706
6.291353 -6.125046 2.896631 8342706
6.484419 -6.149533 0.090356 8342706
6.097770 -5.654802 1.219389 8342706
6.480330 -6.272908 4.290317 8342706
6.440591 -5.658486 4.806253 8342706
6.494935 -6.153526 3.624275 8342706
6.317605 -6.330024 1.592806 8342706
5.758933 -6.306789 0.428032 8342706
6.155894 -5.582809 2.717807 8342706
6.229597 -6.023648 3.861702 8342706
6.329594 -5.844198 0.402012 8342706
6.183936 -5.853195 3.960812 8342706
5.763987 -6.416518 3.292863 8342706
6.388061 -6.206242 -0.000242 8342706
6.331761 -5.763964 1.369353 8342706
6.261922 -6.006326 4.230729 8342706
6.355345 -6.093271 2.043425 8342706
5.766540 -5.573693 4.397772 8342706
5.828216 -6.007650 0.856984 8342706
6.054098 -5.745894 4.174434 8342706
5.494368 -5.732407 4.004643 8342706
6.476701 -6.109032 1.745883 8342706
6.289592 -6.457561 1.719225 8342706
6.285730 -6.207332 4.621904 8342706
5.543618 -6.338223 1.239393 8342706
6.015579 -6.224504 3.454341 8342706
6.227071 -5.577581 3.784798 8342706
6.035632 -6.590478 3.674549 8342706
5.934398 -6.023485 1.750817 8342706
5.799491 -5.620430 2.754896 8342706
6.180764 -6.305958 0.933540 8342706
6.206816 -5.992645 3.887726 8342706
6.105538 -6.278862 1.980725 8342706
5.776432 -6.141268 1.052910 8342706
6.579182 -6.014728 1.756651 8342706
5.740814 -6.111209 4.326396 8342706
6.465553 -5.766361 1.033683 8342706
5.548126 -5.854714 0.778315 8342706
6.328733 -6.006052 5.022956 8342706
6.192843 -6.558360 4.108995 8342706
6.078434 -6.414661 4.724946 8342706
6.008596 -5.837679 1.398684 8342706
6.522993 -6.140931 4.995138 8342706
6.143459 -6.073236 1.677077 8342706
5.804032 -5.945917 2.087264 8342706
5.731050 -5.948905 3.040925 8342706
6.482379 -6.233886 4.112816 8342706
5.473658 -5.866024 3.603825 8342706
6.156942 -6.088835 0.988574 8342706
5.865823 -6.271619 1.920738 8342706
5.952328 -5.641345 2.378809 8342706
6.338268 -6.251787 0.078590 8342706
5.818811 -5.572567 4.565296 8342706
5.991367 -5.481130 4.065768 8342706
5.784227 -5.444327 3.558011 8342706
6.409397 -6.336215 1.546527 8342706
5.495179 -6.010122 4.724654 8342706
6.061489 -6.528697 0.117563 8342706
6.520618 -5.954219 1.491012 8342706
6.361013 -5.547180 3.367138 8342706
5.769976 -5.899981 0.835078 8342706
6.017901 -6.007645 0.882441 8342706
5.617606 -5.937243 2.240180 8342706
5.722383 -5.630800 2.284365 8342706
5.774742 -6.121167 3.540036 8342706
