# .PCD v0.7 - Point Cloud Data file format
VERSION 0.7
FIELDS x y z rgb
SIZE 4 4 4 4
TYPE F F F U
COUNT 1 1 1 1
WIDTH 1309
HEIGHT 1
VIEWPOINT 0 0 0 1 0 0 0
POINTS 1309
DATA ascii
-4.831651 6.433494 0.307557 15014169
-4.473481 6.482358 0.474144 15014169
-4.324949 6.776105 0.400788 15014169
-4.917593 6.468189 1.147118 15014169
-4.739401 6.612765 0.601329 15014169
-4.578382 6.530711 0.916980 15014169
-4.839917 6.302428 0.500209 15014169
-4.726688 6.284180 1.035173 15014169
-4.527844 6.450906 0.751556 15014169
-4.580674 6.742086 1.504613 15014169
-4.868585 6.376235 0.880007 15014169
-4.471230 6.625731 0.926121 15014169
-4.667333 6.703957 1.042004 15014169
-4.300867 6.170196 0.822314 15014169
-4.282046 6.633509 1.563878 15014169
-4.773306 6.659468 0.592890 15014169
-4.581246 6.292035 0.905916 15014169
-4.407536 6.341989 1.172092 15014169
-4.635079 6.760999 1.227141 15014169
-4.508634 6.396717 1.026908 15014169
-4.934774 6.208790 1.591037 15014169
-4.914708 6.779067 1.297700 15014169
-4.516617 6.669925 0.513260 15014169
-4.394001 6.652924 1.063419 15014169
-4.605347 6.472456 0.941947 15014169
-4.401496 6.335126 0.387678 15014169
-4.282914 6.446271 1.340918 15014169
-4.467791 6.513715 0.484239 15014169
-4.770179 6.453091 1.088938 15014169
-4.389281 6.355871 0.865798 15014169
-4.317706 6.731771 0.436844 15014169
-4.817702 6.593069 1.115011 15014169
-4.271527 6.671412 1.431758 15014169
-4.794312 6.508135 1.175115 15014169
-4.939603 6.503449 0.952930 15014169
-4.706137 6.320770 1.559334 15014169
-4.934234 6.383651 0.704796 15014169
-4.278594 6.173696 0.935655 15014169
-4.723118 6.636075 1.257751 15014169
-4.468562 6.761950 1.620256 15014169
-4.908747 6.217253 0.356901 15014169
-4.296099 6.832129 0.827655 15014169
-4.912060 6.236220 1.530952 15014169
-4.624196 6.279044 1.159640 15014169
-4.410434 6.476779 0.341745 15014169
-4.673900 6.745814 0.439726 15014169
-4.861804 6.697254 0.481825 15014169
-4.869267 6.323624 0.712743 15014169
-4.718390 6.707895 0.643377 15014169
-4.885963 6.214784 0.793829 15014169
-4.776135 6.697699 1.153322 15014169
-4.726354 6.850235 0.887963 15014169
-4.312069 6.331975 0.738351 15014169
-4.278147 6.208216 1.537300 15014169
-4.290043 6.375758 1.546118 15014169
-4.317578 6.849757 0.461438 15014169
-4.518637 6.682751 1.325391 15014169
-4.377416 6.156106 1.619787 15014169
-4.834624 6.150979 1.673999 15014169
-4.823760 6.712652 0.320170 15014169
-4.917244 6.179008 1.189000 15014169
-4.764873 6.458088 1.650268 15014169
-4.796711 6.283184 0.980070 15014169
-4.759483 6.508068 0.925017 15014169
-4.699989 6.152204 1.361749 15014169
-4.332532 6.412878 0.961214 15014169
-4.884261 6.659285 0.626826 15014169
-4.844136 6.237666 0.568108 15014169
-4.419391 6.439457 1.266433 15014169
-4.858099 6.307905 1.458592 15014169
-4.926608 6.303726 1.480141 15014169
-4.474059 6.326696 1.452033 15014169
-4.841243 6.530430 1.152070 15014169
-4.272469 6.601182 0.793305 15014169
-4.583098 6.297888 1.698706 15014169
-4.671652 6.190816 1.662778 15014169
-4.317523 6.512994 0.366284 15014169
-4.347788 6.785076 1.171654 15014169
-4.753091 6.779577 0.322447 15014169
-4.716824 6.392547 1.486895 15014169
-4.937535 6.609246 1.069937 15014169
-4.708750 6.215205 0.503428 15014169
-4.477353 6.183036 0.378615 15014169
-4.618001 6.496203 0.337334 15014169
-4.590375 6.222885 0.462043 15014169
-4.470066 6.368834 1.391664 15014169
2.635428 -9.096663 0.611053 1690649
2.354606 -9.512718 0.785415 1690649
2.574468 -9.481538 0.720813 1690649
1.998727 -9.538922 1.327202 1690649
2.678257 -9.339491 0.495238 1690649
2.388717 -9.294144 0.603776 1690649
2.637691 -9.388205 1.011278 1690649
2.361425 -9.482084 1.078112 1690649
2.876287 -9.484373 1.333498 1690649
2.214507 -9.391084 0.953946 1690649
2.819563 -9.297969 0.517233 1690649
2.508744 -9.542153 1.753962 1690649
2.415627 -9.755290 0.176058 1690649
2.114971 -9.193841 1.069249 1690649
2.508999 -9.077626 1.046649 1690649
2.638179 -9.721431 1.158523 1690649
2.851827 -9.517685 1.013174 1690649
2.281975 -9.553585 0.564810 1690649
2.596061 -9.290400 1.398348 1690649
2.534105 -9.472255 1.137466 1690649
2.539512 -9.020618 1.745387 1690649
2.529477 -9.771495 1.170594 1690649
2.056260 -9.575683 0.868327 1690649
2.022978 -9.578790 0.898651 1690649
2.155778 -9.040812 1.550006 1690649
2.599175 -9.496758 1.849658 1690649
2.092490 -9.494365 1.408966 1690649
2.621475 -9.106363 1.828400 1690649
2.424514 -9.703531 0.637287 1690649
2.666850 -9.158511 1.242457 1690649
2.260250 -9.065420 1.419537 1690649
2.279674 -9.257055 1.580123 1690649
2.797094 -9.595407 0.979642 1690649
2.244796 -9.299850 0.774027 1690649
2.453038 -9.532265 1.072694 1690649
2.711721 -9.032892 1.085375 1690649
2.025657 -9.379207 0.536930 1690649
2.461898 -9.205708 0.615687 1690649
2.144773 -9.529912 1.272379 1690649
2.485466 -9.127029 1.882008 1690649
2.603617 -9.246414 1.083520 1690649
2.298421 -9.688723 0.342863 1690649
2.579764 -9.224068 1.874060 1690649
2.417580 -9.708907 1.002991 1690649
2.150797 -9.067807 1.889300 1690649
2.653360 -9.568017 1.153253 1690649
2.461627 -9.728112 1.444120 1690649
2.399480 -9.226327 0.994450 1690649
2.285436 -8.992854 1.038853 1690649
2.387296 -9.027185 1.357306 1690649
2.234004 -9.230620 1.224233 1690649
2.569323 -8.975407 0.411775 1690649
2.812420 -9.261204 1.493830 1690649
2.225724 -9.171196 1.032113 1690649
2.042860 -9.568410 1.842635 1690649
2.387668 -9.739748 1.698986 1690649
2.254484 -9.481081 0.791299 1690649
2.247013 -9.247741 0.600581 1690649
2.770957 -9.624551 0.930079 1690649
2.390554 -9.411632 1.459282 1690649
2.109814 -9.398403 0.925578 1690649
2.577720 -9.371757 0.120941 1690649
2.228382 -9.265327 0.187244 1690649
2.463485 -9.753271 0.191843 1690649
2.410778 -9.148301 0.964930 1690649
2.548460 -9.596684 1.730928 1690649
2.245565 -9.663704 1.679737 1690649
2.490578 -9.837852 1.774705 1690649
2.206232 -9.223803 0.202590 1690649
2.090437 -9.531991 0.328524 1690649
2.253804 -9.256814 1.353019 1690649
2.561952 -9.525105 0.653060 1690649
2.249164 -9.647395 1.626505 1690649
2.826025 -9.444202 1.146905 1690649
2.577795 -9.415535 0.114644 1690649
2.386936 -9.015968 1.231902 1690649
2.462269 -9.227671 0.228875 1690649
2.407571 -9.720752 1.105078 1690649
2.723009 -9.426730 0.732744 1690649
2.613661 -9.130454 1.164511 1690649
2.356130 -8.951046 0.201388 1690649
2.404390 -9.573792 0.472597 1690649
2.503777 -9.216901 0.908587 1690649
2.288794 -9.333710 1.774849 1690649
2.096741 -9.279453 0.687435 1690649
2.529410 -9.751648 0.190937 1690649
2.408707 -9.758273 1.457200 1690649
2.253880 -9.683424 0.152759 1690649
2.650627 -9.208600 1.500516 1690649
2.697114 -9.592018 1.267573 1690649
2.445685 -9.075035 1.713651 1690649
2.356591 -9.061061 1.139344 1690649
2.648810 -9.078890 0.763858 1690649
2.205061 -9.478228 0.178483 1690649
2.202341 -9.070205 1.266360 1690649
2.734616 -9.694673 0.577954 1690649
2.203545 -9.265199 1.664746 1690649
2.362222 -9.350404 1.892805 1690649
2.710744 -9.222597 0.498877 1690649
2.316523 -9.595647 1.614686 1690649
2.097925 -9.617743 0.985323 1690649
2.303566 -9.080123 1.727423 1690649
2.278045 -9.644811 1.454422 1690649
2.112648 -9.144310 0.625911 1690649
2.227438 -9.192567 0.165351 1690649
2.107812 -9.707397 1.166299 1690649
2.187721 -9.159457 0.622599 1690649
2.246461 -9.153156 1.082005 1690649
2.081799 -9.597420 0.772415 1690649
2.223322 -9.526683 1.277974 1690649
2.751529 -9.656510 0.144633 1690649
2.450652 -8.985270 1.893113 1690649
2.826887 -9.301937 0.964416 1690649
2.613270 -9.767087 1.832028 1690649
2.803626 -9.290579 1.456134 1690649
2.552410 -9.649507 1.046962 1690649
2.686701 -9.209951 1.368257 1690649
2.458371 -9.712748 1.154063 1690649
2.364113 -9.051238 0.775678 1690649
2.481943 -9.777527 0.146659 1690649
2.041715 -9.448919 0.943235 1690649
2.148043 -9.123867 0.301428 1690649
2.714513 -9.267944 1.313478 1690649
2.667615 -9.690515 0.102119 1690649
2.189358 -9.382000 1.053694 1690649
2.491556 -9.609114 0.251087 1690649
2.077428 -9.426888 0.953725 1690649
2.400457 -9.669789 0.482143 1690649
2.810224 -9.210273 0.687901 1690649
2.125207 -9.286426 1.877866 1690649
2.342309 -9.251807 0.247314 1690649
2.556025 -9.414066 0.451228 1690649
2.757632 -9.693456 0.900435 1690649
2.007396 -9.212484 1.406911 1690649
2.199498 -9.302029 1.521590 1690649
2.247077 -9.393773 0.319833 1690649
2.609323 -9.684908 1.461141 1690649
2.339122 -9.440515 0.519237 1690649
2.654330 -9.528344 1.354626 1690649
2.568743 -9.188394 0.201197 1690649
2.059192 -9.443365 0.663144 1690649
2.840811 -9.499760 0.755698 1690649
2.728761 -9.276353 1.279036 1690649
2.327838 -9.286490 0.888891 1690649
2.141174 -9.410329 0.647725 1690649
2.837114 -9.243910 1.177292 1690649
2.491424 -9.503374 1.280248 1690649
2.264268 -9.277797 1.669998 1690649
2.460130 -8.995191 1.204060 1690649
2.827618 -9.369926 1.272661 1690649
2.656383 -9.591742 0.503639 1690649
2.205899 -9.377419 1.000678 1690649
2.517424 -9.368137 1.232102 1690649
2.599619 -9.478043 0.701316 1690649
-4.373454 7.171435 0.479060 10053171
-5.976552 7.102646 0.426055 10053171
-4.430965 6.978744 2.355031 10053171
-5.157771 7.150878 2.876671 10053171
-3.840548 7.004952 0.286040 10053171
-6.693334 6.749438 2.483608 10053171
-4.101772 7.158772 2.567411 10053171
-3.167343 6.934989 1.343193 10053171
-4.404949 6.977504 0.519932 10053171
-3.521349 7.211707 2.577017 10053171
-3.676947 7.199823 2.503210 10053171
-3.251208 6.978692 0.856271 10053171
-3.992781 7.059463 0.149402 10053171
-4.961233 6.802114 1.156314 10053171
-6.823854 6.980879 0.181750 10053171
-4.592471 7.100039 2.192932 10053171
-6.409231 6.979656 1.225008 10053171
-4.640007 6.956558 0.442355 10053171
-6.896251 6.754519 2.836720 10053171
-6.287660 7.209483 2.892376 10053171
-6.070408 7.067750 0.753097 10053171
-6.147480 6.794269 2.791789 10053171
-3.735451 6.859896 2.215908 10053171
-4.812898 7.062343 2.506804 10053171
-6.581048 7.018468 2.662567 10053171
-6.067112 7.137273 1.113826 10053171
-3.420180 7.167347 1.440878 10053171
-4.620193 6.950272 1.325423 10053171
-5.989351 7.212095 2.371152 10053171
-6.669190 7.057975 2.958059 10053171
-6.860860 7.068439 1.110558 10053171
-5.977456 6.761539 0.156094 10053171
-6.109633 7.037789 1.972777 10053171
-3.873849 6.978878 0.585588 10053171
-4.704223 7.157937 0.124448 10053171
-5.867272 7.153208 2.076012 10053171
-4.826278 6.958212 1.386942 10053171
-5.496634 7.230482 2.762640 10053171
-5.065845 6.762104 1.301379 10053171
-6.157536 6.976549 2.546711 10053171
-4.457356 6.934826 2.113715 10053171
-4.102590 7.114985 1.108157 10053171
-3.879289 6.765929 0.882993 10053171
-4.734108 6.939233 2.241530 10053171
-5.548465 6.970486 0.641995 10053171
-3.827670 7.047623 1.148289 10053171
-3.488970 7.072151 2.119159 10053171
-4.293158 7.189091 0.695453 10053171
-4.105450 7.252763 2.534021 10053171
-5.290453 6.980505 1.600715 10053171
-6.777898 7.064255 2.609458 10053171
-5.668140 6.950339 1.202979 10053171
-5.752489 6.853240 2.796176 10053171
-3.536986 6.861246 2.711886 10053171
-3.072536 6.906069 0.615248 10053171
-5.025666 7.039983 2.163085 10053171
-3.512239 7.045649 0.824422 10053171
-5.440897 7.041468 1.619899 10053171
-3.324227 7.087105 2.196442 10053171
-6.454276 7.186308 0.016998 10053171
-6.388505 6.759431 2.610781 10053171
-4.381941 6.952178 2.930363 10053171
-6.318676 6.952006 0.864286 10053171
-3.763153 7.177574 1.049498 10053171
-3.579754 7.049816 2.662087 10053171
-4.187560 6.923962 2.155046 10053171
-6.354151 6.802344 1.061555 10053171
-3.772700 7.021811 1.921123 10053171
-3.891656 7.064578 1.224653 10053171
-5.433132 7.215826 0.701787 10053171
-5.924255 6.939691 2.510295 10053171
-3.288834 6.920665 1.492577 10053171
-6.812366 6.759362 2.293728 10053171
-3.694642 6.986982 1.005314 10053171
-6.508065 7.210831 1.582787 10053171
-5.317070 6.976336 0.857887 10053171
-6.493180 6.876479 0.449247 10053171
-4.533720 7.102565 2.286129 10053171
-6.719345 7.160838 1.128948 10053171
-4.024812 6.885562 0.269541 10053171
-5.772255 7.223532 0.681847 10053171
-6.953809 7.085317 2.913682 10053171
-3.111466 7.098341 2.165768 10053171
-4.159951 7.104819 0.039420 10053171
-4.436467 7.166381 1.357455 10053171
-6.608298 7.221986 0.430159 10053171
-5.853657 6.871247 0.146337 10053171
-3.260913 6.885659 0.154762 10053171
-6.530719 6.926596 1.336266 10053171
-5.961373 6.854077 -0.018142 10053171
-5.462114 7.023925 1.788894 10053171
-6.383742 7.000021 2.949752 10053171
-6.076814 6.819139 2.957154 10053171
-4.237426 7.215849 1.430973 10053171
-4.286895 7.114646 2.192076 10053171
-3.899299 7.208395 2.399519 10053171
-5.676527 7.206784 0.394664 10053171
-5.342870 6.908617 0.455584 10053171
-3.348561 6.951281 0.995392 10053171
-6.879273 6.964734 0.252284 10053171
-4.481381 6.813696 1.789324 10053171
-6.229632 7.229432 1.523591 10053171
-3.829747 7.195797 0.878675 10053171
-3.779263 6.972007 2.105431 10053171
-4.817471 7.133785 1.237278 10053171
-5.647102 7.256749 1.580177 10053171
-4.234703 6.975984 0.425999 10053171
-5.518531 7.208970 0.307028 10053171
-3.285530 7.097551 0.129496 10053171
-5.112064 6.797637 1.802256 10053171
-5.632785 7.043032 2.642662 10053171
-5.443153 6.882780 2.387639 10053171
-4.458441 6.932308 0.665614 10053171
-4.770553 6.941850 2.333775 10053171
-6.495093 6.940710 1.163866 10053171
-5.731821 6.785483 1.391420 10053171
-4.555261 6.920875 1.770799 10053171
-4.054296 7.066313 2.558985 10053171
-3.323935 7.027280 0.182320 10053171
-4.646705 6.746289 1.408138 10053171
-3.829282 7.217997 0.851463 10053171
-5.164394 6.875691 0.244286 10053171
-6.428664 6.772935 0.308025 10053171
-5.600983 7.033542 0.814285 10053171
-3.159459 7.171738 1.562491 10053171
-5.380237 7.074986 2.728454 10053171
-5.325104 6.936341 2.693522 10053171
-4.389184 6.907830 0.773322 10053171
-6.981232 7.109312 2.656633 10053171
-4.292361 7.032571 2.869509 10053171
-4.871945 6.987534 0.225692 10053171
-6.485421 6.901073 2.238788 10053171
-5.357718 6.899358 1.741246 10053171
-5.239689 7.056665 1.604115 10053171
-4.656775 6.838780 0.820996 10053171
-3.288315 6.813375 0.454530 10053171
-4.003642 6.942666 1.206471 10053171
-3.772444 7.230824 0.780731 10053171
-5.106554 7.050012 2.748368 10053171
-4.744313 7.177913 1.081577 10053171
-5.665340 6.794024 2.552814 10053171
-5.405529 7.177334 2.275032 10053171
-6.032575 6.996998 2.976536 10053171
-3.706738 6.931629 1.080446 10053171
-4.246181 7.078637 2.734267 10053171
-5.930227 7.047980 0.670644 10053171
-4.978006 6.817609 2.323622 10053171
-3.929172 6.823278 1.352959 10053171
-6.002448 7.190469 1.747993 10053171
-3.635680 7.197582 0.402808 10053171
-5.857112 6.930116 2.257883 10053171
-6.568883 6.871682 1.762585 10053171
-4.763214 6.802421 2.793030 10053171
-6.488079 7.162784 1.209235 10053171
-3.566150 7.000965 1.086038 10053171
-6.257167 6.829689 1.556274 10053171
-3.011951 6.840515 1.551110 10053171
-6.382037 7.245975 0.943022 10053171
-4.785275 6.997798 1.227488 10053171
-6.400200 7.091991 0.928951 10053171
-6.867849 6.876752 2.262487 10053171
-3.724481 7.218388 1.817607 10053171
-4.221883 7.195645 0.808840 10053171
-6.342588 6.794475 2.940608 10053171
-3.049367 6.765173 2.287013 10053171
-6.424314 6.931653 1.486539 10053171
-6.297779 7.009141 0.986148 10053171
-5.147647 6.811949 1.211990 10053171
-3.946177 7.185028 0.936693 10053171
-6.427274 7.083790 0.848491 10053171
-6.224944 6.757522 2.071384 10053171
-3.516003 7.039489 0.945881 10053171
-5.303798 6.976658 2.330264 10053171
-4.489078 6.775508 0.643508 10053171
-5.571438 7.200223 0.167576 10053171
-3.620995 6.922128 1.823130 10053171
-7.001271 7.184084 2.113874 10053171
-6.172089 7.164931 1.961211 10053171
-4.704101 6.906086 0.458739 10053171
-5.527525 6.968873 1.732536 10053171
-6.733527 6.790790 1.273565 10053171
-5.588184 6.801939 1.493039 10053171
-6.424295 6.867654 2.023941 10053171
-5.976266 6.791021 1.071986 10053171
-5.781920 6.760406 2.060828 10053171
-5.554060 6.811265 1.551836 10053171
-3.380890 7.060167 2.630743 10053171
-5.037945 7.034410 0.348961 10053171
-4.192745 7.195550 0.533802 10053171
-5.048165 7.140067 0.843592 10053171
-6.402939 6.913887 2.836507 10053171
-6.873097 6.824939 2.530061 10053171
-6.722955 6.757802 0.417460 10053171
-3.258910 7.088247 1.589511 10053171
-6.037308 6.754800 2.601336 10053171
-4.063949 6.946012 1.546502 10053171
-6.729943 7.208569 0.615922 10053171
-6.919503 6.957172 2.970555 10053171
-4.481230 6.938943 1.916731 10053171
-4.898363 7.091187 2.552541 10053171
-3.967407 7.117962 0.781522 10053171
-4.123140 7.254125 0.483829 10053171
-3.937536 6.779284 1.136226 10053171
-3.438391 7.208873 2.470503 10053171
-3.392872 7.175074 0.178225 10053171
-3.161910 6.800475 0.443788 10053171
-4.784636 7.206294 1.086238 10053171
-6.905156 7.103436 0.588931 10053171
-6.246752 6.772727 1.869196 10053171
-6.632017 6.909802 0.612215 10053171
-6.364566 7.157165 1.715654 10053171
-6.403209 6.830658 1.124038 10053171
-4.969856 6.835789 0.274784 10053171
-5.294906 7.054472 1.103673 10053171
-5.997274 7.085172 1.262462 10053171
-3.179283 7.019723 2.065999 10053171
-4.504529 6.918694 0.157230 10053171
-6.046052 6.817304 0.166173 10053171
-3.640630 7.167632 0.333163 10053171
-3.327341 7.216116 2.589060 10053171
-4.014242 6.907866 2.670246 10053171
-4.105499 6.845080 2.998421 10053171
-5.528373 7.105363 1.923878 10053171
-4.330533 7.166401 0.737304 10053171
-4.263222 6.939367 0.576344 10053171
-3.598067 7.162953 0.605803 10053171
-3.729681 6.929290 0.922431 10053171
-4.636489 7.026175 0.606547 10053171
-4.173217 6.933372 0.214171 10053171
-6.538514 6.776496 2.366050 10053171
-4.726723 7.171532 0.512470 10053171
-5.163538 6.966946 1.446917 10053171
-6.462975 7.247136 1.309680 10053171
-6.966050 7.037173 2.088850 10053171
-6.597048 7.225800 1.483659 10053171
-5.039021 7.123981 2.885657 10053171
-4.717243 6.854789 0.724078 10053171
-4.296558 6.922169 1.322866 10053171
-5.426210 6.805338 2.051126 10053171
-3.992590 6.757502 2.810849 10053171
-5.960344 7.029202 1.396227 10053171
-6.742157 6.765312 0.247269 10053171
-3.278943 7.135161 2.706088 10053171
-5.108260 7.061097 1.747161 10053171
-5.870249 7.197093 0.501780 10053171
-6.242932 6.867861 1.065638 10053171
-6.949727 7.076478 1.618598 10053171
-5.755030 7.224124 2.543256 10053171
-6.226752 6.943430 2.051870 10053171
-3.782328 6.961929 1.393674 10053171
-5.703666 7.173143 0.863056 10053171
-3.116216 6.813786 0.975176 10053171
-3.915611 6.836924 1.116638 10053171
-5.348684 7.183150 1.634172 10053171
-3.498262 6.775981 0.841385 10053171
-4.671006 7.248285 1.551477 10053171
-3.643695 6.989398 2.198545 10053171
-4.577725 7.118940 2.682950 10053171
-4.904593 7.099494 2.076794 10053171
-6.912447 6.792464 2.366595 10053171
-3.412009 7.122126 0.863225 10053171
-5.520489 7.057607 2.914527 10053171
-4.842835 6.939728 0.679950 10053171
-4.613951 7.006429 2.198134 10053171
-6.927732 7.030585 2.210077 10053171
-3.647547 6.855362 1.231847 10053171
-4.343716 6.918955 0.840197 10053171
-6.424415 6.766613 2.064634 10053171
-6.032813 6.766392 2.058306 10053171
-4.841277 6.746801 0.951576 10053171
-3.718290 6.864435 -0.003445 10053171
-4.873875 7.132225 2.488285 10053171
-3.753914 6.993505 2.465889 10053171
-5.181458 7.086211 1.522155 10053171
-6.246265 6.843481 1.596970 10053171
-6.674780 7.187334 2.928483 10053171
-3.957207 6.915702 0.933420 10053171
-6.250265 7.053774 0.945735 10053171
-4.900052 7.153731 1.496504 10053171
-3.288076 7.198188 0.935518 10053171
-6.346387 7.088934 1.853154 10053171
-5.688457 6.816445 1.323061 10053171
-3.560328 6.903364 0.445358 10053171
-5.636309 6.799538 2.111594 10053171
-4.274047 7.234495 0.438667 10053171
-3.201576 7.016579 1.438763 10053171
-3.120011 6.958440 1.835515 10053171
-4.080275 6.771606 0.903769 10053171
-4.280680 7.195430 1.325202 10053171
-3.092036 6.882201 0.307626 10053171
-4.014546 7.126340 1.428854 10053171
-5.443362 6.923307 1.064198 10053171
-3.982313 6.952737 0.362852 10053171
-3.784365 6.940044 0.164550 10053171
-5.734602 7.234453 1.840216 10053171
-5.664406 7.195487 1.798214 10053171
-6.039016 6.740013 2.381220 10053171
-3.612448 6.964397 0.809794 10053171
-5.236759 7.130998 1.188351 10053171
-5.114552 6.829568 2.483383 10053171
-4.280370 7.188082 0.628513 10053171
-6.967647 7.219787 0.065931 10053171
-4.035057 6.780952 1.119911 10053171
-4.039713 6.797009 1.850150 10053171
-5.400302 6.845417 2.744771 10053171
-3.282180 7.047184 1.533933 10053171
-3.316612 7.218664 0.005046 10053171
-3.243384 6.809205 1.508551 10053171
-4.624008 6.962655 1.576284 10053171
-4.959203 6.855855 0.140412 10053171
-6.806957 6.840137 1.561326 10053171
-5.553421 6.951745 0.126007 10053171
-6.911647 6.896118 1.430012 10053171
-4.169906 6.772399 1.299013 10053171
-6.381170 6.912546 0.234883 10053171
-3.362201 6.759366 2.850588 10053171
-4.108972 6.804849 1.405598 10053171
-4.729514 6.833729 1.928607 10053171
-6.153261 6.783720 0.133703 10053171
-5.192139 7.128499 1.840063 10053171
-6.245470 7.092148 2.246686 10053171
-5.135497 7.086547 1.389942 10053171
-6.458510 6.947646 1.301057 10053171
-5.455464 7.073728 0.283486 10053171
-4.953576 7.180392 1.786034 10053171
-3.845231 6.984337 1.625973 10053171
-5.425371 7.078716 2.706471 10053171
-5.721740 7.076484 2.988155 10053171
-6.816406 7.141155 0.780956 10053171
-4.917549 7.156150 1.124321 10053171
-6.983794 6.933170 0.255084 10053171
-6.717361 6.989989 1.045509 10053171
-4.296476 6.785396 1.953779 10053171
-3.998904 7.165605 0.079116 10053171
-3.113290 7.027247 1.326468 10053171
-3.869953 7.019477 0.409555 10053171
-3.094555 6.750885 1.703014 10053171
-3.483530 6.865455 0.315815 10053171
-6.638736 7.080413 1.211007 10053171
-4.070242 7.112663 0.741688 10053171
-3.786451 7.001870 2.081404 10053171
-3.797055 7.022621 1.240005 10053171
-4.613499 7.139105 2.666952 10053171
-4.618894 7.228753 2.344493 10053171
-6.244129 7.146715 0.862061 10053171
-3.094051 6.912955 0.006638 10053171
-4.401334 6.755794 0.498056 10053171
-5.186528 6.996210 2.858978 10053171
-5.335374 6.986349 2.470882 10053171
-3.653075 7.233507 1.073295 10053171
-4.856161 6.767010 0.088687 10053171
-4.764498 7.118122 0.911084 10053171
-4.078912 6.862006 1.518116 10053171
-3.525249 6.960012 0.967117 10053171
-6.966468 7.111592 0.907114 10053171
-3.922043 6.937079 1.380455 10053171
-3.576787 6.938515 2.717158 10053171
-5.478555 6.848300 2.602051 10053171
-5.412044 6.774341 2.406895 10053171
-3.028073 6.786271 2.944007 10053171
-6.154035 6.839328 2.040698 10053171
-4.446502 7.128271 0.756661 10053171
-4.526368 7.026914 0.695276 10053171
-3.211020 7.226779 2.738786 10053171
-5.860978 7.201393 2.542012 10053171
-4.237349 6.918372 2.134124 10053171
-3.220163 6.938124 0.498497 10053171
-5.020966 6.839712 1.838107 10053171
-3.730544 6.964435 0.087356 10053171
-4.324037 7.218799 0.547621 10053171
-6.192236 6.854875 1.537203 10053171
-3.862433 7.214674 0.590272 10053171
-5.456943 6.783289 1.454518 10053171
-3.216385 6.825345 2.175557 10053171
-3.441829 6.959967 0.320345 10053171
-3.959398 7.251414 2.042352 10053171
-6.183744 7.178034 0.269397 10053171
-6.555876 6.908457 0.527785 10053171
-4.614533 6.879255 1.238000 10053171
-5.160901 6.805766 0.004150 10053171
-5.450715 6.801667 0.524374 10053171
-3.766213 6.808615 0.409285 10053171
-5.359728 7.206627 0.701834 10053171
-3.180777 7.191810 1.391032 10053171
-4.934906 6.747223 2.541411 10053171
-6.750209 7.132876 1.626670 10053171
-4.823472 6.782343 1.184344 10053171
-4.060463 7.037498 1.636305 10053171
-4.086919 7.031095 1.610525 10053171
-3.508721 6.920758 2.940300 10053171
-4.096773 7.149573 2.894306 10053171
-6.619899 6.912864 1.758376 10053171
-5.181054 7.037062 1.682411 10053171
-5.111484 7.171645 2.137281 10053171
-4.500088 6.849996 0.040902 10053171
-5.346114 6.755927 2.589054 10053171
-5.179586 6.740621 1.376975 10053171
-4.084011 6.878858 0.708512 10053171
-4.380275 7.042446 1.041895 10053171
-5.230601 7.124214 0.690725 10053171
-3.756960 6.760855 1.886283 10053171
-3.644529 7.256981 2.715843 10053171
-3.375478 7.140960 0.987582 10053171
-4.069839 7.202222 2.655956 10053171
-3.099177 7.172799 2.842047 10053171
-3.588269 7.044201 1.676812 10053171
-5.314880 7.125048 0.103057 10053171
-3.920160 6.927111 2.294718 10053171
-6.420715 7.054302 2.555601 10053171
-3.109412 7.099682 2.771782 10053171
-4.841925 7.162905 0.131028 10053171
-5.884439 6.900776 0.146486 10053171
-4.298615 7.050138 0.576075 10053171
-4.634744 7.139719 0.008908 10053171
-6.613070 7.210320 1.374072 10053171
-6.067637 6.950641 0.091608 10053171
-5.840191 6.752771 2.918876 10053171
-4.479725 7.054993 2.832000 10053171
-5.610939 7.218366 2.534729 10053171
-3.118754 6.967186 0.605800 10053171
-5.754801 6.931532 0.615663 10053171
-4.090725 7.106562 1.561498 10053171
-4.695558 6.776610 1.675877 10053171
-4.995260 7.126404 1.233639 10053171
-4.428976 6.962530 0.492015 10053171
-5.286304 7.245361 0.323256 10053171
-3.860560 6.951376 0.825564 10053171
-4.236543 6.922754 2.686161 10053171
-5.248815 7.120281 1.732818 10053171
-3.015609 6.981656 0.247692 10053171
-5.432651 6.854039 1.039583 10053171
-6.594092 7.054100 2.724554 10053171
-5.121057 6.806074 1.635386 10053171
-3.048254 6.901699 0.755157 10053171
-6.590959 6.974978 1.166041 10053171
-3.093692 6.993423 0.186610 10053171
-6.264817 7.220814 1.893395 10053171
-3.666564 6.928434 1.355332 10053171
-4.179673 7.099460 0.201885 10053171
-3.866935 7.141013 1.797376 10053171
-4.149718 6.993487 1.335118 10053171
-3.085935 6.796037 0.724783 10053171
-5.598444 7.232460 0.139848 10053171
-5.671613 7.010585 2.812074 10053171
-4.809187 6.946679 1.786252 10053171
-5.957443 7.158332 2.043136 10053171
-3.348590 7.102563 0.993412 10053171
-6.495780 6.807677 0.745814 10053171
-6.586210 7.071964 1.916990 10053171
-3.728387 6.881257 0.034932 10053171
-4.625993 7.125267 2.005546 10053171
-5.586389 6.743487 2.676242 10053171
-3.983735 7.099485 0.432563 10053171
-3.928956 6.787787 1.637545 10053171
-5.381918 7.019551 0.806523 10053171
-4.837839 6.823153 1.760584 10053171
-5.781694 6.945962 1.072842 10053171
-6.622349 6.861206 0.158946 10053171
-4.523203 6.977659 1.708253 10053171
-3.713706 7.126729 2.818688 10053171
-5.684637 6.856051 0.079924 10053171
-5.672562 7.045615 0.373373 10053171
-4.239221 6.847680 0.861776 10053171
-5.860111 6.840897 2.077851 10053171
-4.901739 6.825945 2.925244 10053171
-3.179182 6.996373 2.014272 10053171
-3.610137 6.943070 1.089601 10053171
-4.769869 7.138041 2.877349 10053171
-4.525631 7.170570 1.487291 10053171
-3.460215 7.084067 1.065637 10053171
-3.159349 7.154859 0.505823 10053171
-5.420861 7.100699 0.837878 10053171
-6.639202 6.976441 2.568858 10053171
-3.295039 6.896225 2.381475 10053171
-5.861603 7.144970 2.076280 10053171
-4.672116 6.940069 1.471804 10053171
-4.310314 6.831595 2.113018 10053171
-2.995867 6.764164 2.455576 10053171
-3.025587 6.999488 1.066113 10053171
-4.369826 7.167717 0.299983 10053171
-5.484228 7.222499 2.306683 10053171
-5.595816 7.109857 1.118185 10053171
-3.889853 6.902665 1.858962 10053171
-4.667235 7.078178 2.906318 10053171
-4.743701 7.181861 2.684735 10053171
-6.286333 7.041975 1.575585 10053171
-3.120595 7.194009 0.324864 10053171
-4.519108 6.879256 2.817303 10053171
-3.029181 6.927022 1.102035 10053171
-4.448882 7.238840 2.832711 10053171
-5.026336 6.924286 2.687142 10053171
-3.221682 6.973027 0.512295 10053171
-5.986453 6.832169 0.805392 10053171
-4.712078 7.156595 0.302342 10053171
-3.000231 7.065452 0.565747 10053171
-5.448893 6.897126 1.099422 10053171
-3.927742 6.800553 0.618588 10053171
-6.061901 6.985220 2.719609 10053171
-3.316144 6.916397 0.562650 10053171
-5.727057 6.767265 2.846325 10053171
-4.211162 6.831578 0.639111 10053171
-6.609666 6.993386 2.952177 10053171
-6.910492 7.234838 2.522068 10053171
-6.904144 7.225601 0.744317 10053171
-5.279340 7.016195 2.447796 10053171
-5.208516 6.947584 1.265157 10053171
-3.167124 7.150486 1.894094 10053171
-6.387067 6.930426 1.723452 10053171
-4.066826 6.860194 0.129704 10053171
-3.492119 6.897406 0.041191 10053171
-6.101640 6.887769 1.889438 10053171
-3.093637 7.082731 0.756533 10053171
-3.580223 7.067999 2.722564 10053171
-4.231923 7.049425 2.631938 10053171
-3.442556 6.905987 2.414198 10053171
-5.109982 6.889900 2.883031 10053171
-4.451831 7.095231 1.049433 10053171
-6.607755 6.850814 2.026468 10053171
-3.827588 6.875588 2.292714 10053171
-3.566598 7.001398 1.045214 10053171
-4.291474 6.760333 0.887824 10053171
-3.855599 7.026080 1.008651 10053171
-5.354351 6.965106 2.071252 10053171
-3.244498 6.846145 0.484094 10053171
-3.407891 7.231035 0.648627 10053171
-6.389146 6.749927 1.255596 10053171
-5.819856 7.233145 1.577890 10053171
-3.805578 6.895632 0.805696 10053171
-6.570789 6.864961 1.569289 10053171
-4.369431 6.800594 0.990257 10053171
-5.666173 6.918906 0.064101 10053171
-4.407457 7.019709 1.190760 10053171
-4.183383 6.912387 2.121459 10053171
-3.263407 7.163786 1.305494 10053171
-3.737174 7.216094 2.651507 10053171
-5.895914 6.829350 0.060933 10053171
-5.691476 6.792974 1.593809 10053171
-4.926541 6.939681 2.459294 10053171
-6.088590 7.049367 1.131723 10053171
-6.778184 7.254877 2.126729 10053171
-5.453112 6.854292 1.248908 10053171
-6.181549 6.898650 2.903313 10053171
-5.542377 6.786376 2.402436 10053171
-4.517187 7.168815 1.530199 10053171
-5.286287 6.869893 0.603927 10053171
-6.026478 7.238655 1.486201 10053171
-3.513132 6.841653 2.517013 10053171
-5.675020 6.943499 2.285198 10053171
-6.081511 6.978993 1.447581 10053171
-6.562840 6.890162 1.246784 10053171
-6.772302 7.086550 2.637170 10053171
-6.563111 6.877326 1.836180 10053171
-6.076073 6.969836 2.792543 10053171
-4.212735 7.185559 2.790796 10053171
-4.905234 7.061448 2.199314 10053171
-4.865942 7.127678 0.048017 10053171
-4.083030 6.835846 1.566801 10053171
-6.975021 7.249003 0.311342 10053171
-5.469421 7.160543 0.023827 10053171
-3.495442 6.811904 0.752765 10053171
-6.070406 6.815068 0.901842 10053171
-3.518096 6.806574 2.846528 10053171
-3.537201 7.185000 0.902590 10053171
-5.193645 6.828303 2.956369 10053171
-6.953354 6.847684 2.331509 10053171
-4.324973 6.841308 0.580472 10053171
-4.574204 6.837367 0.884639 10053171
-3.517930 6.856978 0.300117 10053171
-6.444433 7.004533 1.140089 10053171
-5.282337 7.243459 1.669441 10053171
-4.220547 7.177508 1.709663 10053171
-5.744150 7.139687 0.923227 10053171
-4.651678 6.949993 2.960117 10053171
-5.840376 7.036702 1.014941 10053171
-5.191128 7.133526 0.272321 10053171
-4.814158 6.863492 2.734490 10053171
-3.332493 7.002163 0.798140 10053171
-3.901623 7.020892 1.815800 10053171
-5.788516 6.996672 1.288390 10053171
-3.316704 6.981194 1.652247 10053171
-3.007691 7.208257 0.796287 10053171
-3.201455 7.209696 2.779259 10053171
-3.181845 7.169240 2.284931 10053171
-6.062634 6.932753 2.238528 10053171
-6.826413 7.067911 2.059678 10053171
-4.049637 6.823916 1.173417 10053171
-3.212856 7.216273 1.681994 10053171
-6.924755 7.161262 1.460459 10053171
-4.295178 6.888069 1.111865 10053171
-5.311395 7.039081 0.108070 10053171
-6.799487 7.151361 2.890674 10053171
-4.217825 6.831789 2.418354 10053171
-3.454402 7.048777 2.653410 10053171
-3.073118 6.794474 1.133138 10053171
-3.465010 7.199848 0.580016 10053171
-3.453593 6.952069 2.314997 10053171
-4.109276 7.066336 2.704190 10053171
-3.718224 7.038299 2.903456 10053171
-5.753130 6.928487 0.460777 10053171
-4.735049 7.119788 1.565096 10053171
5.884939 -5.985081 1.142446 8342706
6.115663 -5.711121 1.790026 8342706
5.433822 -6.086070 3.639029 8342706
6.173388 -6.482987 0.577592 8342706
5.445165 -6.199115 3.036076 8342706
6.163525 -6.461583 4.064262 8342706
6.363853 -6.074464 4.921907 8342706
6.187527 -5.634919 0.318627 8342706
6.012349 -6.177438 3.996054 8342706
6.182973 -5.983968 0.480320 8342706
5.565552 -5.657794 2.008800 8342706
6.157744 -6.424438 3.325871 8342706
6.546842 -5.774053 4.823936 8342706
6.050781 -5.623876 2.410829 8342706
6.457594 -5.952721 1.319440 8342706
6.103806 -6.215819 2.950306 8342706
6.549717 -5.862222 0.297815 8342706
6.368872 -6.426836 2.975499 8342706
6.293243 -5.520815 2.185196 8342706
6.446987 -6.354078 2.673804 8342706
6.211084 -6.085131 2.970331 8342706
6.260762 -5.578108 2.062153 8342706
5.623386 -6.284364 3.517103 8342706
5.830027 -5.544706 0.189651 8342706
5.640131 -5.767059 0.505636 8342706
6.490967 -5.793036 1.407053 8342706
6.024715 -5.419101 0.764293 8342706
6.210495 -6.327436 1.503624 8342706
6.426601 -6.144857 1.592635 8342706
6.534825 -6.035172 3.465975 8342706
5.603577 -6.185740 3.358424 8342706
5.834106 -6.170301 4.694114 8342706
5.783975 -5.532684 2.037159 8342706
6.345190 -5.800055 2.897779 8342706
6.259346 -5.943160 3.547004 8342706
5.460608 -6.123430 0.541529 8342706
6.400273 -5.811758 1.984360 8342706
5.900431 -5.797648 1.722185 8342706
5.742789 -5.853141 3.156805 8342706
5.649843 -6.163509 1.852099 8342706
5.815061 -5.506392 0.789979 8342706
6.450559 -6.067009 0.399179 8342706
5.996826 -6.112501 4.285866 8342706
5.587201 -6.208771 4.570450 8342706
5.736912 -5.756072 4.171780 8342706
5.749764 -5.918350 3.106549 8342706
6.018720 -5.973568 1.454949 8342706
6.430339 -6.276253 2.014443 8342706
5.648626 -5.726579 3.086338 8342706
6.267906 -6.074193 3.926110 8342706
5.396958 -6.003215 4.578015 8342706
5.962486 -5.463340 4.487729 8342706
5.509126 -5.961469 3.230033 8342706
6.425352 -5.932252 1.935606 8342706
6.138575 -6.482934 4.285118 8342706
6.360154 -5.866649 1.194077 8342706
5.401182 -5.962189 2.371427 8342706
5.495606 -5.756508 4.312904 8342706
6.436318 -6.000949 2.994934 8342706
6.124998 -5.647414 4.832064 8342706
6.284865 -5.874096 2.124135 8342706
5.817081 -5.445282 2.075696 8342706
5.873865 -6.329523 3.552333 8342706
5.982274 -5.506179 3.508668 8342706
5.782310 -6.033268 4.509282 8342706
5.834875 -6.075391 1.757134 8342706
6.162912 -5.753612 2.021038 8342706
6.161802 -6.299461 1.947063 8342706
5.775802 -6.229812 1.521404 8342706
5.605144 -6.247553 1.052724 8342706
5.855643 -6.384448 1.240500 8342706
5.965434 -5.967041 3.028611 8342706
6.056757 -6.102955 4.755940 8342706
5.774171 -5.790247 0.599254 8342706
5.744598 -6.086529 2.495226 8342706
5.950269 -5.993305 3.141602 8342706
5.478570 -6.190019 1.932134 8342706
6.097231 -5.597951 0.158439 8342706
6.429259 -5.933336 1.233908 8342706
6.560879 -6.077429 3.886376 8342706
6.057157 -6.211978 3.282029 8342706
5.595634 -5.645456 1.960042 8342706
6.098399 -6.279091 4.451942 8342706
6.134841 -5.577986 4.642933 8342706
6.424684 -5.694037 0.210189 8342706
5.964473 -6.156181 2.704808 8342706
6.243095 -5.990383 2.436505 8342706
5.496632 -6.163597 3.681714 8342706
6.043207 -6.309834 2.001275 8342706
5.867702 -6.349377 1.002639 8342706
6.179240 -6.414977 4.447664 8342706
5.553377 -5.929432 3.876504 8342706
5.693322 -6.386137 2.522491 8342706
6.092672 -6.498683 1.388415 8342706
5.861297 -5.875291 4.542986 8342706
5.602726 -5.766398 2.341698 8342706
6.458570 -5.837529 2.606032 8342706
6.123935 -6.407202 0.589338 8342706
5.575344 -6.133000 1.871275 8342706
6.313937 -6.039773 1.890144 8342706
6.572070 -6.062523 3.638542 8342706
5.671996 -6.371998 0.615028 8342706
5.681758 -6.463552 0.770554 8342706
6.213706 -6.006988 2.574631 8342706
5.641632 -6.019743 3.299553 8342706
5.770123 -5.594829 4.697814 8342706
5.753129 -6.257297 4.009633 8342706
5.654342 -5.833047 1.233206 8342706
6.427671 -5.957945 4.432585 8342706
5.834996 -5.614269 3.526301 8342706
6.035948 -5.814721 0.934064 8342706
6.189176 -6.370028 1.753197 8342706
6.158322 -5.805397 1.594729 8342706
5.973876 -5.776138 4.063642 8342706
6.040448 -6.202742 4.606447 8342706
5.772680 -6.148135 0.231154 8342706
5.906981 -5.648231 1.687572 8342706
6.208426 -5.648468 3.863954 8342706
5.696123 -5.978341 3.097425 8342706
5.795383 -6.191176 2.618131 8342706
5.683228 -5.861377 2.892978 8342706
5.615742 -6.234772 3.724961 8342706
5.887573 -6.591327 1.071605 8342706
6.108116 -5.806546 1.671508 8342706
6.309744 -6.313949 0.526905 8342706
6.367528 -5.706355 2.299576 8342706
6.134929 -5.576290 3.079646 8342706
5.675051 -5.684875 1.211892 8342706
5.998511 -5.716299 3.720200 8342706
6.189014 -6.042097 4.406540 8342706
6.520950 -6.135832 2.692412 8342706
6.357318 -6.133531 3.376011 8342706
5.665737 -6.283648 4.700166 8342706
6.283381 -5.515384 4.641901 8342706
5.976428 -6.213436 3.562644 8342706
5.770515 -5.650244 2.612666 8342706
6.083478 -6.558660 4.488174 8342706
5.534416 -5.764307 4.273727 8342706
5.529249 -6.134621 2.883481 8342706
6.120396 -5.636605 2.469309 8342706
5.690904 -5.881665 4.041537 8342706
5.876066 -5.424030 3.052489 8342706
6.498486 -5.829823 0.107682 8342706
6.041642 -5.437264 0.386964 8342706
6.386659 -5.752148 0.060980 8342706
6.062778 -5.759868 0.513435 8342706
5.670160 -5.699775 3.089913 8342706
6.330123 -6.214944 1.530567 8342706
6.131058 -5.791687 2.475813 8342706
5.770914 -6.149800 1.612476 8342706
5.982510 -6.204088 0.118469 8342706
5.855089 -6.037055 3.749515 8342706
5.729262 -6.172060 3.374738 8342706
6.296521 -6.230929 4.602265 8342706
6.307589 -6.449605 3.377665 8342706
6.024640 -6.533329 4.177839 8342706
6.019837 -5.675883 4.225324 8342706
5.713264 -5.628776 4.200976 8342706
6.183475 -5.862932 1.900418 8342706
5.486153 -6.243202 4.636263 8342706
5.899055 -6.325521 4.697341 8342706
6.054986 -6.437302 1.322546 8342706
6.132880 -5.612106 2.048441 8342706
5.960669 -6.186138 1.699437 8342706
6.003068 -6.026596 4.538534 8342706
6.079817 -5.630985 1.153578 8342706
6.121364 -6.297381 1.563056 8342706
5.731131 -5.755836 0.116973 8342706
6.338767 -6.162226 3.045197 8342706
6.105167 -5.571505 2.624387 8342706
6.274016 -5.858374 1.027606 8342706
5.611874 -6.066910 1.909797 8342706
5.732663 -5.664416 2.246743 8342706
5.802172 -5.656508 2.601534 8342706
5.513795 -5.946599 3.583781 8342706
6.018921 -5.850764 1.890561 8342706
5.695234 -5.881881 1.461772 8342706
5.744756 -6.263211 2.825860 8342706
6.009278 -6.308374 4.905112 8342706
5.967587 -6.450025 4.823885 8342706
6.093919 -5.593768 3.828215 8342706
5.638929 -5.573832 1.998028 8342706
6.551534 -6.014393 4.250894 8342706
5.652339 -5.590153 1.926620 8342706
6.098521 -6.443151 1.679629 8342706
5.600622 -6.238556 1.864089 8342706
6.325915 -5.906672 3.515521 8342706
6.477793 -5.829303 3.819980 8342706
6.449555 -6.105354 3.862521 8342706
6.118146 -5.849466 3.356765 8342706
6.142664 -6.398806 1.032633 8342706
5.660892 -6.161501 3.325576 8342706
6.511208 -6.323433 0.123011 8342706
6.399117 -6.110328 4.931196 8342706
5.425992 -5.918426 3.782493 8342706
6.500768 -6.041238 0.215257 8342706
6.249484 -5.669343 3.721826 8342706
6.091384 -5.998331 2.457135 8342706
6.280745 -5.985353 0.673938 8342706
6.425410 -5.970746 2.410782 8342706
6.101938 -6.501998 2.767884 8342706
6.414941 -6.082883 1.377043 8342706
6.205166 -5.650161 1.088751 8342706
6.248483 -5.572832 4.332228 8342706
6.163073 -6.452872 0.734945 8342706
5.639279 -6.034029 3.173754 8342706
6.542118 -5.818161 1.091862 8342706
6.160483 -5.794110 2.587034 8342706
5.998174 -6.076655 2.538096 8342706
6.372062 -5.688592 1.808225 8342706
5.979001 -6.101572 3.838158 8342706
6.504721 -6.013253 1.593348 8342706
5.500230 -6.280108 0.748322 8342706
5.818576 -6.331295 4.975565 8342706
6.460665 -5.770303 3.968714 8342706
6.233414 -6.012918 0.126439 8342706
6.283397 -5.833528 3.593131 8342706
6.479255 -6.088309 4.569706 8342706
5.911576 -6.047827 3.127548 8342706
6.386111 -6.259506 1.784020 8342706
6.013065 -5.439558 1.972805 8342706
5.402443 -5.959294 4.262584 8342706
6.076718 -6.061359 2.977113 8342706
6.247844 -5.945458 3.235391 8342706
5.644637 -6.182614 3.353111 8342706
6.132345 -6.363982 4.407150 8342706
6.096258 -5.532110 4.113051 8342706
5.922099 -5.871845 2.919901 8342706
5.410676 -6.105134 2.057492 8342706
6.309367 -6.422662 4.889797 8342706
5.633402 -6.398614 2.932928 8342706
6.314572 -6.328261 2.351196 8342706
6.422804 -5.812124 1.056377 8342706
6.440895 -5.876200 2.282404 8342706
5.998530 -5.511250 2.064269 8342706
6.229702 -5.752020 0.458929 8342706
5.902804 -6.270658 1.586039 8342706
6.381383 -5.757164 2.442465 8342706
6.362281 -5.549582 4.086047 8342706
6.468565 -6.175952 1.491446 8342706
6.186605 -5.822650 3.244215 8342706
5.718824 -6.397148 3.098903 8342706
6.252668 -5.554874 4.485544 8342706
6.027136 -5.897364 0.767951 8342706
5.594043 -6.391883 4.402387 8342706
5.624719 -5.739858 4.246730 8342706
6.206236 -5.845555 1.367257 8342706
5.742836 -5.796482 1.064194 8342706
5.877787 -6.110445 0.636562 8342706
6.196220 -5.441367 1.196310 8342706
6.280564 -5.520363 1.173518 8342706
5.655132 -6.280402 4.291731 8342706
5.925787 -6.045770 4.946302 8342706
6.216852 -5.558179 3.771127 8342706
5.657313 -6.047398 4.279540 8342706
6.095948 -6.559561 4.285565 8342706
5.678081 -5.717947 3.968398 8342706
5.560981 -6.079042 3.780320 8342706
6.232716 -6.403263 1.028248 8342706
6.560577 -5.957181 0.493143 8342706
5.988352 -5.542290 2.920548 8342706
6.199327 -6.405604 1.670886 8342706
5.505033 -6.211773 3.934586 8342706
5.586397 -6.446899 2.794399 8342706
5.805780 -5.476886 2.245690 8342706
6.524561 -6.242230 2.083515 8342706
6.058616 -6.360275 0.534914 8342706
5.455257 -5.852082 2.604164 8342706
5.839649 -5.682324 2.542311 8342706
6.316524 -6.089918 0.220597 8342706
6.056886 -5.627985 4.356824 8342706
6.512514 -6.277759 4.444049 8342706
5.826223 -6.412043 4.419790 8342706
5.461088 -5.784698 4.337846 8342706
5.952899 -5.486519 1.512958 8342706
6.549048 -6.206652 4.018728 8342706
6.380787 -6.171085 1.413221 8342706
5.805040 -6.186652 3.733860 8342706
6.099857 -6.334085 1.930226 8342706
5.541536 -5.638217 3.367808 8342706
5.804713 -6.449695 3.530238 8342706
5.509803 -5.704826 3.925807 8342706
6.163764 -5.556630 0.045358 8342706
6.372645 -5.965819 2.641125 8342706
6.393445 -6.076336 1.755940 8342706
5.793724 -5.798155 3.217715 8342706
6.018065 -5.803521 3.175000 8342706
6.312788 -6.062970 2.032002 8342706
6.365242 -5.819765 2.216480 8342706
6.069734 -5.801213 0.115070 8342706
5.833267 -6.053178 0.108434 8342706
6.220911 -6.438017 0.885987 8342706
6.358328 -6.484513 0.747745 8342706
6.145187 -6.351136 4.237103 8342706
5.869985 -6.516967 1.819969 8342706
5.647160 -5.893206 0.987037 8342706
5.761384 -5.659865 2.686513 8342706
6.220051 -5.732574 0.420225 8342706
6.103942 -5.413880 2.094726 8342706
6.026360 -6.503250 1.075504 8342706
6.257555 -5.550442 1.306245 8342706
6.449178 -5.677009 3.620110 8342706
6.502529 -6.258629 0.319413 8342706
5.778059 -5.925911 4.002672 8342706
6.188666 -6.120023 1.744020 8342706
6.113595 -6.221185 3.233216 8342706
5.595084 -6.249094 3.704598 8342706
6.539452 -6.145105 1.855134 8342706
6.261618 -6.217245 1.708889 8342706
5.565316 -5.796336 2.488920 8342706
6.382858 -6.403392 2.038718 8342706
6.113882 -6.223829 3.583903 8342706
6.173441 -6.577898 4.285101 8342706
6.444168 -6.374474 3.682509 8342706
6.103755 -5.546603 2.011988 8342706
6.095275 -5.476556 0.885949 8342706
6.129354 -6.428409 1.171819 8342706
5.670563 -6.074604 0.129602 8342706
5.852862 -5.590034 2.634146 8342706
5.794940 -6.383652 2.643270 8342706
6.105921 -5.480544 3.470128 8342706
5.762475 -6.289883 3.361834 8342706
6.315627 -6.333980 1.085789 8342706
5.807729 -6.552959 4.763222 8342706
6.257832 -5.663436 4.896846 8342706
6.001202 -6.485272 1.865616 8342706
5.681267 -5.776938 0.304209 8342706
6.314552 -5.528873 4.301181 8342706
5.599804 -5.858883 4.372996 8342706
6.218727 -5.597088 0.520955 8342706
6.276394 -6.367650 4.011017 8342706
6.176543 -6.555419 0.571621 8342706
6.194656 -5.858053 1.031250 8342706
6.437815 -6.154431 2.754632 8342706
6.051342 -6.393045 3.751250 8342706
6.002728 -5.550518 2.046566 8342706
6.468313 -6.177896 3.305474 8342706
6.100901 -5.436718 0.216435 8342706
5.485161 -5.706231 4.399431 8342706
6.168312 -6.340787 1.661091 8342706
6.441728 -5.587109 1.832276 8342706
5.873517 -6.104566 0.932873 8342706
6.356317 -5.593931 3.704631 8342706
5.635484 -6.139543 3.748875 8342706
6.510238 -5.892428 1.173193 8342706
5.721313 -6.005219 2.424251 8342706
6.252270 -6.355700 2.950942 8342706
5.685179 -6.381547 4.097305 8342706
6.044591 -6.292958 3.889489 8342706
6.400966 -5.562482 4.951855 8342706
6.524145 -6.270211 4.648965 8342706
6.024638 -5.920463 3.862924 8342706
6.160800 -6.376450 4.326050 8342706
5.738591 -6.218451 2.009549 8342706
6.451675 -5.859489 2.124324 8342706
6.439368 -5.976527 2.204705 8342706
5.861610 -5.448343 1.048111 8342706
6.500527 -5.820727 0.291451 8342706
5.840241 -5.459484 1.389189 8342706
6.226915 -5.702982 4.825988 8342706
5.996615 -5.633492 1.231340 8342706
6.494411 -5.782828 2.273807 8342706
5.769403 -6.214577 3.674618 8342706
6.276449 -6.203971 1.507753 8342706
5.980757 -6.398578 3.982917 8342706
6.001837 -5.821251 2.269652 8342706
6.177207 -6.044369 4.087558 8342706
6.173482 -6.410603 4.345787 8342706
6.285901 -5.610460 4.750818 8342706
6.362847 -5.822145 3.613016 8342706
6.002094 -5.793780 3.170654 8342706
6.541901 -5.883751 3.028500 8342706
6.283663 -5.871524 2.838559 8342706
6.294964 -6.329556 1.988385 8342706
5.747892 -5.703811 3.610625 8342706
5.721570 -5.710294 3.077734 8342706
6.275676 -5.983991 1.474993 8342706
6.368686 -6.225980 1.090004 8342706
5.842692 -5.578368 2.979078 8342706
5.521791 -5.892715 0.112021 8342706
5.641254 -5.642532 0.443778 8342706
5.627264 -5.579312 2.871814 8342706
5.993084 -5.505010 2.125262 8342706
5.516714 -6.121625 1.890422 8342706
6.123385 -5.511250 3.487952 8342706
5.432852 -5.906330 4.596692 8342706
5.463482 -5.799780 2.914535 8342706
6.187649 -6.298865 1.850072 8342706
5.558263 -6.399020 0.832056 8342706
5.894423 -6.511192 1.636236 8342706
6.089451 -6.339509 3.415531 8342706
5.952413 -6.494873 4.604860 8342706
6.328999 -6.153352 0.797792 8342706
6.505727 -6.330527 1.438082 8342706
6.560210 -5.936168 3.391318 8342706
5.572702 -6.081122 1.100372 8342706
6.266658 -6.285467 1.954305 8342706
6.154899 -6.307662 2.961511 8342706
6.061496 -6.531894 4.975334 8342706
5.972867 -6.460065 0.606863 8342706
6.292099 -5.763216 1.741931 8342706
6.388770 -5.923549 1.309173 8342706
6.222630 -6.393707 0.496657 8342706
6.314540 -6.119796 2.896113 8342706
6.490228 -6.139066 0.100726 8342706
6.104785 -5.651628 1.234623 8342706
6.481154 -6.279133 4.301055 8342706
6.462838 -5.659140 4.803910 8342706
6.509098 -6.162304 3.612917 8342706
6.315626 -6.337481 1.592408 8342706
5.743831 -6.298279 0.426160 8342706
6.161511 -5.585428 2.707245 8342706
6.246293 -6.035301 3.871258 8342706
6.311404 -5.859674 0.409648 8342706
6.215535 -5.865394 3.962603 8342706
5.795238 -6.404827 3.268787 8342706
6.385532 -6.205316 0.016117 8342706
6.346147 -5.759956 1.366830 8342706
6.286686 -5.998981 4.221565 8342706
6.353446 -6.076375 2.050093 8342706
5.775856 -5.594319 4.386685 8342706
5.840644 -6.021533 0.867601 8342706
6.057458 -5.725819 4.190333 8342706
5.502904 -5.741942 4.005610 8342706
6.466743 -6.119298 1.749305 8342706
6.280154 -6.450706 1.692007 8342706
6.275016 -6.214232 4.626747 8342706
5.536664 -6.336619 1.227008 8342706
6.010201 -6.255594 3.467814 8342706
6.241912 -5.559295 3.772520 8342706
6.037213 -6.577072 3.682604 8342706
5.928301 -6.027532 1.730144 8342706
5.808195 -5.615913 2.746402 8342706
6.169718 -6.333038 0.930043 8342706
6.183732 -6.003355 3.870359 8342706
6.123409 -6.302109 1.965487 8342706
5.773077 -6.136007 1.035641 8342706
6.561305 -6.009603 1.748874 8342706
5.729924 -6.102445 4.307957 8342706
6.477190 -5.776209 1.031846 8342706
5.539659 -5.865637 0.786325 8342706
6.311162 -6.018244 4.989871 8342706
6.180522 -6.566250 4.122453 8342706
6.080205 -6.396058 4.728542 8342706
5.980040 -5.827208 1.402531 8342706
6.517249 -6.143761 5.004362 8342706
6.144391 -6.087741 1.653749 8342706
5.825206 -5.965492 2.085654 8342706
5.723750 -5.953398 3.019501 8342706
6.490275 -6.257555 4.091758 8342706
5.494326 -5.881876 3.602613 8342706
6.164991 -6.082131 0.981283 8342706
5.866814 -6.269462 1.918799 8342706
5.962584 -5.648194 2.398931 8342706
6.322150 -6.262162 0.085271 8342706
5.814315 -5.564667 4.585196 8342706
5.994294 -5.478241 4.068674 8342706
5.783654 -5.451601 3.569056 8342706
6.385677 -6.364951 1.543236 8342706
5.496310 -6.017038 4.715359 8342706
6.057330 -6.509309 0.118019 8342706
6.535213 -5.980572 1.520623 8342706
6.365399 -5.567769 3.372893 8342706
5.779984 -5.879979 0.839265 8342706
6.002592 -6.005391 0.877179 8342706
5.632954 -5.906354 2.216703 8342706
5.725998 -5.622211 2.277744 8342706
5.787787 -6.123531 3.534750 8342706
6.336171 -5.502894 1.129817 8342706
