# .PCD v0.7 - Point Cloud Data file format
VERSION 0.7
FIELDS x y z rgb
SIZE 4 4 4 4
TYPE F F F U
COUNT 1 1 1 1
WIDTH 1287
HEIGHT 1
VIEWPOINT 0 0 0 1 0 0 0
POINTS 1287
DATA ascii
-8.555698 2.382786 1.636691 15014169
-8.699012 2.903511 0.604789 15014169
-8.991872 2.596482 0.612900 15014169
-8.454049 2.449209 1.345981 15014169
-8.758645 2.456777 1.333915 15014169
-8.976112 2.922466 1.629604 15014169
-8.381358 2.604197 0.341952 15014169
-8.357002 2.571811 1.281562 15014169
-8.763829 2.319675 1.507258 15014169
-8.571594 2.827707 1.064804 15014169
-8.417352 2.935600 0.324867 15014169
-8.977242 2.475363 0.492419 15014169
-8.537100 2.609921 1.530927 15014169
-8.897359 2.613353 0.324004 15014169
-8.540475 2.644056 0.465834 15014169
-8.433171 2.959562 0.413172 15014169
-8.988568 2.607867 1.140222 15014169
-8.809302 2.790393 0.599595 15014169
-8.655348 2.701201 0.902234 15014169
-8.922773 2.460107 0.484730 15014169
-8.819101 2.468110 1.045407 15014169
-8.627353 2.623744 0.745662 15014169
-8.625492 2.930892 1.476122 15014169
-8.960751 2.525910 0.874453 15014169
-8.540202 2.794285 0.908004 15014169
-8.745437 2.876044 1.072451 15014169
-8.398681 2.348799 0.816153 15014169
-8.352188 2.779351 1.559091 15014169
-8.853820 2.821376 0.605021 15014169
-8.652842 2.447932 0.917641 15014169
-8.478550 2.517831 1.180837 15014169
-8.706145 2.943883 1.228096 15014169
-8.582210 2.550777 1.036979 15014169
-8.997054 2.373116 1.578758 15014169
-8.971003 2.955652 1.303437 15014169
-8.582746 2.841334 0.494686 15014169
-8.462693 2.805138 1.050547 15014169
-8.702635 2.645210 0.924879 15014169
-8.464649 2.518130 0.391150 15014169
-8.355700 2.634012 1.352078 15014169
-8.557415 2.692483 0.479040 15014169
-8.856932 2.619889 1.074672 15014169
-8.456381 2.532484 0.848568 15014169
-8.407685 2.880510 0.457442 15014169
-8.926587 2.765098 1.104331 15014169
-8.350836 2.822050 1.443817 15014169
-8.879054 2.664345 1.167186 15014169
-9.026223 2.675754 0.930275 15014169
-8.789946 2.515241 1.576357 15014169
-9.022288 2.544676 0.679422 15014169
-8.354138 2.319581 0.938926 15014169
-8.800148 2.792720 1.274494 15014169
-8.547071 2.934629 1.622020 15014169
-8.965785 2.386176 0.347310 15014169
-8.394089 2.998256 0.823185 15014169
-8.982415 2.415415 1.543410 15014169
-8.706352 2.450068 1.185450 15014169
-8.467719 2.646816 0.368027 15014169
-8.763433 2.925897 0.442431 15014169
-8.970165 2.842588 0.481516 15014169
-8.929496 2.493907 0.700817 15014169
-8.811786 2.848676 0.631281 15014169
-8.959101 2.397273 0.809018 15014169
-8.863388 2.882883 1.150835 15014169
-8.813130 3.001216 0.880506 15014169
-8.423766 2.504954 0.734680 15014169
-8.332890 2.372166 1.542886 15014169
-8.360221 2.556775 1.587483 15014169
-8.400734 2.987317 0.464841 15014169
-8.611589 2.845101 1.312202 15014169
-8.459696 2.315306 1.612583 15014169
-8.902028 2.351067 1.664357 15014169
-8.898773 2.887515 0.321574 15014169
-9.014615 2.368238 1.199133 15014169
-8.847602 2.598414 1.637545 15014169
-8.887423 2.467348 0.984080 15014169
-8.845627 2.674895 0.925383 15014169
-8.782116 2.327158 1.365569 15014169
-8.397479 2.552894 0.953330 15014169
-9.002137 2.827734 0.613355 15014169
-8.958827 2.420017 0.558769 15014169
-8.531930 2.610040 1.267577 15014169
-8.907889 2.478134 1.452538 15014169
-9.031197 2.458406 1.475318 15014169
-8.541666 2.505545 1.455598 15014169
-8.916383 2.679407 1.141135 15014169
-8.351344 2.772749 0.787619 15014169
-8.682916 2.483427 1.685253 15014169
-8.724783 2.379310 1.677295 15014169
-8.392617 2.669167 0.328634 15014169
-8.431130 2.942608 1.189556 15014169
-8.842422 2.948689 0.319010 15014169
-8.806881 2.559385 1.482742 15014169
-9.020969 2.764976 1.100708 15014169
-8.785430 2.356052 0.503759 15014169
-8.583963 2.347464 0.377833 15014169
-8.704815 2.669418 0.316813 15014169
-8.645719 2.381941 0.464605 15014169
-8.526702 2.522058 1.379664 15014169
10.834274 -1.250783 0.478716 1645029
10.854523 -0.973562 1.224220 1645029
10.320098 -1.467633 1.075192 1645029
10.557313 -1.226699 1.016943 1645029
10.637715 -1.178751 1.192639 1645029
10.567978 -1.171445 1.488580 1645029
10.600311 -1.122742 0.627471 1645029
10.463327 -1.007725 1.259940 1645029
10.728812 -1.202299 0.952182 1645029
10.689933 -1.627542 0.631492 1645029
11.179640 -1.354313 1.058365 1645029
10.972072 -1.609227 1.255892 1645029
10.460849 -1.358622 0.634977 1645029
11.120833 -1.497756 1.220936 1645029
10.542486 -1.344592 0.838701 1645029
10.324310 -1.056343 1.159145 1645029
10.231695 -1.588712 0.956600 1645029
10.866292 -0.944763 1.140507 1645029
10.938685 -1.155017 1.273055 1645029
10.674756 -1.434248 0.916197 1645029
10.924368 -1.545064 1.171179 1645029
10.507377 -1.535135 1.327577 1645029
10.840723 -1.043802 1.284074 1645029
10.666909 -1.664712 0.673079 1645029
10.781319 -1.781067 0.782565 1645029
10.550414 -1.102885 1.134435 1645029
10.789607 -1.603774 0.839549 1645029
10.619109 -1.301399 0.921110 1645029
11.029534 -1.304079 1.036436 1645029
10.941314 -1.422736 1.133369 1645029
10.488121 -1.504465 0.856114 1645029
10.345100 -1.278269 0.664409 1645029
10.489819 -1.292002 1.330340 1645029
10.522726 -1.302935 0.885773 1645029
11.068884 -1.633487 0.944480 1645029
10.652752 -1.307131 1.071048 1645029
10.734987 -0.931924 1.067395 1645029
10.213877 -1.630667 1.074051 1645029
10.726764 -1.288115 1.160904 1645029
10.471681 -1.661286 1.091679 1645029
10.503596 -1.506383 0.510958 1645029
10.273229 -1.376107 0.870262 1645029
10.903658 -1.463109 1.130836 1645029
10.696647 -1.391290 1.195989 1645029
10.521818 -1.193370 0.701752 1645029
10.814304 -1.211316 0.683063 1645029
10.828505 -0.971116 1.013929 1645029
10.780980 -1.318361 0.875742 1645029
10.586764 -1.369307 0.657385 1645029
10.982606 -1.620671 0.805202 1645029
10.590473 -1.781081 0.967276 1645029
11.058939 -1.392730 0.956474 1645029
10.621262 -1.527122 0.852309 1645029
10.525769 -1.666113 1.351238 1645029
10.590908 -1.202597 0.508891 1645029
11.106927 -1.370986 1.268662 1645029
10.369533 -1.032717 0.722616 1645029
10.367793 -1.150870 0.652308 1645029
10.774212 -1.792652 0.889967 1645029
10.433985 -1.507179 0.867563 1645029
10.698219 -1.773260 0.932273 1645029
10.830405 -1.436519 0.972569 1645029
10.392684 -1.454001 1.024631 1645029
10.563748 -1.115679 0.900160 1645029
10.551199 -0.864319 0.941330 1645029
10.462072 -1.435019 1.424289 1645029
10.549747 -1.477872 1.156412 1645029
10.798280 -1.202480 1.259099 1645029
11.012286 -1.247485 1.145356 1645029
11.142970 -1.254817 0.987917 1645029
10.371494 -1.699397 1.244995 1645029
10.938907 -1.032766 1.067213 1645029
11.071420 -1.365445 1.040920 1645029
10.437912 -1.141550 0.592897 1645029
10.570585 -1.054975 1.214383 1645029
10.707898 -0.956916 1.072273 1645029
10.883718 -1.155971 0.859113 1645029
10.685483 -1.144199 0.538224 1645029
10.996926 -1.341237 1.035063 1645029
11.032162 -1.131398 1.206924 1645029
-4.370525 7.169987 0.483281 10053171
-5.964524 7.085188 0.405684 10053171
-4.433482 6.972854 2.357460 10053171
-5.155437 7.155581 2.892325 10053171
-3.848601 6.979624 0.283813 10053171
-6.676826 6.771686 2.487458 10053171
-4.123363 7.170449 2.542810 10053171
-3.150529 6.948654 1.349724 10053171
-4.402247 6.984012 0.507385 10053171
-3.497813 7.216521 2.577597 10053171
-3.686621 7.193303 2.483436 10053171
-3.277159 6.972865 0.844577 10053171
-3.993665 7.066103 0.163586 10053171
-4.959722 6.817950 1.162382 10053171
-6.823886 6.973934 0.188972 10053171
-4.603752 7.119975 2.213748 10053171
-6.426128 6.985926 1.203239 10053171
-4.671468 6.948785 0.454539 10053171
-6.909736 6.754097 2.834162 10053171
-6.311067 7.224682 2.897591 10053171
-6.068175 7.064369 0.757683 10053171
-6.125174 6.805267 2.789095 10053171
-3.736112 6.882428 2.222258 10053171
-4.827622 7.052056 2.528940 10053171
-6.569795 7.010602 2.656306 10053171
-6.062185 7.135698 1.093502 10053171
-3.409389 7.147579 1.430730 10053171
-4.590158 6.955672 1.345608 10053171
-5.998085 7.228132 2.396501 10053171
-6.666579 7.030461 2.947171 10053171
-6.884169 7.071442 1.109206 10053171
-6.004341 6.762374 0.154588 10053171
-6.139481 7.031224 1.971233 10053171
-3.883661 6.969834 0.590421 10053171
-4.715200 7.163711 0.106370 10053171
-5.876873 7.166571 2.071003 10053171
-4.860500 6.951152 1.410442 10053171
-5.496358 7.237614 2.738527 10053171
-5.064065 6.759288 1.303547 10053171
-6.170625 6.972326 2.539958 10053171
-4.490793 6.937031 2.140859 10053171
-4.096040 7.090801 1.122029 10053171
-3.854553 6.760246 0.912233 10053171
-4.731726 6.941604 2.243085 10053171
-5.568362 6.964599 0.643974 10053171
-3.804650 7.071091 1.157965 10053171
-3.490680 7.080114 2.124526 10053171
-4.293644 7.188469 0.700107 10053171
-4.121138 7.254852 2.553498 10053171
-5.302966 6.978238 1.602143 10053171
-6.762629 7.056530 2.610864 10053171
-5.643712 6.976408 1.206771 10053171
-5.777802 6.846550 2.788241 10053171
-3.528847 6.860877 2.684125 10053171
-3.087523 6.871933 0.632671 10053171
-5.048661 7.050066 2.160664 10053171
-3.507141 7.060172 0.811110 10053171
-5.433090 7.031584 1.608242 10053171
-3.347652 7.059674 2.183963 10053171
-6.463291 7.188750 0.034285 10053171
-6.396048 6.740952 2.579816 10053171
-4.376911 6.968106 2.935086 10053171
-6.328380 6.945553 0.879438 10053171
-3.754011 7.159606 1.042966 10053171
-3.555871 7.039358 2.669132 10053171
-4.164054 6.925138 2.151544 10053171
-6.345319 6.817586 1.058053 10053171
-3.769400 7.008063 1.935299 10053171
-3.890392 7.066737 1.238677 10053171
-5.439298 7.189475 0.712295 10053171
-5.926108 6.937088 2.533229 10053171
-3.280903 6.934696 1.497006 10053171
-6.814184 6.773712 2.292418 10053171
-3.708229 6.982370 1.004838 10053171
-6.500675 7.224636 1.588494 10053171
-5.314502 6.980938 0.867097 10053171
-6.497252 6.891267 0.432118 10053171
-4.510061 7.088006 2.269163 10053171
-6.737894 7.158950 1.137133 10053171
-4.007888 6.899518 0.265691 10053171
-5.767349 7.219238 0.691486 10053171
-6.967324 7.075692 2.912525 10053171
-3.130483 7.095054 2.175644 10053171
-4.129378 7.102314 0.039833 10053171
-4.455643 7.186224 1.342044 10053171
-6.608898 7.209363 0.409773 10053171
-5.833069 6.856358 0.170027 10053171
-3.264649 6.877275 0.137461 10053171
-6.530263 6.927652 1.336036 10053171
-5.966105 6.846932 0.004105 10053171
-5.445995 7.046525 1.765457 10053171
-6.371998 6.996056 2.986003 10053171
-6.063614 6.831809 2.924464 10053171
-4.241588 7.221357 1.423297 10053171
-4.295912 7.095161 2.219907 10053171
-3.897247 7.200222 2.395622 10053171
-5.660652 7.201224 0.403066 10053171
-5.344062 6.904384 0.452776 10053171
-3.342941 6.973401 0.985993 10053171
-6.873701 6.957995 0.253271 10053171
-4.477414 6.798283 1.785721 10053171
-6.239357 7.217997 1.535970 10053171
-3.851388 7.184739 0.872046 10053171
-3.794471 6.962758 2.093477 10053171
-4.814802 7.151891 1.235286 10053171
-5.636522 7.269247 1.600395 10053171
-4.247500 6.949962 0.424917 10053171
-5.522575 7.211430 0.316594 10053171
-3.283306 7.086454 0.138830 10053171
-5.118136 6.783332 1.782024 10053171
-5.624833 7.046384 2.659614 10053171
-5.449084 6.875641 2.363426 10053171
-4.460514 6.934658 0.681243 10053171
-4.787782 6.936338 2.312708 10053171
-6.500436 6.966265 1.163631 10053171
-5.725154 6.784201 1.365947 10053171
-4.584486 6.917747 1.779436 10053171
-4.060490 7.066990 2.560352 10053171
-3.320527 7.030269 0.189184 10053171
-4.649390 6.758648 1.411071 10053171
-3.815344 7.220418 0.849563 10053171
-5.158954 6.854262 0.243051 10053171
-6.418393 6.745441 0.291906 10053171
-5.595832 7.017525 0.832908 10053171
-3.134355 7.196770 1.571947 10053171
-5.381046 7.081788 2.732178 10053171
-5.309696 6.923121 2.700459 10053171
-4.376017 6.903247 0.784309 10053171
-6.982337 7.116429 2.665956 10053171
-4.279499 7.048767 2.898972 10053171
-4.874944 6.973755 0.235500 10053171
-6.482635 6.912313 2.256881 10053171
-5.343011 6.896644 1.767762 10053171
-5.254088 7.045589 1.630214 10053171
-4.624368 6.853036 0.830878 10053171
-3.270781 6.847319 0.429904 10053171
-4.000214 6.961250 1.233886 10053171
-3.761724 7.228993 0.784914 10053171
-5.124691 7.071823 2.742286 10053171
-4.762577 7.168601 1.102498 10053171
-5.660824 6.774981 2.539220 10053171
-5.408153 7.157779 2.281809 10053171
-6.048053 6.983498 2.974829 10053171
-3.708082 6.947161 1.088389 10053171
-4.229677 7.092410 2.727316 10053171
-5.921215 7.050086 0.640052 10053171
-4.959329 6.812362 2.312496 10053171
-3.929791 6.828561 1.359146 10053171
-6.022500 7.213802 1.727321 10053171
-3.603129 7.217566 0.396760 10053171
-5.873803 6.915475 2.262475 10053171
-6.554719 6.873305 1.750385 10053171
-4.766227 6.800719 2.770550 10053171
-6.472780 7.155685 1.216896 10053171
-3.568001 7.000010 1.086509 10053171
-6.271824 6.838910 1.537616 10053171
-3.029655 6.858226 1.557197 10053171
-6.394663 7.232265 0.945831 10053171
-4.808045 6.992770 1.244584 10053171
-6.409688 7.090271 0.932379 10053171
-6.880160 6.879358 2.258275 10053171
-3.728996 7.212687 1.816171 10053171
-4.207219 7.172724 0.809680 10053171
-6.315377 6.783454 2.926179 10053171
-3.047206 6.776583 2.260305 10053171
-6.420192 6.917097 1.507805 10053171
-6.318649 6.992954 1.025275 10053171
-5.149879 6.769498 1.217346 10053171
-3.954368 7.167949 0.950324 10053171
-6.417942 7.080113 0.839210 10053171
-6.239116 6.749439 2.108555 10053171
-3.520360 7.033243 0.943971 10053171
-5.308952 6.976405 2.317032 10053171
-4.481106 6.751955 0.637565 10053171
-5.566580 7.215616 0.175895 10053171
-3.621422 6.929053 1.826522 10053171
-6.987177 7.168152 2.109999 10053171
-6.186314 7.184695 1.954359 10053171
-4.705359 6.907331 0.439322 10053171
-5.550556 6.964721 1.734483 10053171
-6.747833 6.783417 1.271379 10053171
-5.569867 6.801594 1.490508 10053171
-6.406543 6.874706 2.014048 10053171
-5.992209 6.775245 1.053799 10053171
-5.785306 6.761961 2.072990 10053171
-5.552732 6.807070 1.565664 10053171
-3.376162 7.074697 2.636235 10053171
-5.034375 7.032742 0.363870 10053171
-4.211887 7.183847 0.550017 10053171
-5.053179 7.134138 0.825676 10053171
-6.407127 6.920978 2.852066 10053171
-6.875746 6.815835 2.536636 10053171
-6.735360 6.754662 0.438807 10053171
-3.262534 7.079203 1.588324 10053171
-6.027569 6.757957 2.595280 10053171
-4.086934 6.949099 1.550866 10053171
-6.729346 7.223826 0.603885 10053171
-6.911508 6.957493 2.977254 10053171
-4.480703 6.921988 1.939387 10053171
-4.891301 7.103318 2.549862 10053171
-3.977428 7.120714 0.800220 10053171
-4.133532 7.233911 0.519590 10053171
-3.912008 6.772957 1.135126 10053171
-3.463516 7.207136 2.484873 10053171
-3.376955 7.163727 0.182270 10053171
-3.158185 6.774991 0.460772 10053171
-4.787673 7.217971 1.092383 10053171
-6.905061 7.104464 0.576326 10053171
-6.257418 6.774901 1.878211 10053171
-6.652652 6.934094 0.626016 10053171
-6.362248 7.175272 1.697191 10053171
-6.401483 6.809907 1.126693 10053171
-4.961912 6.829464 0.304887 10053171
-5.295026 7.039480 1.132752 10053171
-6.010890 7.087464 1.250298 10053171
-3.181400 6.995625 2.056853 10053171
-4.529857 6.927068 0.158042 10053171
-6.048373 6.840446 0.160060 10053171
-3.643017 7.147305 0.310427 10053171
-3.332429 7.189880 2.614334 10053171
-3.992522 6.905879 2.673318 10053171
-4.128703 6.839828 2.986389 10053171
-5.541167 7.089655 1.943505 10053171
-4.321852 7.157797 0.726979 10053171
-4.273656 6.924533 0.597342 10053171
-3.625557 7.145690 0.595822 10053171
-3.733790 6.959490 0.896086 10053171
-4.649111 7.015326 0.625199 10053171
-4.174387 6.945570 0.215243 10053171
-6.539049 6.805959 2.353211 10053171
-4.732928 7.149139 0.508082 10053171
-5.158455 6.983407 1.452084 10053171
-6.469643 7.252197 1.330585 10053171
-6.967569 7.029357 2.106014 10053171
-6.584232 7.254890 1.468698 10053171
-5.044256 7.132130 2.897153 10053171
-4.723262 6.826380 0.729198 10053171
-4.312536 6.924350 1.318527 10053171
-5.430862 6.793452 2.068103 10053171
-4.013311 6.750542 2.807255 10053171
-5.960307 7.011226 1.388777 10053171
-6.735528 6.765275 0.246401 10053171
-3.295199 7.135643 2.691598 10053171
-5.102882 7.083382 1.735352 10053171
-5.847674 7.197005 0.504710 10053171
-6.224996 6.875472 1.060342 10053171
-6.954048 7.065183 1.606794 10053171
-5.764588 7.215513 2.562507 10053171
-6.215100 6.928349 2.027573 10053171
-3.787469 6.946157 1.355986 10053171
-5.726873 7.159427 0.884060 10053171
-3.127188 6.821154 0.974689 10053171
-3.912164 6.832363 1.110663 10053171
-5.348510 7.172199 1.631908 10053171
-3.498293 6.753169 0.859954 10053171
-4.676595 7.225473 1.567555 10053171
-3.659725 6.985249 2.197830 10053171
-4.562728 7.129281 2.687744 10053171
-4.919797 7.076460 2.101635 10053171
-6.903148 6.809466 2.377194 10053171
-3.388186 7.117606 0.863250 10053171
-5.529057 7.060238 2.911610 10053171
-4.823461 6.929101 0.678658 10053171
-4.596198 7.016049 2.165933 10053171
-6.922983 7.022065 2.187375 10053171
-3.644600 6.850135 1.213033 10053171
-4.324592 6.926588 0.820207 10053171
-6.434161 6.785960 2.055570 10053171
-6.045733 6.797735 2.063624 10053171
-4.841385 6.776360 0.952540 10053171
-3.711740 6.852314 0.011115 10053171
-4.865173 7.110536 2.478656 10053171
-3.731764 7.017507 2.484139 10053171
-5.180589 7.084188 1.520918 10053171
-6.235385 6.837948 1.586187 10053171
-6.693570 7.164762 2.918258 10053171
-3.943325 6.903458 0.952217 10053171
-6.225135 7.048621 0.932354 10053171
-4.908291 7.172302 1.517368 10053171
-3.281297 7.225308 0.917828 10053171
-6.353851 7.072104 1.850469 10053171
-5.678458 6.820696 1.335928 10053171
-3.567307 6.895465 0.416909 10053171
-5.648038 6.790157 2.106021 10053171
-4.290022 7.236870 0.451024 10053171
-3.200427 7.022498 1.429794 10053171
-3.111049 6.941636 1.798142 10053171
-4.066170 6.778319 0.894765 10053171
-4.265594 7.198916 1.307109 10053171
-3.096885 6.860791 0.286503 10053171
-4.032045 7.127987 1.423797 10053171
-5.437632 6.936830 1.065106 10053171
-3.986776 6.953858 0.370745 10053171
-3.789860 6.944510 0.169608 10053171
-5.716547 7.239139 1.861398 10053171
-5.699416 7.224317 1.785302 10053171
-6.027816 6.749366 2.369621 10053171
-3.610046 6.962494 0.817088 10053171
-5.225069 7.130578 1.162840 10053171
-5.128755 6.839294 2.484633 10053171
-4.278872 7.187829 0.627553 10053171
-6.975259 7.208568 0.060411 10053171
-4.006293 6.797851 1.118529 10053171
-4.071876 6.767561 1.840241 10053171
-5.413508 6.859100 2.738167 10053171
-3.285759 7.047964 1.520759 10053171
-3.330066 7.230330 -0.007850 10053171
-3.245396 6.816006 1.498793 10053171
-4.630736 6.934098 1.555830 10053171
-4.951770 6.851389 0.154467 10053171
-6.778080 6.827651 1.549218 10053171
-5.566717 6.941488 0.163729 10053171
-6.926107 6.906668 1.421281 10053171
-4.182114 6.774579 1.314467 10053171
-6.387978 6.907609 0.218396 10053171
-3.343830 6.755250 2.843650 10053171
-4.104795 6.790700 1.414114 10053171
-4.732320 6.841228 1.924206 10053171
-6.165095 6.798060 0.118624 10053171
-5.198985 7.139488 1.846012 10053171
-6.253776 7.113616 2.261823 10053171
-5.136233 7.105606 1.372354 10053171
-6.473090 6.938631 1.318741 10053171
-5.467837 7.074615 0.296849 10053171
-4.948758 7.185321 1.800100 10053171
-3.842540 7.002796 1.637509 10053171
-5.412979 7.079824 2.719205 10053171
-5.698160 7.075106 2.981528 10053171
-6.829122 7.153632 0.793891 10053171
-4.903400 7.172538 1.126017 10053171
-6.979150 6.953914 0.286311 10053171
-6.737513 6.993344 1.033628 10053171
-4.307970 6.811800 1.951458 10053171
-3.982023 7.177281 0.070902 10053171
-3.121826 7.049863 1.324375 10053171
-3.873569 7.025496 0.405772 10053171
-3.127351 6.767413 1.687748 10053171
-3.449922 6.860853 0.295813 10053171
-6.625873 7.091932 1.211665 10053171
-4.086829 7.135693 0.745565 10053171
-3.790536 7.017044 2.063673 10053171
-3.816075 7.051429 1.229285 10053171
-4.635104 7.148823 2.675640 10053171
-4.599471 7.226079 2.341572 10053171
-6.246626 7.162142 0.870178 10053171
-3.102320 6.898446 0.010294 10053171
-4.380822 6.777108 0.506732 10053171
-5.187597 7.023594 2.859080 10053171
-5.322780 6.992352 2.465235 10053171
-3.648453 7.227696 1.086661 10053171
-4.824597 6.794256 0.079206 10053171
-4.752635 7.119827 0.910442 10053171
-4.071074 6.858692 1.499176 10053171
-3.555850 6.962649 0.969595 10053171
-6.977894 7.104817 0.925289 10053171
-3.901737 6.936713 1.352341 10053171
-3.588793 6.948183 2.709060 10053171
-5.496097 6.844574 2.599313 10053171
-5.405871 6.769750 2.411103 10053171
-3.041793 6.811820 2.936692 10053171
-6.158429 6.853167 2.031616 10053171
-4.431831 7.119677 0.768008 10053171
-4.531631 7.032541 0.715422 10053171
-3.189444 7.221248 2.732934 10053171
-5.875456 7.209756 2.543755 10053171
-4.204764 6.896136 2.127759 10053171
-3.194646 6.943973 0.493898 10053171
-5.026095 6.815143 1.841563 10053171
-3.732422 6.959474 0.088652 10053171
-4.307982 7.233255 0.522637 10053171
-6.186166 6.883335 1.537923 10053171
-3.871124 7.202751 0.576257 10053171
-5.446456 6.787375 1.460546 10053171
-3.218957 6.823319 2.172222 10053171
-3.458575 6.955276 0.307861 10053171
-3.941135 7.245761 2.069937 10053171
-6.177004 7.198850 0.253848 10053171
-6.577404 6.890397 0.544963 10053171
-4.632661 6.876374 1.239554 10053171
-5.136276 6.792485 0.022303 10053171
-5.464820 6.811899 0.520126 10053171
-3.767615 6.789762 0.393234 10053171
-5.337434 7.204463 0.681656 10053171
-3.173360 7.181112 1.386268 10053171
-4.925999 6.770117 2.538481 10053171
-6.752608 7.132074 1.625206 10053171
-4.807806 6.784582 1.179472 10053171
-4.083057 7.053318 1.630616 10053171
-4.079330 7.020301 1.591426 10053171
-3.504404 6.923750 2.922823 10053171
-4.081297 7.140453 2.890644 10053171
-6.613304 6.912096 1.742630 10053171
-5.189323 7.033654 1.695558 10053171
-5.119311 7.159656 2.142138 10053171
-4.499235 6.864497 0.051456 10053171
-5.332131 6.767614 2.591129 10053171
-5.175537 6.759894 1.365693 10053171
-4.068435 6.882657 0.731683 10053171
-4.399936 7.053268 1.058136 10053171
-5.237428 7.117177 0.695114 10053171
-3.748621 6.781869 1.895226 10053171
-3.666398 7.240690 2.742714 10053171
-3.358604 7.143894 1.004727 10053171
-4.067557 7.213565 2.633770 10053171
-3.089938 7.168977 2.860465 10053171
-3.589176 7.034124 1.677663 10053171
-5.330338 7.116356 0.101867 10053171
-3.919636 6.923920 2.299352 10053171
-6.407494 7.032489 2.536283 10053171
-3.120735 7.107069 2.782763 10053171
-4.839784 7.151549 0.128159 10053171
-5.895342 6.872304 0.142276 10053171
-4.288038 7.047832 0.566280 10053171
-4.633180 7.142257 0.003964 10053171
-6.624660 7.207705 1.376619 10053171
-6.059724 6.914367 0.080132 10053171
-5.842096 6.759774 2.918381 10053171
-4.480364 7.027790 2.820505 10053171
-5.629126 7.203517 2.560102 10053171
-3.126037 6.973136 0.615813 10053171
-5.745772 6.959965 0.582793 10053171
-4.086465 7.101660 1.545243 10053171
-4.702297 6.773322 1.661109 10053171
-4.973879 7.131492 1.218749 10053171
-4.434826 6.945405 0.500213 10053171
-5.293075 7.228796 0.321020 10053171
-3.852028 6.952639 0.839422 10053171
-4.238440 6.937685 2.680463 10053171
-5.242163 7.116031 1.723297 10053171
-3.010496 6.981471 0.264239 10053171
-5.451114 6.849628 1.044446 10053171
-6.590998 7.079728 2.704454 10053171
-5.122128 6.813112 1.659040 10053171
-3.048578 6.907648 0.730321 10053171
-6.582723 6.989647 1.155605 10053171
-3.064991 6.992348 0.212034 10053171
-6.281837 7.215044 1.913070 10053171
-3.669670 6.947277 1.355305 10053171
-4.187358 7.095751 0.191198 10053171
-3.850894 7.132374 1.800853 10053171
-4.194160 7.020047 1.350845 10053171
-3.102102 6.793246 0.730981 10053171
-5.601973 7.226994 0.109037 10053171
-5.677191 7.016551 2.805546 10053171
-4.798376 6.934085 1.795547 10053171
-5.929379 7.152372 2.018192 10053171
-3.320524 7.113167 0.961576 10053171
-6.491941 6.787030 0.734988 10053171
-6.596184 7.069620 1.932800 10053171
-3.747344 6.870434 0.034860 10053171
-4.619280 7.138862 2.025186 10053171
-5.599770 6.743792 2.667137 10053171
-3.970467 7.085552 0.440433 10053171
-3.901795 6.752470 1.652622 10053171
-5.389346 7.010177 0.809204 10053171
-4.827756 6.848305 1.749872 10053171
-5.772961 6.911344 1.064138 10053171
-6.621744 6.869465 0.173571 10053171
-4.522197 6.974966 1.722623 10053171
-3.711074 7.107856 2.820423 10053171
-5.689520 6.873867 0.090697 10053171
-5.682980 7.036621 0.349406 10053171
-4.249661 6.840430 0.854220 10053171
-5.872465 6.862525 2.085290 10053171
-4.909807 6.834454 2.927672 10053171
-3.178489 6.996882 2.015960 10053171
-3.601058 6.920723 1.120745 10053171
-4.789310 7.130323 2.850592 10053171
-4.539473 7.160587 1.483170 10053171
-3.455865 7.094115 1.077264 10053171
-3.168499 7.148343 0.508593 10053171
-5.416233 7.112490 0.813856 10053171
-6.642423 6.958684 2.580598 10053171
-3.282370 6.913583 2.375420 10053171
-5.869993 7.136981 2.053536 10053171
-4.664236 6.922271 1.465329 10053171
-4.301635 6.856951 2.113684 10053171
-3.011557 6.747565 2.456742 10053171
-3.043396 6.993581 1.054423 10053171
-4.383061 7.199275 0.289064 10053171
-5.485457 7.241832 2.298846 10053171
-5.615778 7.125686 1.126991 10053171
-3.882534 6.881645 1.856504 10053171
-4.666022 7.085541 2.948892 10053171
-4.739696 7.161098 2.668484 10053171
-6.290879 7.047393 1.595957 10053171
-3.125659 7.208656 0.316187 10053171
-4.515840 6.883091 2.768719 10053171
-3.055937 6.939934 1.133328 10053171
-4.444133 7.258994 2.828076 10053171
-5.015783 6.909229 2.678737 10053171
-3.215569 6.987307 0.500628 10053171
-5.966882 6.825681 0.811641 10053171
-4.690936 7.148575 0.301198 10053171
-2.990229 7.036976 0.561785 10053171
-5.438093 6.923523 1.087110 10053171
-3.924556 6.796817 0.615403 10053171
-6.078535 6.963483 2.729452 10053171
-3.309154 6.926304 0.536151 10053171
-5.731585 6.760454 2.841152 10053171
-4.199027 6.861231 0.632754 10053171
-6.608002 7.003497 2.953717 10053171
-6.899894 7.238351 2.520983 10053171
-6.885941 7.219828 0.738363 10053171
-5.269150 7.006796 2.455867 10053171
-5.189528 6.936996 1.276282 10053171
-3.165211 7.135267 1.900798 10053171
-6.387505 6.972422 1.707524 10053171
-4.072087 6.865170 0.117530 10053171
-3.486298 6.882768 0.015951 10053171
-6.098727 6.879694 1.898026 10053171
-3.115745 7.080498 0.781690 10053171
-3.559534 7.040318 2.744553 10053171
-4.246157 7.063361 2.643084 10053171
-3.431423 6.910720 2.427353 10053171
-5.104859 6.898329 2.900261 10053171
-4.449913 7.122306 1.056669 10053171
-6.603831 6.840009 2.030482 10053171
-3.851713 6.883684 2.265470 10053171
-3.555645 6.990335 1.031751 10053171
-4.286797 6.762589 0.880690 10053171
-3.871500 7.016549 0.987808 10053171
-5.358963 6.980138 2.069113 10053171
-3.244934 6.838968 0.503657 10053171
-3.407351 7.258753 0.624781 10053171
-6.377095 6.764539 1.231621 10053171
-5.817744 7.226911 1.588156 10053171
-3.788554 6.881765 0.822212 10053171
-6.558030 6.877806 1.584581 10053171
-4.364849 6.801323 0.968647 10053171
-5.659730 6.922810 0.050754 10053171
-4.406047 7.016416 1.172991 10053171
-4.198030 6.908111 2.110150 10053171
-3.258197 7.172588 1.278018 10053171
-3.732922 7.208109 2.661548 10053171
-5.907104 6.811121 0.061336 10053171
-5.691642 6.797947 1.574086 10053171
-4.946721 6.955332 2.470176 10053171
-6.086421 7.047394 1.129215 10053171
-6.765793 7.245322 2.123719 10053171
-5.467932 6.871971 1.243393 10053171
-6.185841 6.892636 2.908679 10053171
-5.564795 6.774724 2.403191 10053171
-4.515686 7.170543 1.532579 10053171
-5.289936 6.875696 0.625064 10053171
-6.037562 7.238086 1.483895 10053171
-3.522735 6.854131 2.505542 10053171
-5.663588 6.958753 2.293557 10053171
-6.053680 6.964770 1.454329 10053171
-6.564000 6.883050 1.263462 10053171
-6.781355 7.054142 2.620190 10053171
-6.570018 6.884154 1.838561 10053171
-6.051289 6.975190 2.804899 10053171
-4.209845 7.174297 2.776979 10053171
-4.893710 7.071393 2.206460 10053171
-4.851334 7.138427 0.039318 10053171
-4.096090 6.845012 1.577635 10053171
-6.965876 7.247568 0.318837 10053171
-5.465377 7.168673 0.028432 10053171
-3.516457 6.812544 0.731412 10053171
-6.075901 6.784375 0.884121 10053171
-3.533497 6.810562 2.839552 10053171
-3.532625 7.178142 0.920885 10053171
-5.191738 6.825092 2.953823 10053171
-6.930960 6.852900 2.332988 10053171
-4.309612 6.870863 0.603057 10053171
-4.578382 6.866056 0.874999 10053171
-3.502493 6.821064 0.283579 10053171
-6.438704 6.980546 1.146524 10053171
-5.303441 7.246042 1.670438 10053171
-4.232959 7.170815 1.704258 10053171
-5.733149 7.152088 0.928401 10053171
-4.660688 6.977718 2.951502 10053171
-5.843986 7.033048 1.044262 10053171
-5.206898 7.161417 0.271004 10053171
-4.796865 6.853316 2.717083 10053171
-3.313062 6.982401 0.798180 10053171
-3.903487 7.032236 1.803479 10053171
-5.776904 7.004328 1.295349 10053171
-3.324237 6.971469 1.633483 10053171
-2.983703 7.226245 0.811072 10053171
-3.197519 7.220408 2.793759 10053171
-3.161024 7.194245 2.289449 10053171
-6.069517 6.926780 2.236576 10053171
-6.840143 7.042795 2.066707 10053171
-4.085276 6.793876 1.157495 10053171
-3.191708 7.229068 1.700647 10053171
-6.911307 7.159921 1.475057 10053171
-4.274940 6.881551 1.112509 10053171
-5.313409 7.041205 0.112453 10053171
-6.792913 7.153943 2.888165 10053171
-4.214738 6.829109 2.423901 10053171
-3.450836 7.034956 2.652016 10053171
-3.065852 6.789598 1.159976 10053171
-3.490050 7.211638 0.588523 10053171
-3.467403 6.959642 2.311203 10053171
-4.104799 7.084395 2.684038 10053171
-3.737235 7.040231 2.904195 10053171
-5.758815 6.935781 0.469184 10053171
-4.760859 7.123321 1.543434 10053171
5.890521 -5.988472 1.153123 8342706
6.117563 -5.687650 1.795629 8342706
5.442956 -6.086592 3.652591 8342706
6.168950 -6.484627 0.569014 8342706
5.476771 -6.204728 3.042298 8342706
6.182040 -6.451862 4.078995 8342706
6.359950 -6.043740 4.905190 8342706
6.192829 -5.628593 0.316661 8342706
5.998964 -6.188982 4.006414 8342706
6.180432 -5.990930 0.492792 8342706
5.581958 -5.661980 2.013497 8342706
6.170312 -6.432741 3.305377 8342706
6.518741 -5.789429 4.821493 8342706
6.042090 -5.640706 2.418309 8342706
6.469623 -5.951446 1.342615 8342706
6.082223 -6.215337 2.924572 8342706
6.537896 -5.871746 0.289753 8342706
6.346775 -6.426331 2.991346 8342706
6.308554 -5.516006 2.203379 8342706
6.440412 -6.370209 2.677954 8342706
6.195148 -6.094120 2.963943 8342706
6.282631 -5.590839 2.060818 8342706
5.618424 -6.292583 3.519325 8342706
5.811516 -5.575621 0.187979 8342706
5.668215 -5.750569 0.530304 8342706
6.496936 -5.806619 1.416956 8342706
6.054743 -5.433707 0.779242 8342706
6.205811 -6.339645 1.492308 8342706
6.431760 -6.161527 1.586223 8342706
6.533787 -6.035945 3.474927 8342706
5.607808 -6.185875 3.373079 8342706
5.835827 -6.193153 4.715926 8342706
5.793992 -5.522722 2.049450 8342706
6.333085 -5.779187 2.933952 8342706
6.277369 -5.942517 3.544523 8342706
5.459821 -6.122186 0.545784 8342706
6.394611 -5.792698 1.983748 8342706
5.910503 -5.787871 1.719989 8342706
5.744812 -5.865421 3.158966 8342706
5.655420 -6.175104 1.847872 8342706
5.810429 -5.500416 0.797463 8342706
6.465160 -6.087187 0.386166 8342706
5.979572 -6.116033 4.297564 8342706
5.580274 -6.188104 4.564960 8342706
5.733777 -5.745113 4.166988 8342706
5.745644 -5.932609 3.119356 8342706
6.032629 -5.974326 1.435073 8342706
6.389887 -6.263922 2.008827 8342706
5.658244 -5.731897 3.103182 8342706
6.279168 -6.070764 3.921499 8342706
5.403937 -6.002233 4.562202 8342706
5.953697 -5.456404 4.504853 8342706
5.517819 -5.952831 3.239066 8342706
6.418979 -5.948327 1.941743 8342706
6.152650 -6.497140 4.282896 8342706
6.393628 -5.871103 1.192540 8342706
5.405979 -5.957534 2.359203 8342706
5.482255 -5.741353 4.317615 8342706
6.441449 -5.993098 2.995019 8342706
6.116308 -5.653806 4.837211 8342706
6.260984 -5.859025 2.119960 8342706
5.824478 -5.485476 2.075289 8342706
5.876914 -6.326303 3.534345 8342706
5.998256 -5.508965 3.480768 8342706
5.748919 -6.039082 4.527567 8342706
5.838776 -6.063307 1.740522 8342706
6.172518 -5.756751 1.996310 8342706
6.154323 -6.290830 1.954743 8342706
5.777600 -6.239809 1.538741 8342706
5.594368 -6.259663 1.059681 8342706
5.835556 -6.378236 1.243731 8342706
5.973186 -5.939120 3.013794 8342706
6.049166 -6.106482 4.767346 8342706
5.816474 -5.813807 0.603002 8342706
5.732137 -6.075698 2.501908 8342706
5.945929 -6.000538 3.140645 8342706
5.478640 -6.203425 1.920484 8342706
6.092854 -5.585563 0.135926 8342706
6.444054 -5.962895 1.238154 8342706
6.587685 -6.048503 3.864576 8342706
6.034369 -6.199999 3.305933 8342706
5.583026 -5.638086 1.961398 8342706
6.120193 -6.266600 4.440683 8342706
6.100194 -5.582785 4.635811 8342706
6.420941 -5.664496 0.213949 8342706
5.978598 -6.147156 2.693166 8342706
6.231797 -5.966580 2.452030 8342706
5.477540 -6.168632 3.697580 8342706
6.047020 -6.307863 1.983856 8342706
5.867826 -6.320063 0.992772 8342706
6.183570 -6.404905 4.425775 8342706
5.555397 -5.936836 3.861808 8342706
5.699464 -6.390857 2.515877 8342706
6.111788 -6.497371 1.400883 8342706
5.848364 -5.887624 4.543519 8342706
5.608897 -5.766160 2.351351 8342706
6.442789 -5.847990 2.623603 8342706
6.128412 -6.412326 0.586177 8342706
5.559674 -6.138539 1.864224 8342706
6.322037 -6.036003 1.871042 8342706
6.566060 -6.029989 3.629836 8342706
5.652827 -6.384670 0.599573 8342706
5.678690 -6.479437 0.786535 8342706
6.224131 -6.016921 2.562648 8342706
5.628210 -6.025794 3.312856 8342706
5.757158 -5.579965 4.708254 8342706
5.780321 -6.238328 4.044165 8342706
5.655597 -5.838976 1.209720 8342706
6.422838 -5.959693 4.449906 8342706
5.825607 -5.632499 3.513509 8342706
6.029441 -5.808439 0.935112 8342706
6.159268 -6.364740 1.762419 8342706
6.158335 -5.801174 1.608293 8342706
5.983836 -5.765463 4.094641 8342706
6.041048 -6.220293 4.582564 8342706
5.777183 -6.143973 0.220029 8342706
5.895060 -5.640799 1.659593 8342706
6.207247 -5.647372 3.851267 8342706
5.703803 -5.996269 3.100578 8342706
5.823395 -6.204174 2.586499 8342706
5.698843 -5.853551 2.919991 8342706
5.609516 -6.242347 3.733021 8342706
5.884623 -6.577423 1.075911 8342706
6.122705 -5.796030 1.680470 8342706
6.285562 -6.332993 0.541533 8342706
6.376092 -5.707912 2.306595 8342706
6.153111 -5.558200 3.066025 8342706
5.667314 -5.694983 1.260540 8342706
5.992714 -5.717109 3.702333 8342706
6.176150 -6.025450 4.410194 8342706
6.519825 -6.116468 2.691057 8342706
6.327217 -6.153160 3.357197 8342706
5.684883 -6.304781 4.701942 8342706
6.281425 -5.544310 4.624921 8342706
5.992582 -6.247151 3.549268 8342706
5.768746 -5.631876 2.603403 8342706
6.069920 -6.568052 4.494332 8342706
5.522322 -5.758323 4.272980 8342706
5.538966 -6.154452 2.887620 8342706
6.110355 -5.617071 2.465310 8342706
5.693761 -5.884967 4.055569 8342706
5.883096 -5.430677 3.043834 8342706
6.513194 -5.810293 0.108973 8342706
6.060719 -5.457260 0.402444 8342706
6.387444 -5.725685 0.056390 8342706
6.059779 -5.762539 0.511345 8342706
5.647913 -5.707600 3.082551 8342706
6.366563 -6.213840 1.512813 8342706
6.148971 -5.800972 2.479799 8342706
5.784404 -6.151958 1.616397 8342706
5.990105 -6.197595 0.125986 8342706
5.840281 -6.052859 3.755488 8342706
5.730135 -6.157912 3.397835 8342706
6.305793 -6.242354 4.589063 8342706
6.316173 -6.471145 3.381235 8342706
6.027651 -6.560440 4.166221 8342706
6.004397 -5.664711 4.222917 8342706
5.715373 -5.635523 4.239187 8342706
6.202075 -5.882947 1.886672 8342706
5.510795 -6.237690 4.639407 8342706
5.896291 -6.347350 4.703952 8342706
6.047833 -6.450406 1.315585 8342706
6.130205 -5.635427 2.024079 8342706
5.941050 -6.220629 1.692955 8342706
6.018836 -6.028026 4.529157 8342706
6.087425 -5.623255 1.138629 8342706
6.124711 -6.291235 1.566588 8342706
5.729623 -5.740671 0.127213 8342706
6.348490 -6.159296 3.040748 8342706
6.092991 -5.586827 2.628796 8342706
6.255715 -5.864618 1.014616 8342706
5.618088 -6.087012 1.890580 8342706
5.750404 -5.665929 2.266463 8342706
5.799561 -5.649978 2.574628 8342706
5.512971 -5.930365 3.595348 8342706
6.029537 -5.822187 1.864360 8342706
5.699474 -5.885887 1.452671 8342706
5.726146 -6.261805 2.801314 8342706
5.985977 -6.305870 4.902448 8342706
5.986002 -6.446248 4.825419 8342706
6.085574 -5.589759 3.848643 8342706
5.634311 -5.566074 2.015153 8342706
6.522738 -6.040714 4.272269 8342706
5.679086 -5.589158 1.928521 8342706
6.086430 -6.475027 1.686235 8342706
5.601945 -6.225658 1.835955 8342706
6.315055 -5.893473 3.512862 8342706
6.488893 -5.825443 3.845950 8342706
6.417189 -6.100718 3.841886 8342706
6.129247 -5.856869 3.364334 8342706
6.141287 -6.394193 1.030118 8342706
5.664891 -6.161719 3.336653 8342706
6.500350 -6.314240 0.142792 8342706
6.394933 -6.093128 4.933913 8342706
5.438245 -5.935097 3.787233 8342706
6.491022 -6.021744 0.219794 8342706
6.243184 -5.647177 3.734564 8342706
6.122944 -5.998423 2.455657 8342706
6.279778 -5.977046 0.683956 8342706
6.424435 -5.980093 2.416674 8342706
6.087430 -6.501075 2.761711 8342706
6.423334 -6.081111 1.380756 8342706
6.200875 -5.624968 1.078949 8342706
6.267132 -5.587784 4.333921 8342706
6.160696 -6.458220 0.753055 8342706
5.638834 -6.063322 3.178945 8342706
6.510588 -5.809692 1.104650 8342706
6.173679 -5.797609 2.596364 8342706
6.022870 -6.069099 2.547999 8342706
6.361513 -5.704314 1.820816 8342706
5.971756 -6.102441 3.843282 8342706
6.480297 -6.012128 1.589607 8342706
5.490672 -6.277691 0.728464 8342706
5.825281 -6.384595 4.981808 8342706
6.468290 -5.770103 3.967304 8342706
6.234509 -6.026494 0.118163 8342706
6.265075 -5.825240 3.571465 8342706
6.479369 -6.069990 4.565249 8342706
5.912864 -6.055523 3.138260 8342706
6.387940 -6.244964 1.744542 8342706
6.022302 -5.428670 1.959024 8342706
5.416853 -5.975790 4.257568 8342706
6.105995 -6.052351 2.972028 8342706
6.251630 -5.928723 3.244969 8342706
5.628529 -6.182600 3.348362 8342706
6.147019 -6.356980 4.423059 8342706
6.082458 -5.529037 4.128665 8342706
5.923090 -5.841289 2.941621 8342706
5.431511 -6.097976 2.092518 8342706
6.318471 -6.425193 4.898359 8342706
5.641870 -6.372084 2.932053 8342706
6.325174 -6.326497 2.395275 8342706
6.424119 -5.805898 1.062468 8342706
6.428506 -5.861481 2.270214 8342706
5.981548 -5.519078 2.086543 8342706
6.238224 -5.759132 0.459680 8342706
5.900306 -6.280196 1.566789 8342706
6.390219 -5.767081 2.451606 8342706
6.362878 -5.532456 4.102615 8342706
6.482095 -6.170021 1.479512 8342706
6.168651 -5.807653 3.249278 8342706
5.726965 -6.407440 3.113518 8342706
6.270246 -5.552692 4.476250 8342706
6.043084 -5.886484 0.760616 8342706
5.585718 -6.386759 4.394612 8342706
5.598778 -5.731442 4.264500 8342706
6.206410 -5.838866 1.351833 8342706
5.732251 -5.804361 1.063437 8342706
5.863777 -6.095713 0.604581 8342706
6.204077 -5.440330 1.188616 8342706
6.284761 -5.523043 1.155985 8342706
5.644295 -6.248029 4.274127 8342706
5.919287 -6.062451 4.945437 8342706
6.229373 -5.559235 3.774045 8342706
5.641072 -6.022917 4.258910 8342706
6.093857 -6.582135 4.281063 8342706
5.705582 -5.724627 3.943273 8342706
5.549159 -6.072721 3.760905 8342706
6.218665 -6.411887 1.058817 8342706
6.571935 -5.950832 0.515892 8342706
5.995604 -5.537793 2.928849 8342706
6.181319 -6.402248 1.654741 8342706
5.511412 -6.218675 3.932217 8342706
5.611963 -6.451744 2.793175 8342706
5.797753 -5.494950 2.267782 8342706
6.541738 -6.225474 2.085191 8342706
6.065943 -6.368783 0.533217 8342706
5.435711 -5.849321 2.609643 8342706
5.840821 -5.665531 2.538605 8342706
6.297010 -6.090003 0.218462 8342706
6.055550 -5.613276 4.364705 8342706
6.494217 -6.294813 4.428120 8342706
5.803588 -6.402663 4.403334 8342706
5.467905 -5.776815 4.343939 8342706
5.955588 -5.504355 1.527436 8342706
6.545422 -6.194788 4.023621 8342706
6.396311 -6.172094 1.430897 8342706
5.826421 -6.173554 3.747767 8342706
6.119318 -6.335368 1.911725 8342706
5.553335 -5.643871 3.368443 8342706
5.794951 -6.457154 3.529995 8342706
5.512715 -5.684411 3.925377 8342706
6.169752 -5.570018 0.058861 8342706
6.343600 -5.967267 2.660285 8342706
6.373689 -6.075367 1.740546 8342706
5.785803 -5.788751 3.233717 8342706
6.025908 -5.812624 3.183704 8342706
6.307743 -6.035861 2.039736 8342706
6.372578 -5.815989 2.214226 8342706
6.048250 -5.821326 0.090783 8342706
5.825050 -6.073689 0.093898 8342706
6.214886 -6.456734 0.887199 8342706
6.349239 -6.474010 0.740076 8342706
6.155359 -6.355692 4.243758 8342706
5.880934 -6.526094 1.840682 8342706
5.639121 -5.892170 0.974630 8342706
5.784483 -5.667332 2.691507 8342706
6.197283 -5.755238 0.395281 8342706
6.072775 -5.410057 2.101380 8342706
6.020576 -6.495496 1.057838 8342706
6.228186 -5.542154 1.282608 8342706
6.451220 -5.675016 3.609275 8342706
6.499040 -6.261663 0.334827 8342706
5.771397 -5.928251 4.023814 8342706
6.168886 -6.117915 1.747315 8342706
6.121862 -6.215915 3.247064 8342706
5.600920 -6.254885 3.698693 8342706
6.534494 -6.140561 1.841159 8342706
6.259612 -6.238678 1.682845 8342706
5.546717 -5.792998 2.481429 8342706
6.384739 -6.399083 2.009121 8342706
6.117448 -6.223053 3.600308 8342706
6.148457 -6.573018 4.281725 8342706
6.439547 -6.388818 3.691996 8342706
6.127163 -5.546319 2.016309 8342706
6.086226 -5.450548 0.899300 8342706
6.137599 -6.445092 1.159890 8342706
5.675276 -6.072580 0.110453 8342706
5.852675 -5.612361 2.618401 8342706
5.802709 -6.383033 2.632253 8342706
6.077677 -5.495440 3.461617 8342706
5.770414 -6.274604 3.357505 8342706
6.315619 -6.325391 1.076377 8342706
5.802509 -6.530813 4.758237 8342706
6.252095 -5.676565 4.911475 8342706
6.020100 -6.481495 1.869440 8342706
5.680170 -5.772156 0.329576 8342706
6.308827 -5.522422 4.285436 8342706
5.597389 -5.839681 4.365139 8342706
6.235009 -5.591840 0.504633 8342706
6.275759 -6.372493 4.009493 8342706
6.197540 -6.560421 0.570907 8342706
6.186110 -5.852418 1.030908 8342706
6.452221 -6.153934 2.768002 8342706
6.024096 -6.382620 3.718333 8342706
5.981172 -5.546331 2.049862 8342706
6.452338 -6.195768 3.300171 8342706
6.116371 -5.439947 0.228501 8342706
5.477955 -5.708019 4.403852 8342706
6.175491 -6.335260 1.664634 8342706
6.411102 -5.616959 1.849545 8342706
5.882977 -6.100966 0.925489 8342706
6.359612 -5.594506 3.690000 8342706
5.640484 -6.124293 3.742379 8342706
6.523230 -5.914774 1.178041 8342706
5.729811 -6.004158 2.406560 8342706
6.253355 -6.341415 2.935538 8342706
5.710402 -6.380572 4.098672 8342706
6.046501 -6.273757 3.902066 8342706
6.394562 -5.550393 4.949368 8342706
6.526586 -6.260338 4.645106 8342706
6.010823 -5.922988 3.875138 8342706
6.173533 -6.368430 4.338479 8342706
5.736598 -6.186859 1.998182 8342706
6.451497 -5.888652 2.117101 8342706
6.446628 -5.979279 2.218056 8342706
5.873746 -5.438716 1.056583 8342706
6.479424 -5.811826 0.293681 8342706
5.848859 -5.477786 1.401894 8342706
6.240955 -5.686969 4.833156 8342706
5.958297 -5.654691 1.257732 8342706
6.480765 -5.799692 2.249865 8342706
5.798275 -6.210470 3.682369 8342706
6.264396 -6.206848 1.524364 8342706
5.955358 -6.395655 3.985046 8342706
6.003756 -5.825955 2.286244 8342706
6.168816 -6.054987 4.125953 8342706
6.163126 -6.410622 4.341456 8342706
6.291316 -5.598002 4.733381 8342706
6.330804 -5.831904 3.619879 8342706
5.989878 -5.803939 3.168288 8342706
6.543449 -5.881368 3.040045 8342706
6.271493 -5.868109 2.826143 8342706
6.303708 -6.343490 1.990224 8342706
5.763007 -5.704809 3.615077 8342706
5.717670 -5.735082 3.061999 8342706
6.262559 -5.982386 1.443590 8342706
6.376119 -6.243344 1.060332 8342706
5.831350 -5.574515 2.987725 8342706
5.507408 -5.904006 0.122742 8342706
5.669782 -5.657722 0.457956 8342706
5.607089 -5.593059 2.857039 8342706
5.999523 -5.508396 2.120193 8342706
5.530973 -6.114894 1.877735 8342706
6.120541 -5.498656 3.490988 8342706
5.446152 -5.921061 4.587154 8342706
5.480062 -5.812567 2.928576 8342706
6.203001 -6.327617 1.849281 8342706
5.571983 -6.389775 0.832771 8342706
5.868531 -6.523520 1.630766 8342706
6.076647 -6.325239 3.451166 8342706
5.983569 -6.494570 4.599454 8342706
6.360031 -6.147139 0.791069 8342706
6.501035 -6.329033 1.450261 8342706
6.557118 -5.925429 3.414059 8342706
5.583871 -6.079984 1.108365 8342706
6.266098 -6.294711 1.963060 8342706
6.153347 -6.312680 2.954522 8342706
6.069656 -6.510212 4.977244 8342706
5.972430 -6.445996 0.613607 8342706
6.274742 -5.763378 1.754431 8342706
6.394033 -5.922646 1.300971 8342706
6.217567 -6.394445 0.484598 8342706
6.267762 -6.132804 2.904489 8342706
6.472631 -6.141195 0.075329 8342706
6.082906 -5.662415 1.228325 8342706
6.468525 -6.299982 4.272488 8342706
6.445868 -5.659281 4.806032 8342706
6.504662 -6.178900 3.625283 8342706
6.324306 -6.337647 1.595867 8342706
5.753420 -6.307930 0.427418 8342706
6.173275 -5.580592 2.700467 8342706
6.221352 -6.045829 3.844664 8342706
6.316298 -5.853602 0.395358 8342706
6.211069 -5.835028 3.955529 8342706
5.803994 -6.393850 3.282963 8342706
6.406047 -6.198587 0.005729 8342706
6.360880 -5.764994 1.362197 8342706
6.297617 -5.997399 4.218356 8342706
6.346950 -6.081784 2.035147 8342706
5.780976 -5.558382 4.383779 8342706
5.846123 -6.024704 0.856431 8342706
6.035844 -5.737624 4.166319 8342706
5.526124 -5.732310 3.983965 8342706
6.474103 -6.113289 1.756598 8342706
6.299037 -6.440016 1.695233 8342706
6.272357 -6.214628 4.621738 8342706
5.519079 -6.328103 1.231228 8342706
6.025949 -6.221998 3.455904 8342706
6.233176 -5.570639 3.767723 8342706
6.046127 -6.579796 3.672020 8342706
5.934739 -6.022041 1.742954 8342706
5.810491 -5.632452 2.752003 8342706
6.180326 -6.303237 0.919428 8342706
6.194616 -5.995566 3.889675 8342706
6.136109 -6.286036 1.972886 8342706
5.747828 -6.162820 1.044758 8342706
6.602027 -6.020964 1.764559 8342706
5.726535 -6.098670 4.316030 8342706
6.483365 -5.768188 1.028652 8342706
5.549572 -5.882368 0.774591 8342706
6.312452 -6.009243 4.995642 8342706
6.170808 -6.540131 4.119397 8342706
6.077934 -6.417239 4.710912 8342706
5.993213 -5.821109 1.407300 8342706
6.505553 -6.153033 5.001170 8342706
6.139085 -6.056954 1.671518 8342706
5.822657 -5.963334 2.085993 8342706
5.714750 -5.963141 3.032492 8342706
6.513003 -6.251977 4.086605 8342706
5.479188 -5.888458 3.585797 8342706
6.168962 -6.096427 0.976877 8342706
5.883294 -6.272348 1.903048 8342706
5.952342 -5.639121 2.389283 8342706
6.311142 -6.261510 0.087285 8342706
5.825796 -5.567308 4.536112 8342706
5.991974 -5.476740 4.061128 8342706
5.763612 -5.447732 3.552682 8342706
6.393276 -6.365070 1.542210 8342706
5.505747 -6.010862 4.731830 8342706
6.074527 -6.517743 0.123060 8342706
6.542137 -5.975370 1.501896 8342706
6.373410 -5.521569 3.380493 8342706
5.768606 -5.885671 0.813671 8342706
6.009129 -5.980987 0.896654 8342706
5.637615 -5.918048 2.211924 8342706
5.736424 -5.636568 2.269771 8342706
5.779354 -6.095418 3.541459 8342706
6.318006 -5.506350 1.127515 8342706
5.650668 -5.782679 4.822932 8342706
5.910359 -5.796284 0.088305 8342706
5.635186 -6.475030 2.445981 8342706
5.877374 -6.459298 3.642228 8342706
6.030729 -6.597956 0.570483 8342706
6.052981 -5.701653 1.722317 8342706
6.117748 -5.910995 1.780596 8342706
6.173095 -5.771487 4.155471 8342706
5.470672 -6.257448 4.962163 8342706
6.575761 -5.855917 2.146220 8342706
6.223942 -6.447299 3.891735 8342706
6.246788 -5.696702 2.526117 8342706
6.227019 -6.370812 2.398098 8342706
6.074582 -5.631835 4.490972 8342706
5.625357 -6.301981 3.491450 8342706
5.982325 -6.421758 2.719613 8342706
6.568190 -6.079901 0.458967 8342706
5.733656 -5.668307 4.799303 8342706
6.302801 -5.798229 0.308544 8342706
5.965501 -5.742293 4.712085 8342706
6.066917 -5.558911 2.422259 8342706
6.384915 -5.944344 1.870114 8342706
5.854162 -6.331029 3.427366 8342706
6.099058 -5.697079 4.228181 8342706
6.465519 -5.822770 0.494871 8342706
6.381048 -5.775311 4.631072 8342706
6.244990 -6.050197 2.762371 8342706
6.335680 -6.239678 0.717627 8342706
5.437748 -6.016278 2.422227 8342706
5.690778 -5.943402 4.313221 8342706
6.255615 -5.914925 4.811997 8342706
6.300971 -5.595396 1.388261 8342706
5.807807 -6.255815 4.056563 8342706
6.448720 -5.706055 4.616314 8342706
5.846442 -5.492975 4.357275 8342706
5.675163 -5.853746 0.490191 8342706
6.429632 -5.839834 3.479188 8342706
6.359351 -5.770190 0.657790 8342706
5.682617 -6.100193 0.769727 8342706
