# .PCD v0.7 - Point Cloud Data file format
VERSION 0.7
FIELDS x y z rgb
SIZE 4 4 4 4
TYPE F F F U
COUNT 1 1 1 1
WIDTH 1287
HEIGHT 1
VIEWPOINT 0 0 0 1 0 0 0
POINTS 1287
DATA ascii
-9.066086 2.024974 1.621019 15014169
-9.163764 2.578092 0.593015 15014169
-9.483331 2.239158 0.623886 15014169
-8.919207 2.100222 1.348777 15014169
-9.228853 2.078001 1.352723 15014169
-9.474386 2.576940 1.621293 15014169
-8.865352 2.242591 0.355589 15014169
-8.814557 2.183493 1.297912 15014169
-9.265610 1.999126 1.498270 15014169
-9.042747 2.495293 1.062973 15014169
-8.895063 2.583057 0.317621 15014169
-9.457442 2.121446 0.487766 15014169
-9.029161 2.239256 1.546632 15014169
-9.383331 2.249097 0.336851 15014169
-9.029703 2.287834 0.486693 15014169
-8.895495 2.613450 0.390274 15014169
-9.474973 2.264957 1.140645 15014169
-9.291704 2.421832 0.593042 15014169
-9.148561 2.358840 0.921873 15014169
-9.409945 2.102112 0.491747 15014169
-9.284896 2.145937 1.042792 15014169
-9.114496 2.282951 0.751302 15014169
-9.117842 2.559766 1.472566 15014169
-9.429800 2.171750 0.874671 15014169
-9.014250 2.450183 0.909709 15014169
-9.227115 2.508991 1.060072 15014169
-8.858936 2.000394 0.817559 15014169
-8.831966 2.446617 1.544131 15014169
-9.351603 2.481538 0.591829 15014169
-9.127470 2.134510 0.895999 15014169
-8.950575 2.164809 1.181628 15014169
-9.209828 2.608661 1.211638 15014169
-9.046729 2.192438 1.019461 15014169
-9.463861 2.029784 1.591542 15014169
-9.446646 2.627552 1.316430 15014169
-9.063638 2.486356 0.494983 15014169
-8.964069 2.460507 1.058514 15014169
-9.175610 2.290910 0.912175 15014169
-8.933147 2.145248 0.376890 15014169
-8.842273 2.287281 1.355392 15014169
-9.038764 2.339800 0.486705 15014169
-9.309888 2.264216 1.083253 15014169
-8.942925 2.184263 0.860556 15014169
-8.889422 2.525746 0.443903 15014169
-9.396736 2.423879 1.088091 15014169
-8.821605 2.460628 1.431351 15014169
-9.336828 2.321506 1.182608 15014169
-9.497228 2.309990 0.915870 15014169
-9.266796 2.121368 1.558508 15014169
-9.493629 2.166995 0.703582 15014169
-8.857615 1.967700 0.932042 15014169
-9.272369 2.430579 1.281072 15014169
-9.035891 2.603536 1.618109 15014169
-9.455570 2.025131 0.344977 15014169
-8.864672 2.654824 0.843467 15014169
-9.458681 2.049032 1.534626 15014169
-9.174744 2.100841 1.177565 15014169
-8.959483 2.274268 0.367643 15014169
-9.246071 2.569608 0.436625 15014169
-9.424172 2.487248 0.491956 15014169
-9.416464 2.126846 0.684973 15014169
-9.265926 2.525068 0.657885 15014169
-9.418901 2.025683 0.822303 15014169
-9.332562 2.547625 1.157906 15014169
-9.301296 2.646591 0.881166 15014169
-8.895803 2.149791 0.760349 15014169
-8.831787 2.007144 1.527360 15014169
-8.847605 2.200544 1.581692 15014169
-8.886333 2.657213 0.464313 15014169
-9.107848 2.522964 1.317220 15014169
-8.912604 1.972234 1.625823 15014169
-9.401199 1.970873 1.679377 15014169
-9.381333 2.537332 0.344841 15014169
-9.491492 2.012507 1.181418 15014169
-9.338356 2.257682 1.633722 15014169
-9.362507 2.132638 0.993083 15014169
-9.308228 2.320611 0.928647 15014169
-9.263470 1.981685 1.350642 15014169
-8.902696 2.211029 0.960910 15014169
-9.456038 2.479993 0.639408 15014169
-9.418006 2.036295 0.590996 15014169
-8.997402 2.271162 1.290281 15014169
-9.409292 2.111514 1.463325 15014169
-9.509555 2.117437 1.459791 15014169
-9.037881 2.149126 1.439976 15014169
-9.393373 2.320270 1.143507 15014169
-8.825057 2.440501 0.779366 15014169
-9.139598 2.130756 1.692603 15014169
-9.210856 2.006670 1.678683 15014169
-8.885034 2.322461 0.348913 15014169
-8.925035 2.580917 1.198666 15014169
-9.305171 2.613542 0.323731 15014169
-9.295053 2.215060 1.456606 15014169
-9.512259 2.404637 1.079200 15014169
-9.286909 2.021650 0.500675 15014169
-9.054734 1.997421 0.403354 15014169
-9.171640 2.315099 0.322356 15014169
-9.127642 2.041372 0.463113 15014169
-9.030608 2.176008 1.409848 15014169
11.315602 -0.998457 0.474333 1645029
11.321568 -0.715763 1.217171 1645029
10.812767 -1.200259 1.068397 1645029
11.026856 -0.991129 1.012349 1645029
11.117133 -0.903955 1.180133 1645029
11.056381 -0.899282 1.473211 1645029
11.077375 -0.886653 0.620931 1645029
10.945178 -0.764872 1.269451 1645029
11.218380 -0.929316 0.966061 1645029
11.157951 -1.367565 0.627564 1645029
11.656473 -1.107987 1.080123 1645029
11.453347 -1.369986 1.269293 1645029
10.973275 -1.096657 0.636060 1645029
11.601543 -1.226969 1.228746 1645029
11.020169 -1.079533 0.832804 1645029
10.817466 -0.796976 1.120747 1645029
10.724051 -1.328400 0.958098 1645029
11.323822 -0.700090 1.156701 1645029
11.423865 -0.892076 1.269151 1645029
11.153064 -1.176412 0.887537 1645029
11.379755 -1.246969 1.166553 1645029
10.980560 -1.291605 1.311977 1645029
11.326488 -0.759693 1.259351 1645029
11.160347 -1.410498 0.677943 1645029
11.257082 -1.518213 0.766745 1645029
11.026287 -0.832475 1.132194 1645029
11.252096 -1.350716 0.867031 1645029
11.090940 -1.053153 0.936061 1645029
11.517472 -1.034710 1.045053 1645029
11.418108 -1.182483 1.105990 1645029
10.975389 -1.260824 0.846124 1645029
10.826587 -1.022065 0.628146 1645029
10.953622 -1.053619 1.340441 1645029
11.006117 -1.046951 0.874510 1645029
11.549915 -1.369665 0.942078 1645029
11.129253 -1.061463 1.089406 1645029
11.211751 -0.656460 1.069817 1645029
10.708256 -1.370635 1.076265 1645029
11.218493 -1.025237 1.176342 1645029
10.935048 -1.391424 1.082244 1645029
10.973684 -1.225317 0.514608 1645029
10.761006 -1.112151 0.864128 1645029
11.376021 -1.217972 1.145479 1645029
11.169038 -1.158240 1.215529 1645029
11.024076 -0.927161 0.697295 1645029
11.278041 -0.981054 0.681790 1645029
11.305027 -0.708986 0.997697 1645029
11.253894 -1.058997 0.886069 1645029
11.077158 -1.098839 0.682875 1645029
11.464705 -1.387417 0.811491 1645029
11.060242 -1.539663 0.945843 1645029
11.538712 -1.158679 0.981865 1645029
11.103394 -1.266903 0.833883 1645029
11.003085 -1.395504 1.346561 1645029
11.047455 -0.955002 0.514634 1645029
11.607189 -1.109767 1.273857 1645029
10.855586 -0.775635 0.723009 1645029
10.852227 -0.907117 0.655344 1645029
11.278133 -1.534538 0.902006 1645029
10.860320 -1.246631 0.864966 1645029
11.173193 -1.506617 0.931171 1645029
11.308297 -1.186741 0.967095 1645029
10.861755 -1.230558 1.021622 1645029
11.032933 -0.841831 0.891262 1645029
11.045596 -0.601866 0.948017 1645029
10.934997 -1.177384 1.418869 1645029
11.040274 -1.230593 1.130040 1645029
11.275960 -0.940852 1.225456 1645029
11.507843 -0.987411 1.158262 1645029
11.596119 -0.994200 1.001395 1645029
10.858469 -1.432725 1.230971 1645029
11.451083 -0.764487 1.054152 1645029
11.558341 -1.118523 1.027914 1645029
10.914137 -0.887211 0.577485 1645029
11.057986 -0.790599 1.221084 1645029
11.184041 -0.695628 1.068099 1645029
11.351660 -0.904931 0.874136 1645029
11.158934 -0.883985 0.543605 1645029
11.452628 -1.085057 1.016420 1645029
11.532558 -0.853989 1.212491 1645029
-4.359135 7.171330 0.452244 10053171
-5.963790 7.096665 0.424574 10053171
-4.454417 6.972886 2.367743 10053171
-5.168942 7.146518 2.879905 10053171
-3.836048 7.006712 0.271985 10053171
-6.676438 6.756944 2.493197 10053171
-4.101231 7.167585 2.559862 10053171
-3.152933 6.957252 1.327245 10053171
-4.381410 6.982034 0.506591 10053171
-3.506754 7.199143 2.571887 10053171
-3.674753 7.185114 2.503758 10053171
-3.253717 6.971532 0.849764 10053171
-4.010189 7.055005 0.162572 10053171
-4.984158 6.816393 1.150586 10053171
-6.804739 6.976015 0.173030 10053171
-4.598573 7.125527 2.193926 10053171
-6.427440 6.981023 1.205105 10053171
-4.649132 6.964350 0.455236 10053171
-6.875011 6.763946 2.824118 10053171
-6.296210 7.211596 2.879349 10053171
-6.081890 7.077475 0.766447 10053171
-6.139908 6.812792 2.798157 10053171
-3.725121 6.856015 2.243402 10053171
-4.832384 7.048343 2.521933 10053171
-6.580053 7.029990 2.635569 10053171
-6.047458 7.140356 1.105784 10053171
-3.411870 7.166320 1.464101 10053171
-4.604143 6.951789 1.332740 10053171
-6.009140 7.233436 2.402641 10053171
-6.659853 7.026740 2.955345 10053171
-6.858828 7.061640 1.104473 10053171
-5.986482 6.744988 0.141531 10053171
-6.125947 7.016248 1.966520 10053171
-3.869581 6.953194 0.549888 10053171
-4.727172 7.144814 0.105043 10053171
-5.880610 7.176586 2.061697 10053171
-4.851312 6.968144 1.405798 10053171
-5.494636 7.232243 2.741401 10053171
-5.055491 6.774108 1.299215 10053171
-6.161438 6.969052 2.516908 10053171
-4.478968 6.919210 2.127589 10053171
-4.109161 7.116600 1.113329 10053171
-3.862542 6.757546 0.879078 10053171
-4.723158 6.924984 2.260549 10053171
-5.558000 6.941974 0.639689 10053171
-3.817018 7.059575 1.155781 10053171
-3.489707 7.069120 2.127443 10053171
-4.296331 7.189560 0.695091 10053171
-4.117653 7.246660 2.556880 10053171
-5.296817 6.972678 1.595981 10053171
-6.736707 7.076120 2.628622 10053171
-5.682523 6.960232 1.194719 10053171
-5.763142 6.855695 2.793148 10053171
-3.552557 6.850124 2.688102 10053171
-3.077872 6.901826 0.650632 10053171
-5.039231 7.032182 2.158646 10053171
-3.511887 7.062587 0.797336 10053171
-5.454085 7.035494 1.624750 10053171
-3.344903 7.088699 2.165364 10053171
-6.449587 7.207126 0.026087 10053171
-6.362922 6.748266 2.601838 10053171
-4.396297 6.955742 2.949466 10053171
-6.320391 6.949660 0.866268 10053171
-3.755405 7.176683 1.023214 10053171
-3.551986 7.068677 2.694567 10053171
-4.174076 6.923504 2.167825 10053171
-6.344990 6.792585 1.052455 10053171
-3.759558 7.010488 1.934493 10053171
-3.884280 7.049604 1.216401 10053171
-5.448401 7.201525 0.716583 10053171
-5.917424 6.930285 2.517688 10053171
-3.274114 6.943890 1.507323 10053171
-6.817247 6.749935 2.272415 10053171
-3.716850 6.980180 0.976017 10053171
-6.513267 7.201254 1.577392 10053171
-5.308167 6.974472 0.843145 10053171
-6.487893 6.871388 0.455438 10053171
-4.542087 7.093518 2.269065 10053171
-6.735491 7.176598 1.144990 10053171
-4.031438 6.876661 0.245874 10053171
-5.780178 7.214537 0.691005 10053171
-6.966147 7.062129 2.925414 10053171
-3.140505 7.110931 2.175605 10053171
-4.135870 7.081323 0.045470 10053171
-4.437262 7.174442 1.364854 10053171
-6.615256 7.226311 0.421005 10053171
-5.852266 6.883583 0.157159 10053171
-3.247885 6.884177 0.164827 10053171
-6.511826 6.925913 1.309972 10053171
-5.961976 6.839493 0.014668 10053171
-5.449632 7.041578 1.751040 10053171
-6.391733 7.016132 2.966732 10053171
-6.077994 6.836579 2.937941 10053171
-4.232692 7.228630 1.438734 10053171
-4.280816 7.108450 2.195603 10053171
-3.908186 7.204563 2.392527 10053171
-5.662236 7.210747 0.402215 10053171
-5.365154 6.918965 0.440685 10053171
-3.333964 6.944569 0.990618 10053171
-6.878120 6.959217 0.259860 10053171
-4.487561 6.800723 1.776683 10053171
-6.240931 7.222960 1.529352 10053171
-3.837998 7.198655 0.852374 10053171
-3.803800 6.970545 2.092063 10053171
-4.812862 7.128620 1.251427 10053171
-5.641299 7.249391 1.568795 10053171
-4.230915 6.973951 0.414036 10053171
-5.528355 7.186052 0.307358 10053171
-3.260630 7.080388 0.136878 10053171
-5.119758 6.778869 1.796316 10053171
-5.640629 7.056969 2.626689 10053171
-5.439069 6.869671 2.379078 10053171
-4.458554 6.940738 0.699626 10053171
-4.792654 6.954844 2.323852 10053171
-6.493977 6.957712 1.172081 10053171
-5.749626 6.785572 1.395592 10053171
-4.583477 6.920616 1.775801 10053171
-4.064636 7.062627 2.589609 10053171
-3.307960 7.024558 0.192464 10053171
-4.624643 6.771537 1.395380 10053171
-3.795394 7.218613 0.843206 10053171
-5.166359 6.872022 0.237779 10053171
-6.431845 6.756227 0.303653 10053171
-5.598279 7.036274 0.811478 10053171
-3.141133 7.169802 1.551088 10053171
-5.364724 7.060487 2.720685 10053171
-5.317919 6.930014 2.710562 10053171
-4.402793 6.902719 0.771959 10053171
-6.996133 7.092392 2.663753 10053171
-4.286334 7.044943 2.889393 10053171
-4.884940 6.971976 0.246386 10053171
-6.487078 6.918482 2.235329 10053171
-5.335961 6.911495 1.760107 10053171
-5.246613 7.064793 1.630544 10053171
-4.640761 6.851470 0.824857 10053171
-3.269568 6.844912 0.462777 10053171
-4.011939 6.951104 1.214699 10053171
-3.757358 7.243787 0.785264 10053171
-5.114528 7.031403 2.744463 10053171
-4.760898 7.173099 1.084196 10053171
-5.660382 6.764467 2.547222 10053171
-5.411704 7.173013 2.284023 10053171
-6.045004 7.015963 2.973495 10053171
-3.712219 6.933814 1.059602 10053171
-4.237804 7.084186 2.733430 10053171
-5.936017 7.035973 0.645179 10053171
-4.960055 6.836015 2.314337 10053171
-3.942771 6.819676 1.350794 10053171
-6.011716 7.192763 1.749099 10053171
-3.633839 7.195477 0.393895 10053171
-5.857282 6.938665 2.264925 10053171
-6.549151 6.879641 1.751959 10053171
-4.772841 6.800106 2.790291 10053171
-6.500347 7.169491 1.214253 10053171
-3.577640 7.009577 1.079748 10053171
-6.239287 6.847407 1.529111 10053171
-3.023030 6.867034 1.567241 10053171
-6.402982 7.234547 0.953421 10053171
-4.778125 6.996468 1.245124 10053171
-6.414574 7.089530 0.921409 10053171
-6.869786 6.900642 2.238092 10053171
-3.718548 7.212346 1.816283 10053171
-4.232708 7.196133 0.814989 10053171
-6.341950 6.789582 2.947713 10053171
-3.067208 6.775985 2.281256 10053171
-6.422530 6.935802 1.490082 10053171
-6.297787 6.987724 1.009335 10053171
-5.144099 6.796928 1.237448 10053171
-3.950166 7.171824 0.936748 10053171
-6.401080 7.066441 0.859998 10053171
-6.229491 6.740173 2.093550 10053171
-3.531122 7.065750 0.930801 10053171
-5.310593 6.973073 2.313253 10053171
-4.482691 6.776601 0.622854 10053171
-5.563805 7.202683 0.177607 10053171
-3.612547 6.933442 1.820186 10053171
-7.001516 7.174846 2.095610 10053171
-6.190270 7.164205 1.946286 10053171
-4.695257 6.895980 0.457750 10053171
-5.547113 6.964467 1.737677 10053171
-6.752440 6.779188 1.259024 10053171
-5.574073 6.814990 1.495706 10053171
-6.418127 6.897569 2.024512 10053171
-5.977078 6.773947 1.059359 10053171
-5.759723 6.743745 2.091397 10053171
-5.543830 6.807375 1.563922 10053171
-3.370409 7.075367 2.630855 10053171
-5.040118 7.042283 0.365450 10053171
-4.192739 7.182896 0.559122 10053171
-5.066575 7.130838 0.844750 10053171
-6.406286 6.911870 2.857464 10053171
-6.870371 6.833327 2.542568 10053171
-6.708339 6.754974 0.430012 10053171
-3.230573 7.080818 1.585890 10053171
-6.023121 6.743087 2.622811 10053171
-4.075710 6.926134 1.555122 10053171
-6.720095 7.224061 0.612692 10053171
-6.917118 6.955565 2.966253 10053171
-4.483313 6.932815 1.925460 10053171
-4.891676 7.073585 2.558166 10053171
-3.968957 7.119001 0.793648 10053171
-4.132779 7.224552 0.518917 10053171
-3.900265 6.801438 1.138924 10053171
-3.476332 7.231799 2.476956 10053171
-3.387625 7.174510 0.187721 10053171
-3.153677 6.797127 0.457946 10053171
-4.779136 7.239238 1.085931 10053171
-6.906371 7.094910 0.553217 10053171
-6.243150 6.770828 1.865191 10053171
-6.642265 6.945094 0.640077 10053171
-6.373217 7.174170 1.721828 10053171
-6.414859 6.808155 1.110283 10053171
-4.988561 6.809506 0.302604 10053171
-5.301347 7.041771 1.117977 10053171
-5.999764 7.074302 1.264660 10053171
-3.179972 7.032854 2.057697 10053171
-4.537522 6.924332 0.178412 10053171
-6.049634 6.834942 0.142263 10053171
-3.644724 7.155559 0.341276 10053171
-3.324431 7.196039 2.599168 10053171
-4.010421 6.903059 2.657800 10053171
-4.109752 6.834824 2.959857 10053171
-5.546392 7.101607 1.931228 10053171
-4.326451 7.157493 0.744402 10053171
-4.252865 6.952305 0.571933 10053171
-3.618742 7.135025 0.595385 10053171
-3.734227 6.939781 0.923165 10053171
-4.653960 7.012864 0.612510 10053171
-4.177413 6.937929 0.225057 10053171
-6.530730 6.825735 2.349921 10053171
-4.715503 7.154218 0.503574 10053171
-5.166461 6.980731 1.470279 10053171
-6.465408 7.239487 1.313609 10053171
-6.977666 7.029285 2.069020 10053171
-6.605716 7.246899 1.463866 10053171
-5.047569 7.150133 2.879717 10053171
-4.723875 6.837844 0.732973 10053171
-4.299521 6.915723 1.314931 10053171
-5.432086 6.821385 2.071373 10053171
-3.996306 6.785679 2.819769 10053171
-5.936397 7.001942 1.392843 10053171
-6.735832 6.761357 0.246315 10053171
-3.289616 7.137190 2.696482 10053171
-5.111909 7.049535 1.715706 10053171
-5.849702 7.184987 0.523042 10053171
-6.235126 6.873778 1.059834 10053171
-6.942841 7.064470 1.625410 10053171
-5.736638 7.203814 2.563701 10053171
-6.227647 6.924205 2.024275 10053171
-3.783842 6.942645 1.338002 10053171
-5.701099 7.170354 0.874682 10053171
-3.112790 6.813178 0.993600 10053171
-3.881832 6.845924 1.104668 10053171
-5.362413 7.195471 1.627357 10053171
-3.503897 6.782982 0.848489 10053171
-4.676620 7.247052 1.555009 10053171
-3.630118 6.982110 2.194646 10053171
-4.561026 7.132381 2.677939 10053171
-4.897454 7.101933 2.124976 10053171
-6.897083 6.797374 2.375322 10053171
-3.423955 7.116442 0.872787 10053171
-5.521876 7.057695 2.926681 10053171
-4.816942 6.933141 0.685394 10053171
-4.614727 7.002564 2.174954 10053171
-6.920868 7.040386 2.202978 10053171
-3.624446 6.859957 1.212927 10053171
-4.342209 6.919468 0.827177 10053171
-6.421170 6.776163 2.066608 10053171
-6.045020 6.793520 2.065245 10053171
-4.829006 6.756977 0.980994 10053171
-3.710644 6.863146 0.027909 10053171
-4.868980 7.109769 2.497171 10053171
-3.741631 6.982653 2.480906 10053171
-5.197445 7.098028 1.535729 10053171
-6.241998 6.846431 1.578076 10053171
-6.678864 7.161707 2.942725 10053171
-3.916286 6.910872 0.945799 10053171
-6.252287 7.038358 0.941806 10053171
-4.905876 7.148478 1.521576 10053171
-3.278821 7.226562 0.929089 10053171
-6.352833 7.080352 1.841329 10053171
-5.690488 6.805817 1.352943 10053171
-3.570278 6.907138 0.440240 10053171
-5.646125 6.787301 2.117816 10053171
-4.293175 7.242637 0.441263 10053171
-3.211950 7.008955 1.432928 10053171
-3.102506 6.947594 1.818481 10053171
-4.080793 6.760151 0.898647 10053171
-4.286948 7.193456 1.331893 10053171
-3.090498 6.883111 0.295501 10053171
-4.022182 7.116632 1.442187 10053171
-5.453249 6.912189 1.058596 10053171
-3.996328 6.952536 0.354852 10053171
-3.792429 6.930168 0.155084 10053171
-5.742690 7.229241 1.855419 10053171
-5.689741 7.206089 1.789068 10053171
-6.035931 6.760820 2.364974 10053171
-3.601549 6.947200 0.806839 10053171
-5.208131 7.126312 1.179399 10053171
-5.141264 6.836327 2.486970 10053171
-4.297344 7.183542 0.621484 10053171
-6.950830 7.206752 0.070083 10053171
-4.016058 6.784336 1.123172 10053171
-4.049616 6.787175 1.837866 10053171
-5.396334 6.875216 2.745422 10053171
-3.284515 7.044206 1.531980 10053171
-3.302610 7.215584 0.008474 10053171
-3.242277 6.834541 1.513851 10053171
-4.641371 6.950456 1.558623 10053171
-4.978922 6.856903 0.151618 10053171
-6.793712 6.845192 1.553688 10053171
-5.554609 6.945410 0.144911 10053171
-6.933575 6.911967 1.427685 10053171
-4.177392 6.763628 1.316045 10053171
-6.393451 6.936547 0.223343 10053171
-3.364957 6.743519 2.830276 10053171
-4.125570 6.814927 1.418097 10053171
-4.727364 6.821881 1.910119 10053171
-6.177207 6.797160 0.133294 10053171
-5.210969 7.133734 1.852301 10053171
-6.257683 7.113364 2.261028 10053171
-5.163097 7.082219 1.396325 10053171
-6.485018 6.928484 1.303749 10053171
-5.459752 7.091852 0.296506 10053171
-4.947484 7.184197 1.775033 10053171
-3.840694 6.994646 1.637247 10053171
-5.414429 7.103307 2.732064 10053171
-5.719774 7.048336 2.979121 10053171
-6.823792 7.151484 0.780459 10053171
-4.900329 7.140367 1.116005 10053171
-6.974094 6.941934 0.271365 10053171
-6.742237 6.974882 1.026133 10053171
-4.325595 6.803075 1.911301 10053171
-3.998327 7.156256 0.052666 10053171
-3.116570 7.040170 1.340054 10053171
-3.877955 7.044751 0.413892 10053171
-3.092833 6.755547 1.712904 10053171
-3.469797 6.856501 0.320107 10053171
-6.624595 7.089545 1.209812 10053171
-4.078610 7.125015 0.756600 10053171
-3.790375 6.989675 2.058743 10053171
-3.796682 7.027743 1.238472 10053171
-4.628266 7.149248 2.674821 10053171
-4.607130 7.214899 2.350027 10053171
-6.252218 7.168436 0.880451 10053171
-3.086497 6.894801 0.024563 10053171
-4.399275 6.752625 0.491559 10053171
-5.184281 7.024232 2.844388 10053171
-5.342397 7.001659 2.497479 10053171
-3.683861 7.207991 1.085398 10053171
-4.830884 6.784459 0.070838 10053171
-4.741553 7.126810 0.924650 10053171
-4.078053 6.881959 1.508855 10053171
-3.532564 6.979694 0.983399 10053171
-6.964907 7.115721 0.903611 10053171
-3.904826 6.915560 1.373639 10053171
-3.593408 6.959217 2.739341 10053171
-5.494596 6.807366 2.606525 10053171
-5.400766 6.785645 2.404524 10053171
-3.033875 6.810405 2.928887 10053171
-6.159526 6.830022 2.035809 10053171
-4.428529 7.137362 0.760872 10053171
-4.532812 7.039995 0.687831 10053171
-3.186676 7.214664 2.725296 10053171
-5.879233 7.198592 2.556419 10053171
-4.213403 6.917644 2.120986 10053171
-3.205250 6.942617 0.510530 10053171
-5.011972 6.825625 1.832284 10053171
-3.727240 6.961946 0.099301 10053171
-4.344166 7.204747 0.522160 10053171
-6.200720 6.869600 1.542326 10053171
-3.846969 7.208185 0.585297 10053171
-5.442940 6.764610 1.440277 10053171
-3.209940 6.807485 2.173339 10053171
-3.458783 6.967556 0.312291 10053171
-3.949270 7.262024 2.060406 10053171
-6.169995 7.201441 0.272405 10053171
-6.576682 6.899993 0.536774 10053171
-4.633240 6.894416 1.239637 10053171
-5.127814 6.792845 -0.003069 10053171
-5.453780 6.797131 0.548993 10053171
-3.795146 6.790935 0.394589 10053171
-5.354960 7.192178 0.693970 10053171
-3.195463 7.177283 1.365129 10053171
-4.931526 6.758513 2.556419 10053171
-6.734474 7.136898 1.621607 10053171
-4.813747 6.770601 1.186532 10053171
-4.069521 7.039560 1.624367 10053171
-4.080670 7.037398 1.610077 10053171
-3.493613 6.913917 2.919598 10053171
-4.095737 7.149745 2.888497 10053171
-6.602755 6.928520 1.758125 10053171
-5.177963 7.048413 1.681633 10053171
-5.113264 7.153679 2.150655 10053171
-4.519023 6.836432 0.025459 10053171
-5.347300 6.760036 2.586588 10053171
-5.176023 6.754278 1.366349 10053171
-4.079384 6.881966 0.711479 10053171
-4.385661 7.042372 1.034651 10053171
-5.245147 7.130950 0.700437 10053171
-3.737288 6.796499 1.910932 10053171
-3.655162 7.238914 2.743078 10053171
-3.378916 7.140850 1.001944 10053171
-4.072009 7.206463 2.651989 10053171
-3.103655 7.174726 2.857721 10053171
-3.563284 7.041573 1.649257 10053171
-5.342822 7.098947 0.083694 10053171
-3.929792 6.940595 2.297851 10053171
-6.408142 7.029122 2.548377 10053171
-3.104624 7.093896 2.784033 10053171
-4.861928 7.173543 0.121707 10053171
-5.889670 6.888506 0.149136 10053171
-4.278768 7.034865 0.563085 10053171
-4.634956 7.136869 0.049488 10053171
-6.641310 7.218721 1.392413 10053171
-6.047785 6.934689 0.115122 10053171
-5.827157 6.761813 2.914397 10053171
-4.470182 7.047083 2.840559 10053171
-5.608198 7.217999 2.538978 10053171
-3.126648 6.951237 0.608863 10053171
-5.764027 6.931638 0.609803 10053171
-4.095417 7.126665 1.540329 10053171
-4.686336 6.761541 1.660243 10053171
-4.984900 7.157008 1.242533 10053171
-4.463647 6.965689 0.503440 10053171
-5.306542 7.226694 0.299635 10053171
-3.878057 6.953327 0.833944 10053171
-4.250542 6.941091 2.665830 10053171
-5.228387 7.112682 1.717626 10053171
-3.023421 6.976849 0.264924 10053171
-5.429253 6.868268 1.045716 10053171
-6.588615 7.076796 2.700586 10053171
-5.112551 6.830483 1.649756 10053171
-3.040353 6.915645 0.759076 10053171
-6.574255 6.967566 1.170766 10053171
-3.069157 7.005671 0.203477 10053171
-6.263781 7.215669 1.887852 10053171
-3.679854 6.954717 1.361320 10053171
-4.144095 7.103771 0.204682 10053171
-3.870635 7.156062 1.805716 10053171
-4.169611 7.015941 1.332260 10053171
-3.095062 6.793443 0.731097 10053171
-5.598034 7.221376 0.147559 10053171
-5.674903 6.994721 2.810919 10053171
-4.799341 6.963505 1.797087 10053171
-5.931256 7.157815 2.043055 10053171
-3.324023 7.101816 0.978660 10053171
-6.496793 6.797891 0.765308 10053171
-6.596105 7.064437 1.910319 10053171
-3.750406 6.852029 0.029421 10053171
-4.611848 7.144753 2.013987 10053171
-5.591427 6.770893 2.672164 10053171
-3.984802 7.078243 0.437703 10053171
-3.906867 6.768553 1.644581 10053171
-5.379032 7.002486 0.799036 10053171
-4.833933 6.858852 1.756932 10053171
-5.771636 6.931344 1.075664 10053171
-6.625955 6.867788 0.194344 10053171
-4.515118 6.972953 1.703498 10053171
-3.700198 7.114931 2.788661 10053171
-5.698266 6.856683 0.081528 10053171
-5.667741 7.026869 0.393843 10053171
-4.256112 6.847994 0.844300 10053171
-5.863365 6.861953 2.069139 10053171
-4.899004 6.830244 2.904644 10053171
-3.172468 7.004893 2.012653 10053171
-3.628098 6.922604 1.081138 10053171
-4.772049 7.141297 2.867692 10053171
-4.505115 7.133397 1.473183 10053171
-3.463008 7.096938 1.055006 10053171
-3.138143 7.171693 0.495692 10053171
-5.420175 7.109172 0.808079 10053171
-6.651586 6.981422 2.579048 10053171
-3.286655 6.903904 2.403821 10053171
-5.833824 7.126365 2.070743 10053171
-4.673934 6.922889 1.468089 10053171
-4.318078 6.842714 2.103236 10053171
-3.016334 6.760931 2.457181 10053171
-3.031698 7.001081 1.077649 10053171
-4.382618 7.193634 0.294343 10053171
-5.487541 7.218067 2.297843 10053171
-5.598999 7.118033 1.124721 10053171
-3.877568 6.910896 1.854943 10053171
-4.664305 7.088754 2.928841 10053171
-4.742519 7.178493 2.683172 10053171
-6.273976 7.061193 1.597250 10053171
-3.120060 7.198380 0.322979 10053171
-4.508439 6.861032 2.799197 10053171
-3.054840 6.924136 1.124449 10053171
-4.452093 7.250136 2.825289 10053171
-5.041051 6.903857 2.684322 10053171
-3.198555 6.973552 0.508091 10053171
-5.975736 6.819301 0.807256 10053171
-4.686364 7.144492 0.302032 10053171
-3.001645 7.060735 0.547516 10053171
-5.433477 6.916758 1.094329 10053171
-3.934989 6.806613 0.609112 10053171
-6.058561 6.971348 2.725357 10053171
-3.297298 6.922000 0.561343 10053171
-5.725896 6.765503 2.840747 10053171
-4.192114 6.840023 0.625018 10053171
-6.603814 6.980861 2.953543 10053171
-6.906958 7.246558 2.551717 10053171
-6.911572 7.208699 0.736627 10053171
-5.270989 7.019772 2.452155 10053171
-5.213203 6.957903 1.275429 10053171
-3.153735 7.146326 1.913014 10053171
-6.378972 6.946324 1.713082 10053171
-4.083477 6.860525 0.132699 10053171
-3.502808 6.893106 0.022200 10053171
-6.111377 6.872910 1.893809 10053171
-3.108812 7.098638 0.773053 10053171
-3.560455 7.047231 2.719532 10053171
-4.245803 7.053479 2.605310 10053171
-3.435362 6.898258 2.403749 10053171
-5.104294 6.902747 2.875945 10053171
-4.468542 7.118867 1.051096 10053171
-6.619646 6.849257 2.033782 10053171
-3.837335 6.874086 2.279058 10053171
-3.553838 6.982945 1.037327 10053171
-4.280520 6.791523 0.884227 10053171
-3.869846 7.012550 1.014137 10053171
-5.367770 6.959310 2.080340 10053171
-3.228159 6.829410 0.510631 10053171
-3.404542 7.239292 0.644535 10053171
-6.360539 6.741011 1.221795 10053171
-5.818346 7.236967 1.576608 10053171
-3.783523 6.895205 0.799171 10053171
-6.563845 6.868786 1.576557 10053171
-4.380087 6.807365 0.981033 10053171
-5.637026 6.933709 0.056133 10053171
-4.399806 7.019175 1.184381 10053171
-4.170074 6.915102 2.130491 10053171
-3.281051 7.205978 1.300662 10053171
-3.747507 7.237163 2.653219 10053171
-5.899498 6.819314 0.044460 10053171
-5.678157 6.802502 1.571864 10053171
-4.943814 6.954768 2.460925 10053171
-6.090124 7.072307 1.121563 10053171
-6.789817 7.230711 2.105024 10053171
-5.454126 6.882208 1.252924 10053171
-6.167920 6.898305 2.918799 10053171
-5.557698 6.786015 2.408033 10053171
-4.527215 7.181782 1.516685 10053171
-5.301062 6.884074 0.603870 10053171
-6.029169 7.236580 1.504048 10053171
-3.528759 6.859522 2.515662 10053171
-5.655087 6.945113 2.283577 10053171
-6.079381 6.973384 1.458342 10053171
-6.581306 6.852700 1.251602 10053171
-6.777833 7.072747 2.629380 10053171
-6.568724 6.868705 1.820628 10053171
-6.075003 6.978532 2.790294 10053171
-4.206506 7.182312 2.776177 10053171
-4.887939 7.055340 2.197340 10053171
-4.865638 7.133362 0.053839 10053171
-4.074236 6.845210 1.585788 10053171
-6.992088 7.244854 0.296115 10053171
-5.474335 7.162015 0.039093 10053171
-3.513721 6.814459 0.730263 10053171
-6.068989 6.804905 0.903453 10053171
-3.526719 6.829642 2.843250 10053171
-3.529946 7.166511 0.924284 10053171
-5.191227 6.829305 2.949408 10053171
-6.943378 6.865090 2.325767 10053171
-4.332210 6.870498 0.570699 10053171
-4.581604 6.862808 0.869936 10053171
-3.507901 6.809841 0.299136 10053171
-6.426463 6.996461 1.148592 10053171
-5.298608 7.222286 1.664362 10053171
-4.219732 7.174629 1.713436 10053171
-5.744357 7.120369 0.939831 10053171
-4.642917 6.948572 2.957883 10053171
-5.848180 7.044656 1.038345 10053171
-5.198309 7.146084 0.279444 10053171
-4.810163 6.836974 2.749246 10053171
-3.334072 6.997516 0.774397 10053171
-3.910242 7.015419 1.821895 10053171
-5.775153 7.000642 1.285200 10053171
-3.311543 6.960748 1.645977 10053171
-3.005355 7.226522 0.795749 10053171
-3.220479 7.222718 2.780451 10053171
-3.175270 7.194930 2.283898 10053171
-6.079271 6.946307 2.241079 10053171
-6.826384 7.029870 2.063568 10053171
-4.065510 6.802208 1.171819 10053171
-3.207846 7.226518 1.696069 10053171
-6.933043 7.165864 1.477979 10053171
-4.299747 6.899205 1.108922 10053171
-5.313180 7.054493 0.111425 10053171
-6.786080 7.154167 2.885086 10053171
-4.208617 6.817245 2.437645 10053171
-3.455170 7.033713 2.648531 10053171
-3.076158 6.782011 1.147212 10053171
-3.490656 7.233154 0.542709 10053171
-3.462655 6.949148 2.300153 10053171
-4.096123 7.091444 2.705326 10053171
-3.750709 7.051891 2.904602 10053171
-5.761415 6.914743 0.474133 10053171
-4.745628 7.107767 1.545911 10053171
5.886594 -5.965699 1.153420 8342706
6.116769 -5.737552 1.803414 8342706
5.445797 -6.080987 3.645131 8342706
6.149792 -6.476047 0.565214 8342706
5.436369 -6.213788 3.025625 8342706
6.184880 -6.444202 4.087952 8342706
6.353214 -6.053128 4.909853 8342706
6.201479 -5.618134 0.327862 8342706
6.017591 -6.180199 4.014219 8342706
6.177739 -6.018281 0.478992 8342706
5.557826 -5.672908 2.026751 8342706
6.166916 -6.425962 3.313460 8342706
6.533196 -5.803824 4.830109 8342706
6.043746 -5.627919 2.411298 8342706
6.461698 -5.975904 1.301284 8342706
6.112574 -6.222881 2.941519 8342706
6.528750 -5.852505 0.296698 8342706
6.364092 -6.401076 2.986782 8342706
6.303146 -5.521803 2.223766 8342706
6.463047 -6.376584 2.653391 8342706
6.187303 -6.096028 2.951580 8342706
6.274063 -5.565239 2.051839 8342706
5.620210 -6.278012 3.532098 8342706
5.806542 -5.556277 0.193546 8342706
5.642557 -5.777092 0.523177 8342706
6.512568 -5.809355 1.397342 8342706
6.035528 -5.426800 0.784051 8342706
6.207268 -6.318491 1.494303 8342706
6.438421 -6.161875 1.580721 8342706
6.525805 -6.028276 3.481205 8342706
5.610989 -6.197158 3.381177 8342706
5.854480 -6.195344 4.730289 8342706
5.775818 -5.539319 2.051433 8342706
6.321999 -5.768612 2.912440 8342706
6.271776 -5.929828 3.540576 8342706
5.438402 -6.095774 0.542598 8342706
6.395509 -5.818868 1.988381 8342706
5.888506 -5.776143 1.710452 8342706
5.764774 -5.866228 3.139488 8342706
5.660959 -6.162716 1.853037 8342706
5.797169 -5.523776 0.785938 8342706
6.469995 -6.093470 0.390071 8342706
5.994226 -6.126151 4.292433 8342706
5.592435 -6.198902 4.555732 8342706
5.736512 -5.761812 4.154108 8342706
5.749169 -5.925537 3.132061 8342706
6.026382 -5.983088 1.442638 8342706
6.418250 -6.267852 2.000960 8342706
5.662209 -5.732758 3.106137 8342706
6.297211 -6.088045 3.905423 8342706
5.401826 -5.990483 4.587163 8342706
5.940906 -5.447637 4.483082 8342706
5.497160 -5.969320 3.234320 8342706
6.424806 -5.948121 1.933798 8342706
6.173010 -6.490447 4.279527 8342706
6.368876 -5.875043 1.184277 8342706
5.416424 -5.973786 2.329382 8342706
5.513134 -5.768583 4.319915 8342706
6.441989 -5.982935 2.992812 8342706
6.114645 -5.644551 4.848628 8342706
6.284279 -5.871082 2.117064 8342706
5.821105 -5.478685 2.069993 8342706
5.879648 -6.345852 3.543720 8342706
6.003171 -5.507615 3.506871 8342706
5.787428 -6.027693 4.512630 8342706
5.857204 -6.098304 1.751578 8342706
6.174223 -5.746916 1.998753 8342706
6.158334 -6.284953 1.965810 8342706
5.777294 -6.230030 1.540354 8342706
5.597047 -6.243291 1.063212 8342706
5.847627 -6.382551 1.262898 8342706
5.972621 -5.971884 3.029111 8342706
6.072086 -6.117542 4.765386 8342706
5.789759 -5.827260 0.614189 8342706
5.733881 -6.093542 2.490802 8342706
5.957178 -5.991792 3.166424 8342706
5.492394 -6.185255 1.937032 8342706
6.106615 -5.602763 0.155378 8342706
6.445703 -5.943388 1.238747 8342706
6.554304 -6.065726 3.871967 8342706
6.056430 -6.221281 3.276924 8342706
5.564950 -5.667013 1.967965 8342706
6.102752 -6.284526 4.448882 8342706
6.092259 -5.583823 4.643337 8342706
6.424257 -5.691579 0.222819 8342706
5.953083 -6.162739 2.703029 8342706
6.214687 -5.978570 2.445546 8342706
5.476968 -6.157063 3.675454 8342706
6.054255 -6.308489 1.995611 8342706
5.865551 -6.344696 1.007693 8342706
6.174163 -6.399334 4.425357 8342706
5.569349 -5.931110 3.872291 8342706
5.705717 -6.381853 2.516701 8342706
6.106892 -6.504546 1.417589 8342706
5.839705 -5.878360 4.560478 8342706
5.605366 -5.775285 2.342525 8342706
6.467901 -5.845031 2.612063 8342706
6.096265 -6.418252 0.597793 8342706
5.562704 -6.149770 1.876134 8342706
6.306226 -6.028034 1.890532 8342706
6.561867 -6.041268 3.647004 8342706
5.649821 -6.375701 0.607890 8342706
5.683722 -6.453883 0.784375 8342706
6.223011 -6.030175 2.576236 8342706
5.630733 -6.030194 3.313704 8342706
5.765293 -5.597438 4.712733 8342706
5.765879 -6.230756 4.047905 8342706
5.657242 -5.839663 1.230764 8342706
6.431870 -5.965001 4.445743 8342706
5.812876 -5.628219 3.501407 8342706
6.015573 -5.803970 0.933564 8342706
6.179554 -6.357950 1.765427 8342706
6.142110 -5.773895 1.592813 8342706
5.950493 -5.743684 4.083194 8342706
6.051684 -6.196862 4.598012 8342706
5.771740 -6.138608 0.225600 8342706
5.908646 -5.638316 1.678426 8342706
6.194777 -5.625453 3.871510 8342706
5.706984 -5.958393 3.120550 8342706
5.811357 -6.209848 2.601401 8342706
5.697658 -5.863849 2.911269 8342706
5.608313 -6.246800 3.726135 8342706
5.906446 -6.593305 1.064103 8342706
6.116436 -5.803456 1.665582 8342706
6.294161 -6.333968 0.547678 8342706
6.357174 -5.687246 2.303743 8342706
6.142783 -5.570483 3.078508 8342706
5.681293 -5.682279 1.217679 8342706
5.975820 -5.734781 3.706743 8342706
6.210730 -6.021495 4.403051 8342706
6.507283 -6.114833 2.720222 8342706
6.332729 -6.134921 3.352757 8342706
5.681053 -6.299308 4.695776 8342706
6.303297 -5.545875 4.636202 8342706
5.994434 -6.202934 3.551198 8342706
5.770006 -5.661525 2.610449 8342706
6.073652 -6.565778 4.496713 8342706
5.518298 -5.761522 4.261384 8342706
5.540008 -6.135396 2.896381 8342706
6.099967 -5.630093 2.485775 8342706
5.690536 -5.873165 4.044572 8342706
5.876902 -5.440105 3.059913 8342706
6.493165 -5.801954 0.133164 8342706
6.061584 -5.441574 0.400289 8342706
6.396546 -5.720340 0.060486 8342706
6.053282 -5.759792 0.515561 8342706
5.662020 -5.722282 3.075770 8342706
6.337418 -6.213713 1.495722 8342706
6.124110 -5.806669 2.474354 8342706
5.766466 -6.150660 1.630279 8342706
5.993690 -6.198152 0.123224 8342706
5.842126 -6.046000 3.753120 8342706
5.734054 -6.167967 3.395279 8342706
6.297033 -6.256165 4.591458 8342706
6.324441 -6.464249 3.385829 8342706
5.999078 -6.540994 4.181574 8342706
6.004915 -5.685175 4.234206 8342706
5.699257 -5.632194 4.222502 8342706
6.205278 -5.881402 1.885538 8342706
5.521023 -6.228514 4.647048 8342706
5.899724 -6.330209 4.697563 8342706
6.067308 -6.441095 1.303789 8342706
6.106261 -5.622797 2.028444 8342706
5.953583 -6.200113 1.696087 8342706
6.029964 -6.015555 4.533528 8342706
6.073245 -5.616118 1.154851 8342706
6.124799 -6.297819 1.563582 8342706
5.721173 -5.732435 0.131530 8342706
6.339637 -6.171634 3.043111 8342706
6.124175 -5.549960 2.656777 8342706
6.254941 -5.860261 1.020404 8342706
5.619559 -6.069549 1.916344 8342706
5.722035 -5.674367 2.248782 8342706
5.803990 -5.646535 2.596365 8342706
5.513962 -5.911196 3.584040 8342706
6.005061 -5.840704 1.888910 8342706
5.719881 -5.866440 1.467217 8342706
5.730502 -6.269093 2.798944 8342706
6.000976 -6.304343 4.898274 8342706
5.988405 -6.430097 4.831606 8342706
6.085042 -5.587583 3.839058 8342706
5.619652 -5.588344 2.021466 8342706
6.532735 -6.039557 4.242836 8342706
5.684271 -5.600026 1.945898 8342706
6.090173 -6.460897 1.692409 8342706
5.618463 -6.206232 1.869341 8342706
6.342020 -5.908902 3.502668 8342706
6.478909 -5.819418 3.836370 8342706
6.428242 -6.104154 3.869349 8342706
6.137825 -5.852423 3.365648 8342706
6.147202 -6.383791 1.028769 8342706
5.668050 -6.149642 3.351186 8342706
6.514319 -6.304997 0.116054 8342706
6.404661 -6.099078 4.947894 8342706
5.434085 -5.928618 3.792576 8342706
6.467535 -6.031072 0.221665 8342706
6.240074 -5.654742 3.714252 8342706
6.109174 -6.005433 2.463325 8342706
6.269786 -5.972997 0.705018 8342706
6.411034 -5.973552 2.415307 8342706
6.060973 -6.480731 2.763669 8342706
6.392582 -6.077942 1.397754 8342706
6.218135 -5.623195 1.094577 8342706
6.234259 -5.572412 4.319293 8342706
6.171210 -6.451119 0.744425 8342706
5.631813 -6.065290 3.183947 8342706
6.517185 -5.794652 1.101260 8342706
6.170249 -5.778371 2.604818 8342706
6.006728 -6.079764 2.538395 8342706
6.386865 -5.679798 1.813245 8342706
5.962524 -6.112146 3.845758 8342706
6.498467 -5.983825 1.575674 8342706
5.486923 -6.261119 0.732179 8342706
5.818537 -6.370691 4.990210 8342706
6.477923 -5.785267 3.994903 8342706
6.234143 -6.011383 0.109481 8342706
6.267958 -5.816373 3.575117 8342706
6.489837 -6.065711 4.562751 8342706
5.922485 -6.058799 3.124970 8342706
6.397429 -6.256054 1.764959 8342706
6.024578 -5.428261 1.978929 8342706
5.426545 -5.947072 4.264029 8342706
6.094922 -6.049740 2.979715 8342706
6.249108 -5.940534 3.231545 8342706
5.627365 -6.182798 3.362920 8342706
6.135036 -6.365796 4.418589 8342706
6.104657 -5.533614 4.117575 8342706
5.914398 -5.853377 2.906934 8342706
5.426213 -6.104155 2.055036 8342706
6.310329 -6.422515 4.882477 8342706
5.635917 -6.391973 2.928756 8342706
6.317888 -6.340116 2.362038 8342706
6.418269 -5.791751 1.069742 8342706
6.460855 -5.856955 2.270565 8342706
5.992550 -5.506834 2.063545 8342706
6.225464 -5.753058 0.483641 8342706
5.864478 -6.281205 1.560866 8342706
6.403632 -5.762105 2.426374 8342706
6.388934 -5.540948 4.103683 8342706
6.468163 -6.186644 1.486427 8342706
6.164493 -5.798198 3.239682 8342706
5.731525 -6.383628 3.089565 8342706
6.269263 -5.525033 4.478776 8342706
6.031387 -5.890489 0.777435 8342706
5.590845 -6.363518 4.418679 8342706
5.608526 -5.750288 4.259712 8342706
6.209268 -5.825021 1.357867 8342706
5.732390 -5.794208 1.067159 8342706
5.858428 -6.111341 0.623184 8342706
6.186546 -5.444520 1.175746 8342706
6.293231 -5.543798 1.159861 8342706
5.655968 -6.256057 4.284104 8342706
5.942124 -6.043163 4.938330 8342706
6.213982 -5.578090 3.771177 8342706
5.666333 -6.032535 4.260891 8342706
6.093831 -6.545142 4.296030 8342706
5.696693 -5.738765 3.945478 8342706
5.555339 -6.107526 3.774852 8342706
6.235078 -6.415994 1.034435 8342706
6.575616 -5.939596 0.491853 8342706
5.991484 -5.536887 2.935626 8342706
6.193581 -6.413044 1.661569 8342706
5.503692 -6.218369 3.909729 8342706
5.609331 -6.442079 2.798725 8342706
5.800528 -5.500527 2.260205 8342706
6.535294 -6.228871 2.070084 8342706
6.066100 -6.370794 0.529230 8342706
5.460286 -5.853956 2.604144 8342706
5.828220 -5.671916 2.536711 8342706
6.292480 -6.091559 0.238871 8342706
6.036007 -5.591813 4.340095 8342706
6.516116 -6.289562 4.426339 8342706
5.808711 -6.392970 4.404692 8342706
5.459309 -5.762233 4.330472 8342706
5.966183 -5.473948 1.519011 8342706
6.532454 -6.197845 4.027535 8342706
6.396640 -6.173319 1.425802 8342706
5.829102 -6.181016 3.745729 8342706
6.119970 -6.343142 1.931755 8342706
5.543843 -5.641335 3.356843 8342706
5.785411 -6.441959 3.532062 8342706
5.512224 -5.690211 3.919927 8342706
6.173358 -5.562822 0.043815 8342706
6.355054 -5.976038 2.642756 8342706
6.389146 -6.082961 1.748190 8342706
5.812445 -5.803695 3.222172 8342706
6.028264 -5.808419 3.176977 8342706
6.301168 -6.074779 2.033837 8342706
6.348019 -5.818396 2.212780 8342706
6.053127 -5.794243 0.110147 8342706
5.818699 -6.083615 0.105818 8342706
6.212791 -6.449143 0.879587 8342706
6.346466 -6.463867 0.753012 8342706
6.169986 -6.353874 4.237430 8342706
5.849898 -6.523305 1.827615 8342706
5.640625 -5.917380 0.978212 8342706
5.774924 -5.676711 2.706745 8342706
6.215809 -5.746708 0.412832 8342706
6.077103 -5.407679 2.088578 8342706
6.015103 -6.485214 1.060362 8342706
6.232890 -5.546381 1.305653 8342706
6.467349 -5.679473 3.613384 8342706
6.487688 -6.248310 0.318426 8342706
5.776060 -5.904831 4.015676 8342706
6.175956 -6.107805 1.748597 8342706
6.091767 -6.243609 3.245369 8342706
5.614298 -6.255521 3.694570 8342706
6.543141 -6.142196 1.844890 8342706
6.262574 -6.232698 1.706998 8342706
5.556232 -5.804555 2.464357 8342706
6.394297 -6.384776 2.033468 8342706
6.128088 -6.207246 3.584576 8342706
6.178261 -6.589711 4.291770 8342706
6.420596 -6.374160 3.674273 8342706
6.125347 -5.572205 2.016175 8342706
6.078386 -5.470793 0.892332 8342706
6.145409 -6.422159 1.150147 8342706
5.679822 -6.058876 0.122155 8342706
5.862164 -5.596447 2.638703 8342706
5.800237 -6.359478 2.627823 8342706
6.097887 -5.477884 3.477991 8342706
5.769215 -6.298753 3.351989 8342706
6.326873 -6.344169 1.072231 8342706
5.810712 -6.548518 4.755652 8342706
6.261073 -5.665324 4.898779 8342706
6.004835 -6.496599 1.859420 8342706
5.689503 -5.775919 0.307583 8342706
6.295180 -5.531506 4.299961 8342706
5.616470 -5.865529 4.341399 8342706
6.233036 -5.590114 0.497837 8342706
6.287103 -6.365256 4.026161 8342706
6.191103 -6.550236 0.548349 8342706
6.193805 -5.851607 1.031741 8342706
6.438391 -6.158652 2.772267 8342706
6.040551 -6.386142 3.757479 8342706
5.974477 -5.541638 2.040725 8342706
6.469893 -6.199212 3.306269 8342706
6.121693 -5.440967 0.249006 8342706
5.483438 -5.695173 4.396615 8342706
6.148970 -6.335354 1.665401 8342706
6.413411 -5.610436 1.830938 8342706
5.870719 -6.134882 0.925405 8342706
6.376792 -5.599158 3.720602 8342706
5.637614 -6.133583 3.766851 8342706
6.518119 -5.896899 1.186242 8342706
5.731254 -6.024394 2.436335 8342706
6.258451 -6.333727 2.958493 8342706
5.720708 -6.390540 4.087395 8342706
6.050880 -6.278099 3.900061 8342706
6.384058 -5.538706 4.958208 8342706
6.522731 -6.279130 4.670836 8342706
6.037496 -5.927212 3.863975 8342706
6.172700 -6.378440 4.334967 8342706
5.729914 -6.205052 1.989454 8342706
6.439665 -5.864896 2.123957 8342706
6.445660 -5.980075 2.196901 8342706
5.863297 -5.437799 1.057233 8342706
6.485792 -5.800013 0.300641 8342706
5.848034 -5.489958 1.389171 8342706
6.245893 -5.683735 4.852813 8342706
5.964183 -5.629122 1.240817 8342706
6.473683 -5.809508 2.249977 8342706
5.799264 -6.215055 3.692605 8342706
6.284606 -6.189093 1.533392 8342706
5.982699 -6.405048 3.980769 8342706
5.992689 -5.811041 2.273664 8342706
6.149678 -6.056390 4.105016 8342706
6.155186 -6.412319 4.326492 8342706
6.267526 -5.597274 4.754355 8342706
6.345890 -5.818607 3.578444 8342706
5.987401 -5.806828 3.162299 8342706
6.534506 -5.884248 3.034287 8342706
6.269268 -5.865660 2.835068 8342706
6.297269 -6.324761 1.991087 8342706
5.761553 -5.691241 3.591297 8342706
5.722013 -5.712762 3.080127 8342706
6.266366 -5.963273 1.463316 8342706
6.385740 -6.226147 1.085086 8342706
5.847337 -5.563456 2.981169 8342706
5.511324 -5.885700 0.134758 8342706
5.654136 -5.677323 0.436108 8342706
5.609941 -5.568013 2.880384 8342706
5.988782 -5.510512 2.120380 8342706
5.518675 -6.100533 1.868544 8342706
6.118424 -5.492320 3.469308 8342706
5.434162 -5.912441 4.588583 8342706
5.467387 -5.800972 2.905855 8342706
6.180900 -6.305104 1.854248 8342706
5.545389 -6.397225 0.859183 8342706
5.881701 -6.512837 1.599217 8342706
6.078877 -6.315337 3.414330 8342706
5.964232 -6.484555 4.604374 8342706
6.355953 -6.174506 0.804498 8342706
6.517111 -6.321583 1.464854 8342706
6.572656 -5.923321 3.410432 8342706
5.566581 -6.086133 1.114131 8342706
6.295677 -6.287807 1.935581 8342706
6.154679 -6.298788 2.948284 8342706
6.065979 -6.511956 4.973914 8342706
5.979901 -6.460092 0.595900 8342706
6.289052 -5.762490 1.733164 8342706
6.398357 -5.924891 1.302510 8342706
6.239201 -6.406448 0.480834 8342706
6.310868 -6.126873 2.878069 8342706
6.464105 -6.150731 0.097188 8342706
6.092649 -5.680736 1.231025 8342706
6.488103 -6.277714 4.308246 8342706
6.450487 -5.646210 4.806711 8342706
6.492167 -6.142579 3.631274 8342706
6.311905 -6.323975 1.589723 8342706
5.734933 -6.285125 0.435827 8342706
6.170908 -5.580933 2.723868 8342706
6.230732 -6.053766 3.862769 8342706
6.315125 -5.843534 0.379883 8342706
6.203473 -5.859319 3.943061 8342706
5.777067 -6.416162 3.300395 8342706
6.403226 -6.216663 0.012625 8342706
6.351274 -5.757108 1.371463 8342706
6.278410 -6.009163 4.233125 8342706
6.355914 -6.077626 2.022863 8342706
5.762720 -5.578274 4.374589 8342706
5.845140 -6.039639 0.846914 8342706
6.032578 -5.723410 4.180772 8342706
5.516850 -5.721995 3.990952 8342706
6.445782 -6.134748 1.759750 8342706
6.277117 -6.462076 1.714970 8342706
6.285786 -6.227002 4.627837 8342706
5.527546 -6.327114 1.237607 8342706
6.012480 -6.220981 3.450109 8342706
6.234429 -5.568518 3.760448 8342706
6.051613 -6.579673 3.658177 8342706
5.934257 -6.013433 1.769674 8342706
5.794052 -5.639214 2.743234 8342706
6.184449 -6.319443 0.912539 8342706
6.173462 -5.987586 3.888819 8342706
6.102324 -6.286870 1.971195 8342706
5.754635 -6.137276 1.041249 8342706
6.572348 -6.003576 1.751755 8342706
5.770651 -6.099667 4.298887 8342706
6.465621 -5.757853 1.028999 8342706
5.553529 -5.853719 0.771797 8342706
6.307302 -5.972637 5.009019 8342706
6.189323 -6.565320 4.112901 8342706
6.078506 -6.416862 4.708714 8342706
5.996949 -5.837677 1.374651 8342706
6.498342 -6.147339 4.990295 8342706
6.151414 -6.070213 1.663108 8342706
5.826419 -5.965161 2.060723 8342706
5.738948 -5.970046 3.035654 8342706
6.514082 -6.218451 4.107349 8342706
5.471986 -5.881829 3.582852 8342706
6.178557 -6.092837 1.012432 8342706
5.867191 -6.263569 1.918395 8342706
5.960846 -5.647920 2.382719 8342706
6.338808 -6.278710 0.105168 8342706
5.808259 -5.589287 4.553494 8342706
5.981311 -5.477854 4.061425 8342706
5.773226 -5.453339 3.557878 8342706
6.413943 -6.349509 1.538943 8342706
5.512734 -6.020114 4.733617 8342706
6.043008 -6.527973 0.128669 8342706
6.525200 -5.961158 1.484297 8342706
6.340775 -5.566970 3.365764 8342706
5.797171 -5.880519 0.815922 8342706
5.991310 -5.993225 0.878677 8342706
5.620679 -5.902859 2.229475 8342706
5.730425 -5.618426 2.262511 8342706
5.792692 -6.111408 3.536538 8342706
6.325055 -5.519145 1.132967 8342706
5.642267 -5.777245 4.814959 8342706
5.888321 -5.795228 0.101532 8342706
5.656781 -6.451604 2.437914 8342706
5.889499 -6.450531 3.645799 8342706
6.051262 -6.612236 0.579392 8342706
6.047745 -5.692646 1.746377 8342706
6.096979 -5.906818 1.760466 8342706
6.162554 -5.769555 4.177977 8342706
5.497839 -6.280127 4.962196 8342706
6.574217 -5.826665 2.142432 8342706
6.222586 -6.438713 3.899698 8342706
6.247986 -5.707716 2.527134 8342706
6.235338 -6.358328 2.376447 8342706
6.076773 -5.638192 4.491436 8342706
5.630396 -6.300588 3.471258 8342706
5.994855 -6.439748 2.699047 8342706
6.553288 -6.093257 0.458537 8342706
5.717663 -5.664677 4.793066 8342706
6.294878 -5.787688 0.295456 8342706
5.946369 -5.738162 4.694717 8342706
6.062835 -5.533893 2.443022 8342706
6.359043 -5.928701 1.861965 8342706
5.851473 -6.322668 3.418342 8342706
6.093180 -5.707892 4.247925 8342706
6.473432 -5.831399 0.478766 8342706
6.378793 -5.770469 4.625425 8342706
6.254839 -6.038733 2.754210 8342706
6.349596 -6.233160 0.706363 8342706
5.423695 -6.013507 2.434059 8342706
5.680263 -5.925633 4.308372 8342706
6.300500 -5.899616 4.815050 8342706
6.282741 -5.564363 1.380625 8342706
5.826992 -6.245911 4.049224 8342706
6.445402 -5.683028 4.607091 8342706
5.865501 -5.525340 4.351679 8342706
5.669441 -5.826400 0.473398 8342706
6.406234 -5.831097 3.472979 8342706
6.362946 -5.722162 0.652720 8342706
5.661510 -6.094944 0.752413 8342706
