# .PCD v0.7 - Point Cloud Data file format
VERSION 0.7
FIELDS x y z rgb
SIZE 4 4 4 4
TYPE F F F U
COUNT 1 1 1 1
WIDTH 1287
HEIGHT 1
VIEWPOINT 0 0 0 1 0 0 0
POINTS 1287
DATA ascii
2.555845 16.506477 1.633688 15014169
2.431314 17.051414 0.596131 15014169
2.134976 16.707787 0.629920 15014169
2.673441 16.586651 1.350713 15014169
2.369225 16.561594 1.326271 15014169
2.126980 17.050438 1.620897 15014169
2.755569 16.723116 0.329265 15014169
2.790835 16.671091 1.291170 15014169
2.329166 16.454306 1.480148 15014169
2.570239 16.949862 1.089502 15014169
2.697334 17.065714 0.311318 15014169
2.128918 16.597094 0.486401 15014169
2.585460 16.699654 1.542639 15014169
2.220338 16.740641 0.340088 15014169
2.583157 16.735081 0.478781 15014169
2.692178 17.058971 0.391644 15014169
2.121660 16.730841 1.132798 15014169
2.297215 16.905636 0.592183 15014169
2.448525 16.837492 0.926724 15014169
2.173038 16.591969 0.488590 15014169
2.310623 16.578800 1.024627 15014169
2.486147 16.733942 0.752506 15014169
2.485872 17.023428 1.491054 15014169
2.162523 16.649637 0.872439 15014169
2.576020 16.914906 0.913126 15014169
2.389004 16.982698 1.044746 15014169
2.727733 16.483673 0.824097 15014169
2.765962 16.931431 1.548870 15014169
2.277095 16.930225 0.596362 15014169
2.474681 16.591621 0.905729 15014169
2.635495 16.640932 1.173635 15014169
2.379223 17.068489 1.223846 15014169
2.548072 16.665529 1.028697 15014169
2.127256 16.496386 1.589577 15014169
2.131071 17.073820 1.308226 15014169
2.523644 16.955658 0.511811 15014169
2.645175 16.942652 1.046115 15014169
2.432217 16.757334 0.908916 15014169
2.684933 16.627005 0.396060 15014169
2.756541 16.761524 1.364221 15014169
2.565635 16.825314 0.491535 15014169
2.281668 16.756924 1.073396 15014169
2.677631 16.654221 0.859062 15014169
2.713580 17.009401 0.445580 15014169
2.190430 16.874252 1.080731 15014169
2.780050 16.940609 1.427446 15014169
2.261718 16.788027 1.174524 15014169
2.081338 16.777685 0.932500 15014169
2.313979 16.630301 1.561409 15014169
2.103540 16.669136 0.698488 15014169
2.771488 16.448400 0.950395 15014169
2.325221 16.913752 1.263520 15014169
2.560195 17.062204 1.595325 15014169
2.151832 16.512232 0.348107 15014169
2.744380 17.117588 0.833930 15014169
2.126849 16.520292 1.526026 15014169
2.406517 16.573210 1.184824 15014169
2.625795 16.770731 0.349509 15014169
2.341064 17.043798 0.448193 15014169
2.170680 16.977543 0.484403 15014169
2.171781 16.588213 0.704522 15014169
2.321227 17.002220 0.628743 15014169
2.155893 16.503914 0.816365 15014169
2.234842 17.008196 1.159061 15014169
2.296623 17.115685 0.891286 15014169
2.707457 16.625097 0.748635 15014169
2.763087 16.480097 1.545894 15014169
2.779536 16.671696 1.579241 15014169
2.711768 17.120232 0.466270 15014169
2.501467 17.001253 1.314444 15014169
2.662938 16.445066 1.626771 15014169
2.200274 16.455778 1.677029 15014169
2.235073 17.017736 0.322341 15014169
2.116389 16.451250 1.201028 15014169
2.270091 16.713766 1.648448 15014169
2.221927 16.584841 0.986488 15014169
2.268996 16.789591 0.933999 15014169
2.344200 16.431278 1.358633 15014169
2.717048 16.666285 0.953945 15014169
2.118318 16.949970 0.614795 15014169
2.166201 16.544697 0.583232 15014169
2.601920 16.730219 1.255122 15014169
2.176164 16.583502 1.461404 15014169
2.079910 16.598017 1.474236 15014169
2.576844 16.622856 1.430878 15014169
2.225388 16.804642 1.147682 15014169
2.776320 16.898199 0.783300 15014169
2.440172 16.593637 1.693322 15014169
2.396712 16.506886 1.675662 15014169
2.713944 16.802027 0.354913 15014169
2.678135 17.068165 1.175504 15014169
2.288495 17.070694 0.324023 15014169
2.304413 16.684664 1.486022 15014169
2.098346 16.884163 1.081065 15014169
2.317272 16.491247 0.502436 15014169
2.558137 16.453548 0.375252 15014169
2.401495 16.767986 0.319674 15014169
2.468691 16.504559 0.468939 15014169
2.575162 16.633823 1.398608 15014169
-0.291659 -13.283430 0.486217 1645029
-0.279938 -13.000710 1.243293 1645029
-0.782645 -13.506349 1.055338 1645029
-0.561798 -13.265278 1.017679 1645029
-0.469646 -13.202267 1.182498 1645029
-0.535649 -13.211774 1.484723 1645029
-0.522482 -13.184528 0.618964 1645029
-0.628050 -13.039360 1.280241 1645029
-0.404392 -13.239324 0.963071 1645029
-0.446875 -13.664482 0.610087 1645029
0.070818 -13.388885 1.093009 1645029
-0.157868 -13.658831 1.275046 1645029
-0.628901 -13.398802 0.605719 1645029
-0.008618 -13.535840 1.246466 1645029
-0.593201 -13.378002 0.832133 1645029
-0.799253 -13.097594 1.140617 1645029
-0.886007 -13.624143 0.955474 1645029
-0.249944 -13.007760 1.148058 1645029
-0.166981 -13.170623 1.271232 1645029
-0.426688 -13.471093 0.902187 1645029
-0.210321 -13.587374 1.164722 1645029
-0.588207 -13.609302 1.335267 1645029
-0.277276 -13.070147 1.265457 1645029
-0.439032 -13.724322 0.691412 1645029
-0.342477 -13.818180 0.767877 1645029
-0.577804 -13.125349 1.140217 1645029
-0.349621 -13.626580 0.848019 1645029
-0.495316 -13.333671 0.942235 1645029
-0.097484 -13.334050 1.039540 1645029
-0.155676 -13.468699 1.116499 1645029
-0.627986 -13.554917 0.861651 1645029
-0.794073 -13.340531 0.648924 1645029
-0.630891 -13.348992 1.336774 1645029
-0.620468 -13.350342 0.887954 1645029
-0.068518 -13.648824 0.953127 1645029
-0.479854 -13.338667 1.064179 1645029
-0.389380 -12.961575 1.069920 1645029
-0.884776 -13.681606 1.051595 1645029
-0.396864 -13.316179 1.155640 1645029
-0.648650 -13.696418 1.083668 1645029
-0.607267 -13.538439 0.490811 1645029
-0.843864 -13.408992 0.867011 1645029
-0.203361 -13.517006 1.126478 1645029
-0.445501 -13.420755 1.233937 1645029
-0.561319 -13.234476 0.677389 1645029
-0.313387 -13.272896 0.688035 1645029
-0.313727 -12.984737 1.004776 1645029
-0.319356 -13.373988 0.893126 1645029
-0.526212 -13.399265 0.666033 1645029
-0.133178 -13.663567 0.798109 1645029
-0.529788 -13.798232 0.965056 1645029
-0.057760 -13.424082 0.976404 1645029
-0.496553 -13.538927 0.831177 1645029
-0.597375 -13.690161 1.337563 1645029
-0.522370 -13.243312 0.527301 1645029
0.006684 -13.399558 1.284042 1645029
-0.738185 -13.083657 0.724518 1645029
-0.739557 -13.189098 0.680746 1645029
-0.330136 -13.853174 0.891412 1645029
-0.728409 -13.542411 0.877358 1645029
-0.414355 -13.807194 0.938099 1645029
-0.285811 -13.466431 0.950986 1645029
-0.724253 -13.510627 1.000641 1645029
-0.565027 -13.121571 0.895386 1645029
-0.536186 -12.901852 0.952802 1645029
-0.676204 -13.481990 1.410874 1645029
-0.556776 -13.512734 1.166015 1645029
-0.326282 -13.243361 1.249527 1645029
-0.107926 -13.276302 1.157187 1645029
-0.003957 -13.283985 0.978438 1645029
-0.750398 -13.721307 1.253110 1645029
-0.184711 -13.069726 1.046800 1645029
-0.056804 -13.421460 1.033030 1645029
-0.679056 -13.175726 0.575192 1645029
-0.532755 -13.073000 1.265665 1645029
-0.387632 -12.994326 1.079554 1645029
-0.252808 -13.210326 0.852042 1645029
-0.432753 -13.220007 0.560348 1645029
-0.116475 -13.384452 1.016766 1645029
-0.076561 -13.159249 1.228114 1645029
-4.364260 7.167931 0.473438 10053171
-5.968390 7.105053 0.416235 10053171
-4.424335 6.968142 2.350335 10053171
-5.180863 7.151208 2.875646 10053171
-3.817067 7.002607 0.290352 10053171
-6.702811 6.737257 2.504831 10053171
-4.091341 7.160130 2.550206 10053171
-3.162640 6.944602 1.331868 10053171
-4.384851 6.972385 0.504029 10053171
-3.507104 7.204923 2.564314 10053171
-3.674577 7.190990 2.487231 10053171
-3.273626 6.972508 0.851333 10053171
-4.006128 7.078652 0.155741 10053171
-4.959910 6.789705 1.146867 10053171
-6.835735 6.974960 0.175726 10053171
-4.608063 7.135204 2.193998 10053171
-6.435968 6.981463 1.218163 10053171
-4.671204 6.938273 0.463414 10053171
-6.882074 6.750381 2.838167 10053171
-6.304701 7.231988 2.866736 10053171
-6.072832 7.052117 0.783783 10053171
-6.123732 6.804397 2.803593 10053171
-3.726822 6.874608 2.228734 10053171
-4.821824 7.049992 2.520132 10053171
-6.573442 7.004471 2.642500 10053171
-6.045808 7.135732 1.115676 10053171
-3.411136 7.153170 1.447674 10053171
-4.632163 6.980721 1.346326 10053171
-5.994764 7.215388 2.398343 10053171
-6.674415 7.041050 2.955053 10053171
-6.884593 7.050341 1.114743 10053171
-5.969922 6.758968 0.146757 10053171
-6.131456 7.020124 1.967729 10053171
-3.847998 6.954851 0.579426 10053171
-4.713938 7.147190 0.109814 10053171
-5.866005 7.179614 2.066971 10053171
-4.850197 6.957085 1.398695 10053171
-5.512226 7.217888 2.738257 10053171
-5.058544 6.769779 1.311093 10053171
-6.161070 6.986869 2.532693 10053171
-4.464250 6.940085 2.102591 10053171
-4.107907 7.112050 1.093335 10053171
-3.865327 6.763172 0.869611 10053171
-4.718967 6.928793 2.248041 10053171
-5.540801 6.963354 0.630681 10053171
-3.801247 7.040553 1.178864 10053171
-3.491261 7.068537 2.103158 10053171
-4.283367 7.175321 0.683484 10053171
-4.141518 7.267020 2.550521 10053171
-5.289629 6.968202 1.616691 10053171
-6.763832 7.068652 2.628152 10053171
-5.670073 6.965160 1.195555 10053171
-5.778091 6.868259 2.769360 10053171
-3.537400 6.853859 2.696061 10053171
-3.077310 6.881980 0.600488 10053171
-5.050773 7.036157 2.170352 10053171
-3.493725 7.061196 0.811830 10053171
-5.432315 7.041508 1.630322 10053171
-3.346933 7.088767 2.163694 10053171
-6.460248 7.177602 0.018628 10053171
-6.383134 6.762173 2.589457 10053171
-4.382094 6.968863 2.945486 10053171
-6.317748 6.957798 0.879444 10053171
-3.744541 7.184412 1.032450 10053171
-3.539467 7.056462 2.687240 10053171
-4.180872 6.923903 2.146260 10053171
-6.344869 6.805501 1.059448 10053171
-3.768131 7.019281 1.921536 10053171
-3.898645 7.037452 1.243974 10053171
-5.442604 7.200658 0.714387 10053171
-5.946017 6.940085 2.505095 10053171
-3.274195 6.924854 1.495862 10053171
-6.815387 6.770047 2.293281 10053171
-3.699389 6.997634 1.009832 10053171
-6.511905 7.228787 1.591769 10053171
-5.312176 6.987439 0.857374 10053171
-6.492787 6.872058 0.439826 10053171
-4.545905 7.096349 2.279497 10053171
-6.741271 7.180433 1.130996 10053171
-4.036811 6.883947 0.232950 10053171
-5.788037 7.214094 0.697565 10053171
-6.951896 7.069386 2.918647 10053171
-3.134107 7.070977 2.171436 10053171
-4.136158 7.080029 0.039127 10053171
-4.441891 7.183908 1.341960 10053171
-6.605193 7.222762 0.415971 10053171
-5.837302 6.849125 0.162379 10053171
-3.248350 6.881113 0.169271 10053171
-6.544094 6.919913 1.323521 10053171
-5.982051 6.838893 0.021359 10053171
-5.444893 7.054370 1.753612 10053171
-6.393567 7.015303 2.963897 10053171
-6.081884 6.836974 2.955968 10053171
-4.234297 7.217484 1.404744 10053171
-4.297662 7.104403 2.198485 10053171
-3.907518 7.207480 2.389135 10053171
-5.672657 7.217527 0.404679 10053171
-5.350802 6.888786 0.469719 10053171
-3.332688 6.938351 1.000656 10053171
-6.884948 6.961609 0.244695 10053171
-4.473763 6.796370 1.763919 10053171
-6.250032 7.235771 1.532022 10053171
-3.844777 7.203790 0.881324 10053171
-3.781713 6.965772 2.091057 10053171
-4.803192 7.145565 1.242709 10053171
-5.625524 7.262197 1.586378 10053171
-4.234026 6.974624 0.426209 10053171
-5.506721 7.213235 0.321666 10053171
-3.264476 7.068388 0.148970 10053171
-5.110207 6.778661 1.803051 10053171
-5.625005 7.029005 2.645066 10053171
-5.453671 6.881914 2.384587 10053171
-4.480649 6.924960 0.688208 10053171
-4.777535 6.946120 2.322567 10053171
-6.504636 6.965400 1.170330 10053171
-5.716713 6.794814 1.384209 10053171
-4.578133 6.938692 1.783900 10053171
-4.070477 7.062029 2.544448 10053171
-3.320190 7.014039 0.175713 10053171
-4.634845 6.765171 1.410347 10053171
-3.820803 7.208001 0.852143 10053171
-5.155741 6.853598 0.237452 10053171
-6.420133 6.760526 0.302669 10053171
-5.572237 7.011259 0.839690 10053171
-3.141103 7.187567 1.542817 10053171
-5.375461 7.073038 2.727682 10053171
-5.324468 6.939763 2.682783 10053171
-4.390152 6.903985 0.767950 10053171
-6.970410 7.105078 2.659835 10053171
-4.261694 7.059700 2.874969 10053171
-4.860892 6.965557 0.261962 10053171
-6.473606 6.905780 2.259870 10053171
-5.330338 6.923550 1.753609 10053171
-5.256793 7.039071 1.604988 10053171
-4.665341 6.840582 0.817988 10053171
-3.279121 6.835842 0.437895 10053171
-3.997631 6.949420 1.220790 10053171
-3.737383 7.233932 0.799324 10053171
-5.114765 7.020198 2.744318 10053171
-4.744578 7.172826 1.078744 10053171
-5.668845 6.779841 2.527541 10053171
-5.413525 7.177131 2.286350 10053171
-6.050930 6.988636 2.983295 10053171
-3.713096 6.919230 1.065773 10053171
-4.242612 7.088770 2.738072 10053171
-5.935962 7.051704 0.657573 10053171
-4.953615 6.802066 2.320435 10053171
-3.944689 6.822523 1.352778 10053171
-6.010461 7.191644 1.724828 10053171
-3.614068 7.214184 0.418514 10053171
-5.871063 6.902214 2.279148 10053171
-6.561926 6.885981 1.774494 10053171
-4.757494 6.793518 2.796678 10053171
-6.497529 7.176879 1.219099 10053171
-3.580682 7.025863 1.065199 10053171
-6.252582 6.843075 1.553455 10053171
-3.025126 6.855148 1.574320 10053171
-6.404563 7.243146 0.943532 10053171
-4.804408 6.988536 1.233225 10053171
-6.383659 7.090574 0.917467 10053171
-6.883948 6.881026 2.245643 10053171
-3.717546 7.218869 1.812189 10053171
-4.229439 7.193186 0.808647 10053171
-6.327213 6.800833 2.943906 10053171
-3.034737 6.748068 2.267814 10053171
-6.412230 6.927898 1.506673 10053171
-6.305345 7.001476 0.979626 10053171
-5.148920 6.790185 1.231714 10053171
-3.958286 7.174558 0.934193 10053171
-6.426760 7.099156 0.872872 10053171
-6.220992 6.756632 2.095155 10053171
-3.515159 7.054966 0.956130 10053171
-5.321659 6.958794 2.311481 10053171
-4.512300 6.785148 0.620940 10053171
-5.578319 7.199785 0.168741 10053171
-3.617595 6.919818 1.827799 10053171
-6.994157 7.173746 2.110641 10053171
-6.186749 7.170623 1.936638 10053171
-4.701145 6.892442 0.430611 10053171
-5.566212 6.947633 1.748266 10053171
-6.736042 6.776381 1.265387 10053171
-5.571708 6.782398 1.489398 10053171
-6.418108 6.873239 2.036990 10053171
-5.972568 6.801016 1.052505 10053171
-5.803340 6.770430 2.059962 10053171
-5.546467 6.804063 1.562647 10053171
-3.372497 7.077924 2.630976 10053171
-5.063793 7.010364 0.366084 10053171
-4.199193 7.162457 0.547355 10053171
-5.071750 7.130353 0.832329 10053171
-6.384438 6.903067 2.858798 10053171
-6.876674 6.824648 2.539376 10053171
-6.717514 6.744978 0.427285 10053171
-3.230735 7.086601 1.575659 10053171
-6.036655 6.760904 2.610147 10053171
-4.066529 6.939799 1.554331 10053171
-6.718687 7.219706 0.606335 10053171
-6.915861 6.949207 2.968190 10053171
-4.487201 6.934098 1.934597 10053171
-4.887709 7.059466 2.550076 10053171
-3.968989 7.085749 0.784534 10053171
-4.117029 7.246258 0.499729 10053171
-3.910879 6.782984 1.139982 10053171
-3.478220 7.205051 2.480661 10053171
-3.370349 7.170269 0.195504 10053171
-3.133054 6.809452 0.476561 10053171
-4.789115 7.187054 1.101409 10053171
-6.902268 7.077545 0.553099 10053171
-6.237951 6.754527 1.884885 10053171
-6.646849 6.934070 0.613928 10053171
-6.354271 7.160782 1.724730 10053171
-6.414605 6.811004 1.123504 10053171
-4.974642 6.839751 0.292653 10053171
-5.293174 7.056761 1.145477 10053171
-5.989592 7.085171 1.270181 10053171
-3.182073 7.006804 2.074142 10053171
-4.528346 6.930629 0.157852 10053171
-6.038785 6.827248 0.158570 10053171
-3.655284 7.157420 0.327862 10053171
-3.334385 7.197176 2.605475 10053171
-3.999511 6.905694 2.663506 10053171
-4.107818 6.857460 2.994649 10053171
-5.540360 7.104863 1.938061 10053171
-4.322332 7.160923 0.742968 10053171
-4.265864 6.935520 0.583275 10053171
-3.614002 7.169447 0.606654 10053171
-3.736143 6.942863 0.925442 10053171
-4.643126 7.004396 0.619485 10053171
-4.185817 6.935576 0.196388 10053171
-6.540822 6.803455 2.369819 10053171
-4.717068 7.175738 0.516736 10053171
-5.163584 6.967257 1.454504 10053171
-6.455425 7.242119 1.319294 10053171
-6.967081 7.031451 2.086581 10053171
-6.610657 7.219068 1.473430 10053171
-5.043035 7.133879 2.880773 10053171
-4.718297 6.832503 0.737581 10053171
-4.298894 6.924781 1.303334 10053171
-5.440561 6.810309 2.057851 10053171
-4.016168 6.779725 2.797197 10053171
-5.946659 7.013358 1.418836 10053171
-6.743422 6.768231 0.260271 10053171
-3.272504 7.159067 2.710750 10053171
-5.107218 7.069203 1.724018 10053171
-5.849518 7.193128 0.500026 10053171
-6.238185 6.883819 1.060306 10053171
-6.944441 7.084552 1.619789 10053171
-5.738798 7.182270 2.563372 10053171
-6.218970 6.925114 2.026486 10053171
-3.788288 6.957743 1.337277 10053171
-5.707303 7.158913 0.871366 10053171
-3.101450 6.813501 0.982777 10053171
-3.890951 6.827379 1.112337 10053171
-5.341413 7.184076 1.639157 10053171
-3.498259 6.763891 0.862867 10053171
-4.673586 7.226456 1.574047 10053171
-3.674484 7.005509 2.190609 10053171
-4.581152 7.128262 2.690355 10053171
-4.918081 7.107270 2.092717 10053171
-6.896699 6.798918 2.389447 10053171
-3.408962 7.111846 0.865745 10053171
-5.538956 7.062091 2.908787 10053171
-4.823955 6.935991 0.677837 10053171
-4.580160 7.027180 2.169067 10053171
-6.927416 7.040735 2.211795 10053171
-3.664936 6.879850 1.223533 10053171
-4.332569 6.923181 0.836906 10053171
-6.443521 6.788869 2.071285 10053171
-6.041799 6.792600 2.061819 10053171
-4.852298 6.772932 0.935939 10053171
-3.718266 6.853670 0.017121 10053171
-4.882512 7.112081 2.486323 10053171
-3.733612 7.011118 2.492063 10053171
-5.173046 7.088253 1.538232 10053171
-6.227779 6.840748 1.604912 10053171
-6.680856 7.180350 2.922330 10053171
-3.946484 6.915743 0.946224 10053171
-6.237035 7.038166 0.951824 10053171
-4.885607 7.174375 1.521200 10053171
-3.306584 7.210656 0.914849 10053171
-6.347123 7.071643 1.835473 10053171
-5.684323 6.816918 1.327530 10053171
-3.567574 6.919481 0.408677 10053171
-5.634028 6.777981 2.106243 10053171
-4.296632 7.246966 0.434551 10053171
-3.182942 7.007320 1.464727 10053171
-3.107354 6.940016 1.798831 10053171
-4.071743 6.760691 0.890227 10053171
-4.293900 7.191147 1.320399 10053171
-3.109815 6.887322 0.296533 10053171
-4.006289 7.129541 1.430580 10053171
-5.448192 6.917823 1.064983 10053171
-3.987104 6.970516 0.363725 10053171
-3.787263 6.928246 0.170390 10053171
-5.744700 7.257328 1.859871 10053171
-5.682916 7.213909 1.777835 10053171
-6.032549 6.752817 2.370528 10053171
-3.581039 6.951752 0.796297 10053171
-5.212003 7.102100 1.177808 10053171
-5.128019 6.841596 2.465691 10053171
-4.314285 7.186244 0.631435 10053171
-6.969734 7.225736 0.067931 10053171
-4.026741 6.791378 1.116718 10053171
-4.038978 6.780165 1.844055 10053171
-5.412223 6.852473 2.726736 10053171
-3.283330 7.049344 1.531643 10053171
-3.311973 7.212886 0.011468 10053171
-3.224571 6.818157 1.528293 10053171
-4.639139 6.929187 1.570376 10053171
-4.982733 6.829082 0.154360 10053171
-6.805666 6.825713 1.562706 10053171
-5.562936 6.948948 0.142095 10053171
-6.908059 6.917144 1.419995 10053171
-4.210737 6.766820 1.300755 10053171
-6.381020 6.912631 0.230888 10053171
-3.372202 6.754613 2.835743 10053171
-4.090819 6.799687 1.403347 10053171
-4.756846 6.842695 1.918768 10053171
-6.170197 6.789887 0.128036 10053171
-5.195588 7.130121 1.830091 10053171
-6.252525 7.095544 2.256798 10053171
-5.151819 7.067918 1.399798 10053171
-6.446854 6.932086 1.300885 10053171
-5.473974 7.068389 0.279722 10053171
-4.950729 7.187440 1.817337 10053171
-3.858256 6.976022 1.626953 10053171
-5.426881 7.090268 2.708419 10053171
-5.694351 7.054574 2.988796 10053171
-6.848834 7.150322 0.777904 10053171
-4.909746 7.162482 1.116498 10053171
-6.978043 6.928321 0.270369 10053171
-6.734492 6.970025 1.027789 10053171
-4.300024 6.793741 1.925244 10053171
-3.985972 7.155423 0.053260 10053171
-3.103205 7.033304 1.323363 10053171
-3.862146 7.024211 0.444923 10053171
-3.097677 6.739233 1.710089 10053171
-3.481598 6.850170 0.335703 10053171
-6.627286 7.077868 1.240517 10053171
-4.084178 7.121511 0.744991 10053171
-3.788647 6.997085 2.079312 10053171
-3.789773 7.029119 1.253016 10053171
-4.633270 7.129635 2.676403 10053171
-4.586031 7.214992 2.342579 10053171
-6.250201 7.154508 0.877593 10053171
-3.104401 6.899941 0.030285 10053171
-4.402977 6.768620 0.516320 10053171
-5.168694 7.024976 2.860738 10053171
-5.343881 7.018398 2.491944 10053171
-3.657727 7.222556 1.070315 10053171
-4.841317 6.806705 0.072645 10053171
-4.720088 7.128036 0.906511 10053171
-4.086659 6.866307 1.529582 10053171
-3.546698 6.975616 0.976681 10053171
-6.946671 7.116752 0.898615 10053171
-3.910971 6.957586 1.370519 10053171
-3.587231 6.939452 2.727909 10053171
-5.506241 6.808854 2.605917 10053171
-5.413739 6.786650 2.428320 10053171
-3.018707 6.803889 2.929621 10053171
-6.155689 6.839473 2.041347 10053171
-4.425793 7.125603 0.772537 10053171
-4.531525 7.024271 0.689702 10053171
-3.153903 7.196804 2.729482 10053171
-5.863504 7.190046 2.517611 10053171
-4.227913 6.910954 2.125783 10053171
-3.194192 6.922962 0.486865 10053171
-4.999841 6.830832 1.845778 10053171
-3.730740 6.953420 0.083861 10053171
-4.333859 7.218502 0.545908 10053171
-6.201769 6.872764 1.537029 10053171
-3.870067 7.201221 0.588605 10053171
-5.448217 6.781070 1.447956 10053171
-3.227255 6.823883 2.190950 10053171
-3.445714 6.955954 0.327981 10053171
-3.938546 7.248488 2.077291 10053171
-6.178148 7.177613 0.262849 10053171
-6.563491 6.906631 0.544286 10053171
-4.631048 6.891740 1.246887 10053171
-5.137705 6.782721 0.004866 10053171
-5.457669 6.836113 0.519788 10053171
-3.772269 6.792244 0.407339 10053171
-5.353725 7.206983 0.680936 10053171
-3.183969 7.191551 1.366428 10053171
-4.929020 6.759208 2.547399 10053171
-6.737812 7.124257 1.634596 10053171
-4.818591 6.772496 1.166663 10053171
-4.068453 7.047752 1.629188 10053171
-4.084906 7.017697 1.607715 10053171
-3.511805 6.918209 2.935165 10053171
-4.081101 7.150679 2.892812 10053171
-6.604860 6.897706 1.741308 10053171
-5.185687 7.037011 1.698770 10053171
-5.109057 7.179752 2.149028 10053171
-4.528955 6.853372 0.034111 10053171
-5.342639 6.755728 2.567893 10053171
-5.161616 6.793354 1.361296 10053171
-4.065003 6.889279 0.709113 10053171
-4.373944 7.046429 1.042364 10053171
-5.228326 7.119235 0.694333 10053171
-3.757682 6.771261 1.891225 10053171
-3.643286 7.244680 2.745930 10053171
-3.373754 7.149585 0.998174 10053171
-4.059160 7.204885 2.640640 10053171
-3.100943 7.165969 2.855511 10053171
-3.577222 7.043205 1.657991 10053171
-5.309799 7.100540 0.092767 10053171
-3.950649 6.923554 2.299723 10053171
-6.411702 7.039040 2.546043 10053171
-3.115096 7.083884 2.780138 10053171
-4.852145 7.160826 0.117493 10053171
-5.887384 6.890553 0.137362 10053171
-4.283348 7.049492 0.575066 10053171
-4.640274 7.152803 -0.009590 10053171
-6.627606 7.208389 1.375066 10053171
-6.066137 6.940016 0.080888 10053171
-5.828284 6.765757 2.891417 10053171
-4.477438 7.043943 2.830640 10053171
-5.621683 7.197617 2.534341 10053171
-3.124524 6.982972 0.618140 10053171
-5.766120 6.942721 0.608155 10053171
-4.073922 7.110222 1.540542 10053171
-4.714357 6.773468 1.644228 10053171
-4.988410 7.135460 1.232522 10053171
-4.425037 6.970684 0.520377 10053171
-5.299349 7.238096 0.307476 10053171
-3.864657 6.963776 0.834304 10053171
-4.242980 6.933619 2.682156 10053171
-5.243608 7.098297 1.718473 10053171
-3.026646 6.980235 0.272598 10053171
-5.435280 6.862586 1.047739 10053171
-6.592249 7.069361 2.711559 10053171
-5.126297 6.812043 1.647386 10053171
-3.034797 6.905545 0.770732 10053171
-6.570513 6.971723 1.165850 10053171
-3.052104 6.983674 0.202586 10053171
-6.259667 7.225671 1.897045 10053171
-3.714371 6.930981 1.376984 10053171
-4.176287 7.089551 0.211375 10053171
-3.866653 7.147363 1.821450 10053171
-4.185765 7.015991 1.340980 10053171
-3.090395 6.795578 0.726613 10053171
-5.588183 7.224286 0.127048 10053171
-5.667473 7.036507 2.803341 10053171
-4.803712 6.946738 1.801342 10053171
-5.943824 7.170988 2.047919 10053171
-3.332832 7.085733 0.986123 10053171
-6.490131 6.813504 0.730688 10053171
-6.580878 7.074077 1.915018 10053171
-3.748325 6.858867 0.035768 10053171
-4.616956 7.132876 2.040257 10053171
-5.612061 6.746589 2.682770 10053171
-3.969133 7.093758 0.437067 10053171
-3.916667 6.767867 1.630893 10053171
-5.388453 7.011138 0.794701 10053171
-4.843447 6.845657 1.749151 10053171
-5.758715 6.953033 1.065439 10053171
-6.634111 6.850609 0.168965 10053171
-4.511706 6.967558 1.728481 10053171
-3.710620 7.117431 2.796326 10053171
-5.713234 6.853109 0.080854 10053171
-5.678111 7.033124 0.399941 10053171
-4.239849 6.838381 0.861783 10053171
-5.878648 6.868497 2.066131 10053171
-4.913884 6.824141 2.893380 10053171
-3.174311 6.986138 2.043567 10053171
-3.613411 6.932233 1.086391 10053171
-4.790401 7.133939 2.829549 10053171
-4.515040 7.154834 1.490826 10053171
-3.459399 7.077346 1.065785 10053171
-3.145680 7.147027 0.507535 10053171
-5.407324 7.093187 0.812551 10053171
-6.676148 6.948145 2.575145 10053171
-3.289654 6.892433 2.371169 10053171
-5.862281 7.150593 2.038356 10053171
-4.692484 6.926863 1.465266 10053171
-4.286878 6.849192 2.112192 10053171
-3.002339 6.758945 2.459283 10053171
-3.040318 6.983187 1.087044 10053171
-4.367923 7.214123 0.304246 10053171
-5.491815 7.211833 2.290550 10053171
-5.608791 7.107099 1.124571 10053171
-3.902060 6.884085 1.851964 10053171
-4.659034 7.101805 2.936550 10053171
-4.740885 7.176870 2.693483 10053171
-6.281609 7.039855 1.596498 10053171
-3.120694 7.197535 0.311457 10053171
-4.528046 6.860859 2.783702 10053171
-3.053779 6.927391 1.109909 10053171
-4.446489 7.229882 2.837449 10053171
-5.007030 6.928852 2.699538 10053171
-3.200768 6.974704 0.507015 10053171
-5.982500 6.802831 0.805298 10053171
-4.697337 7.151737 0.314067 10053171
-2.997205 7.087446 0.546540 10053171
-5.432289 6.897180 1.092018 10053171
-3.938916 6.807611 0.618114 10053171
-6.057335 6.967262 2.738508 10053171
-3.316529 6.925497 0.549163 10053171
-5.722357 6.743247 2.845608 10053171
-4.191446 6.841246 0.605105 10053171
-6.609131 6.983450 2.947929 10053171
-6.918892 7.237056 2.518718 10053171
-6.914351 7.205592 0.749528 10053171
-5.275018 7.010024 2.460341 10053171
-5.227185 6.965442 1.281682 10053171
-3.170683 7.169107 1.921395 10053171
-6.404001 6.959403 1.722729 10053171
-4.074121 6.867877 0.114123 10053171
-3.502745 6.902757 0.018318 10053171
-6.093362 6.887713 1.909498 10053171
-3.103072 7.083372 0.771863 10053171
-3.558357 7.039404 2.712683 10053171
-4.245670 7.022397 2.634321 10053171
-3.429981 6.910517 2.425123 10053171
-5.118720 6.915372 2.887156 10053171
-4.470117 7.127122 1.068442 10053171
-6.611917 6.832836 2.035122 10053171
-3.824477 6.874901 2.294801 10053171
-3.551149 6.984252 1.040974 10053171
-4.307866 6.773935 0.883700 10053171
-3.853050 7.006435 1.003305 10053171
-5.351713 6.959485 2.082297 10053171
-3.238523 6.829423 0.498903 10053171
-3.399120 7.246252 0.649583 10053171
-6.357496 6.757013 1.225179 10053171
-5.821486 7.229290 1.569899 10053171
-3.787702 6.886448 0.820848 10053171
-6.579485 6.875747 1.602070 10053171
-4.365093 6.798667 0.972446 10053171
-5.671217 6.917834 0.049211 10053171
-4.404109 7.035123 1.193106 10053171
-4.167766 6.909312 2.127193 10053171
-3.262599 7.166478 1.309433 10053171
-3.738909 7.222076 2.639026 10053171
-5.882921 6.833128 0.050308 10053171
-5.687794 6.794942 1.553726 10053171
-4.946077 6.954762 2.470865 10053171
-6.077456 7.066100 1.124894 10053171
-6.753896 7.251797 2.120805 10053171
-5.451284 6.876637 1.253975 10053171
-6.169496 6.911864 2.909165 10053171
-5.567065 6.769459 2.413700 10053171
-4.507210 7.170412 1.540502 10053171
-5.295035 6.884924 0.629201 10053171
-6.024126 7.247166 1.489119 10053171
-3.526654 6.838444 2.512605 10053171
-5.673470 6.929765 2.277242 10053171
-6.054472 6.965409 1.451905 10053171
-6.566050 6.877368 1.243301 10053171
-6.776521 7.052627 2.625539 10053171
-6.579801 6.871750 1.837406 10053171
-6.052393 6.985250 2.777258 10053171
-4.202760 7.180539 2.763634 10053171
-4.885637 7.077217 2.202359 10053171
-4.863754 7.141845 0.039998 10053171
-4.100735 6.867833 1.567471 10053171
-6.974182 7.243211 0.312710 10053171
-5.487958 7.150935 0.037452 10053171
-3.492856 6.818419 0.727841 10053171
-6.068894 6.773104 0.897825 10053171
-3.536144 6.803630 2.845985 10053171
-3.536990 7.161271 0.915658 10053171
-5.215877 6.847795 2.967493 10053171
-6.951759 6.862709 2.321570 10053171
-4.327092 6.837226 0.581846 10053171
-4.568953 6.866038 0.853803 10053171
-3.504247 6.816821 0.286116 10053171
-6.428288 6.982656 1.139058 10053171
-5.300712 7.252299 1.664578 10053171
-4.210979 7.199147 1.698812 10053171
-5.744439 7.114673 0.945989 10053171
-4.651480 6.966370 2.952807 10053171
-5.839653 7.026457 1.031268 10053171
-5.182229 7.136490 0.281038 10053171
-4.808707 6.857015 2.739474 10053171
-3.343226 6.992128 0.779776 10053171
-3.904398 7.004706 1.802106 10053171
-5.785419 7.007777 1.281453 10053171
-3.321529 6.968151 1.643261 10053171
-3.001196 7.212167 0.807587 10053171
-3.190526 7.200688 2.787318 10053171
-3.156909 7.176943 2.300238 10053171
-6.061211 6.921732 2.258303 10053171
-6.841330 7.041202 2.067005 10053171
-4.076874 6.775066 1.159833 10053171
-3.201292 7.226768 1.697766 10053171
-6.940580 7.163188 1.482203 10053171
-4.287778 6.867628 1.111329 10053171
-5.304354 7.036922 0.082171 10053171
-6.802271 7.153832 2.883547 10053171
-4.216463 6.842246 2.434297 10053171
-3.445895 7.026371 2.645469 10053171
-3.062034 6.767498 1.131530 10053171
-3.482450 7.216130 0.561106 10053171
-3.454585 6.940305 2.316255 10053171
-4.084610 7.080997 2.686290 10053171
-3.748014 7.042896 2.917521 10053171
-5.768106 6.935409 0.472544 10053171
-4.755813 7.127438 1.551139 10053171
5.880702 -6.001199 1.149845 8342706
6.140292 -5.731315 1.794528 8342706
5.448827 -6.103800 3.641325 8342706
6.186187 -6.473517 0.565157 8342706
5.435578 -6.215263 3.046590 8342706
6.186246 -6.447840 4.070514 8342706
6.365058 -6.045763 4.905400 8342706
6.200302 -5.653360 0.323788 8342706
6.009251 -6.172683 4.021163 8342706
6.187148 -5.986215 0.481516 8342706
5.578490 -5.669619 2.002753 8342706
6.163778 -6.436605 3.331930 8342706
6.550749 -5.788643 4.830885 8342706
6.042405 -5.619367 2.389224 8342706
6.475867 -5.970475 1.339681 8342706
6.088006 -6.228135 2.947332 8342706
6.530070 -5.857460 0.293497 8342706
6.355052 -6.429228 2.973063 8342706
6.293937 -5.524268 2.213107 8342706
6.453431 -6.369509 2.687898 8342706
6.196912 -6.103168 2.973620 8342706
6.280191 -5.581575 2.039509 8342706
5.626925 -6.290986 3.519059 8342706
5.793661 -5.552155 0.199216 8342706
5.638319 -5.781735 0.521566 8342706
6.504706 -5.779322 1.396321 8342706
6.029552 -5.419691 0.749311 8342706
6.206612 -6.343881 1.509012 8342706
6.415843 -6.144119 1.591690 8342706
6.534462 -6.032216 3.477166 8342706
5.609053 -6.183424 3.370715 8342706
5.838975 -6.197940 4.700581 8342706
5.789222 -5.532291 2.039025 8342706
6.314238 -5.782390 2.912452 8342706
6.272907 -5.930824 3.528531 8342706
5.437330 -6.101858 0.537822 8342706
6.402782 -5.817329 1.991447 8342706
5.903373 -5.766355 1.737252 8342706
5.731324 -5.852958 3.151471 8342706
5.662951 -6.168635 1.841124 8342706
5.801915 -5.519005 0.797090 8342706
6.456818 -6.085127 0.400360 8342706
5.990935 -6.124122 4.292918 8342706
5.594742 -6.192437 4.540459 8342706
5.732811 -5.758603 4.158104 8342706
5.753891 -5.922138 3.096180 8342706
6.019685 -5.987381 1.436967 8342706
6.403727 -6.275632 2.003220 8342706
5.655174 -5.722858 3.094102 8342706
6.267312 -6.071353 3.898571 8342706
5.398363 -5.998843 4.578799 8342706
5.926707 -5.444509 4.507530 8342706
5.508212 -5.978939 3.247719 8342706
6.419028 -5.951809 1.952856 8342706
6.151356 -6.494925 4.283688 8342706
6.400970 -5.882020 1.203290 8342706
5.416225 -5.962425 2.341992 8342706
5.519281 -5.755195 4.315151 8342706
6.431667 -5.976126 2.992140 8342706
6.117682 -5.667059 4.823800 8342706
6.275055 -5.867306 2.140293 8342706
5.810292 -5.463989 2.089803 8342706
5.903619 -6.327945 3.547114 8342706
6.017704 -5.509353 3.514344 8342706
5.758999 -6.025697 4.520745 8342706
5.852696 -6.093957 1.738038 8342706
6.165439 -5.727019 1.997755 8342706
6.168060 -6.288630 1.958046 8342706
5.785647 -6.224467 1.520366 8342706
5.619512 -6.261843 1.077023 8342706
5.847123 -6.373621 1.266859 8342706
5.976230 -5.948970 3.048917 8342706
6.063033 -6.105273 4.770702 8342706
5.787357 -5.822203 0.598467 8342706
5.738973 -6.077780 2.492221 8342706
5.943581 -6.000844 3.159236 8342706
5.480746 -6.200412 1.908870 8342706
6.074096 -5.614575 0.145079 8342706
6.430882 -5.949476 1.235470 8342706
6.562020 -6.081253 3.865433 8342706
6.037757 -6.197655 3.285173 8342706
5.576381 -5.659851 1.986010 8342706
6.099211 -6.292858 4.447601 8342706
6.124560 -5.571129 4.627766 8342706
6.433579 -5.655021 0.237512 8342706
5.978588 -6.171894 2.693799 8342706
6.231894 -5.994700 2.435123 8342706
5.480219 -6.165084 3.692772 8342706
6.038242 -6.322781 2.005349 8342706
5.878323 -6.339236 1.020995 8342706
6.189260 -6.408782 4.435374 8342706
5.559027 -5.954747 3.868768 8342706
5.689240 -6.386008 2.527283 8342706
6.109900 -6.529055 1.396860 8342706
5.842009 -5.882992 4.539176 8342706
5.605542 -5.784988 2.352216 8342706
6.452284 -5.830445 2.612776 8342706
6.102319 -6.419267 0.594755 8342706
5.584759 -6.152607 1.868012 8342706
6.325806 -6.048988 1.868538 8342706
6.567543 -6.054356 3.634423 8342706
5.658675 -6.383047 0.627617 8342706
5.681462 -6.457762 0.779730 8342706
6.211866 -6.007746 2.565034 8342706
5.632136 -6.027445 3.282955 8342706
5.765078 -5.574972 4.719686 8342706
5.770982 -6.243988 4.019836 8342706
5.644004 -5.847213 1.244828 8342706
6.416865 -5.979927 4.455617 8342706
5.822026 -5.608825 3.507406 8342706
6.015532 -5.786071 0.913467 8342706
6.157520 -6.359834 1.780006 8342706
6.166521 -5.817745 1.585688 8342706
5.955812 -5.772233 4.095632 8342706
6.030331 -6.215427 4.582192 8342706
5.786410 -6.153142 0.234889 8342706
5.890791 -5.629667 1.675848 8342706
6.197891 -5.617738 3.866992 8342706
5.703330 -5.982659 3.110328 8342706
5.809184 -6.192870 2.597826 8342706
5.688045 -5.850582 2.890290 8342706
5.624051 -6.248464 3.727188 8342706
5.907771 -6.586766 1.067445 8342706
6.121606 -5.801170 1.665121 8342706
6.292860 -6.315083 0.539511 8342706
6.348279 -5.677382 2.302666 8342706
6.131611 -5.571547 3.077718 8342706
5.668720 -5.680999 1.218660 8342706
5.999981 -5.694582 3.726662 8342706
6.195769 -6.025966 4.415878 8342706
6.490182 -6.115931 2.679121 8342706
6.334647 -6.141913 3.354488 8342706
5.664874 -6.298820 4.686252 8342706
6.288170 -5.540333 4.637077 8342706
5.988650 -6.217820 3.541407 8342706
5.751812 -5.656494 2.614029 8342706
6.077042 -6.576714 4.504826 8342706
5.525858 -5.768984 4.277537 8342706
5.528558 -6.155008 2.891448 8342706
6.105914 -5.655044 2.475882 8342706
5.687172 -5.886376 4.031797 8342706
5.875640 -5.446522 3.049143 8342706
6.506817 -5.792821 0.118264 8342706
6.065103 -5.434860 0.397332 8342706
6.376568 -5.728314 0.091688 8342706
6.060286 -5.765219 0.510710 8342706
5.644681 -5.711703 3.067908 8342706
6.356470 -6.234475 1.510490 8342706
6.119659 -5.796026 2.478333 8342706
5.762971 -6.158721 1.601670 8342706
6.000063 -6.225276 0.130823 8342706
5.871202 -6.056918 3.755412 8342706
5.736504 -6.154976 3.396993 8342706
6.305235 -6.250940 4.583228 8342706
6.322098 -6.464841 3.380169 8342706
6.027448 -6.549640 4.174505 8342706
6.019605 -5.687067 4.209246 8342706
5.732144 -5.624480 4.225448 8342706
6.209627 -5.884097 1.903563 8342706
5.486851 -6.224013 4.658553 8342706
5.904901 -6.344378 4.685208 8342706
6.064373 -6.446850 1.322482 8342706
6.128843 -5.588785 2.040482 8342706
5.954192 -6.193738 1.708963 8342706
6.034664 -6.038342 4.543330 8342706
6.109330 -5.610279 1.139816 8342706
6.134378 -6.299572 1.583486 8342706
5.741552 -5.735497 0.112624 8342706
6.324957 -6.165318 3.048646 8342706
6.101116 -5.573199 2.643725 8342706
6.267387 -5.864507 1.032815 8342706
5.613522 -6.088290 1.908569 8342706
5.720495 -5.681867 2.264541 8342706
5.775923 -5.629064 2.599888 8342706
5.507683 -5.934812 3.579112 8342706
6.025405 -5.829811 1.865847 8342706
5.710462 -5.862542 1.471421 8342706
5.758780 -6.264987 2.809428 8342706
6.004870 -6.309309 4.878329 8342706
5.990454 -6.445004 4.818927 8342706
6.071153 -5.618148 3.839437 8342706
5.618240 -5.597270 1.999784 8342706
6.554426 -6.053344 4.259244 8342706
5.674538 -5.615124 1.918230 8342706
6.082224 -6.474413 1.687683 8342706
5.617966 -6.230292 1.868791 8342706
6.317339 -5.923241 3.517375 8342706
6.481911 -5.812827 3.812897 8342706
6.432546 -6.091681 3.874677 8342706
6.133879 -5.864614 3.344818 8342706
6.143979 -6.407949 1.013857 8342706
5.662228 -6.138055 3.333694 8342706
6.518572 -6.324932 0.132724 8342706
6.396574 -6.099828 4.933177 8342706
5.430307 -5.922844 3.795069 8342706
6.479119 -6.035343 0.232292 8342706
6.261322 -5.648579 3.721715 8342706
6.113744 -6.016188 2.460891 8342706
6.259624 -5.976503 0.700812 8342706
6.408564 -5.950520 2.428191 8342706
6.080938 -6.517562 2.770599 8342706
6.399574 -6.077255 1.390364 8342706
6.210569 -5.652560 1.077661 8342706
6.256360 -5.582950 4.324318 8342706
6.155881 -6.455724 0.746024 8342706
5.627872 -6.061802 3.179062 8342706
6.530230 -5.800058 1.090329 8342706
6.169335 -5.786692 2.598361 8342706
5.983230 -6.089595 2.530379 8342706
6.372188 -5.683515 1.817282 8342706
5.966921 -6.126374 3.837966 8342706
6.497111 -6.020247 1.567454 8342706
5.492948 -6.271468 0.709533 8342706
5.814738 -6.365447 5.002262 8342706
6.491422 -5.777400 3.976560 8342706
6.231670 -6.031691 0.121333 8342706
6.263450 -5.841012 3.577513 8342706
6.467439 -6.083763 4.583026 8342706
5.924736 -6.048331 3.130759 8342706
6.394114 -6.250850 1.763936 8342706
6.021008 -5.461231 1.979876 8342706
5.428233 -5.965505 4.264804 8342706
6.096892 -6.050946 2.966337 8342706
6.280770 -5.933249 3.258555 8342706
5.654555 -6.171429 3.371494 8342706
6.135247 -6.353245 4.403705 8342706
6.104227 -5.523691 4.115655 8342706
5.919648 -5.851602 2.926475 8342706
5.428034 -6.101550 2.060467 8342706
6.331070 -6.425307 4.875366 8342706
5.648656 -6.370968 2.934796 8342706
6.318119 -6.330451 2.378866 8342706
6.415383 -5.813502 1.053310 8342706
6.440298 -5.853477 2.255301 8342706
5.983927 -5.522226 2.057155 8342706
6.229945 -5.750074 0.465669 8342706
5.903020 -6.288482 1.577624 8342706
6.381429 -5.770199 2.457501 8342706
6.376028 -5.539497 4.102817 8342706
6.466458 -6.187065 1.474684 8342706
6.155869 -5.800145 3.237951 8342706
5.710366 -6.394073 3.086118 8342706
6.250367 -5.539571 4.459403 8342706
6.035706 -5.917594 0.778575 8342706
5.595967 -6.365249 4.411708 8342706
5.603246 -5.745909 4.255832 8342706
6.212706 -5.838662 1.373790 8342706
5.744233 -5.802660 1.067769 8342706
5.874090 -6.101086 0.632845 8342706
6.171912 -5.438498 1.189528 8342706
6.277479 -5.532124 1.173285 8342706
5.669108 -6.263983 4.276345 8342706
5.917566 -6.058967 4.950345 8342706
6.201331 -5.583099 3.755359 8342706
5.655249 -6.043129 4.266487 8342706
6.108892 -6.564636 4.286802 8342706
5.704585 -5.730068 3.970941 8342706
5.543498 -6.088264 3.785466 8342706
6.232294 -6.409332 1.040387 8342706
6.562158 -5.945689 0.497280 8342706
5.979066 -5.554048 2.932650 8342706
6.210632 -6.396050 1.664161 8342706
5.491920 -6.216567 3.909238 8342706
5.602374 -6.450718 2.802492 8342706
5.803671 -5.480082 2.241106 8342706
6.530048 -6.245906 2.081293 8342706
6.055003 -6.379179 0.542420 8342706
5.447238 -5.853338 2.606131 8342706
5.838554 -5.649545 2.544443 8342706
6.298336 -6.079914 0.217085 8342706
6.052365 -5.607296 4.356627 8342706
6.525231 -6.303891 4.424544 8342706
5.808668 -6.395923 4.409143 8342706
5.452588 -5.793181 4.334866 8342706
5.956594 -5.485846 1.502174 8342706
6.539098 -6.201467 4.017881 8342706
6.395504 -6.163930 1.428227 8342706
5.832506 -6.189095 3.769229 8342706
6.111637 -6.344623 1.925233 8342706
5.563937 -5.634735 3.396730 8342706
5.799845 -6.452853 3.557433 8342706
5.508157 -5.680990 3.921933 8342706
6.169906 -5.559960 0.060532 8342706
6.353104 -5.948691 2.643888 8342706
6.373056 -6.088266 1.754533 8342706
5.780171 -5.786141 3.229678 8342706
6.019958 -5.801267 3.178701 8342706
6.316139 -6.067510 2.026519 8342706
6.369108 -5.820772 2.219495 8342706
6.060939 -5.787507 0.102168 8342706
5.813971 -6.077344 0.101407 8342706
6.224643 -6.454859 0.866733 8342706
6.355563 -6.469481 0.751690 8342706
6.144331 -6.363903 4.229379 8342706
5.886873 -6.514261 1.812541 8342706
5.646806 -5.916667 0.978398 8342706
5.772662 -5.667770 2.711824 8342706
6.204628 -5.746524 0.403609 8342706
6.087186 -5.412302 2.076340 8342706
5.995698 -6.493819 1.067357 8342706
6.233189 -5.543197 1.291316 8342706
6.458790 -5.671682 3.613416 8342706
6.479615 -6.250494 0.308485 8342706
5.747537 -5.923883 4.005283 8342706
6.179515 -6.103567 1.744690 8342706
6.095297 -6.230296 3.229868 8342706
5.595469 -6.247889 3.697001 8342706
6.535080 -6.159637 1.851119 8342706
6.268703 -6.215878 1.675744 8342706
5.543632 -5.793947 2.467963 8342706
6.375066 -6.413908 2.002596 8342706
6.116941 -6.226558 3.581186 8342706
6.157701 -6.559904 4.288864 8342706
6.426173 -6.379523 3.680681 8342706
6.116970 -5.546424 2.002467 8342706
6.091435 -5.469951 0.888732 8342706
6.155441 -6.444036 1.167101 8342706
5.684172 -6.067924 0.131330 8342706
5.843360 -5.601241 2.622268 8342706
5.788226 -6.381483 2.620368 8342706
6.081224 -5.472025 3.494243 8342706
5.768972 -6.290954 3.360541 8342706
6.318974 -6.330518 1.077626 8342706
5.819572 -6.545426 4.765529 8342706
6.259393 -5.677741 4.902997 8342706
6.003405 -6.482807 1.864973 8342706
5.685335 -5.789161 0.296138 8342706
6.279586 -5.519620 4.285220 8342706
5.595952 -5.845454 4.359564 8342706
6.229577 -5.587628 0.490794 8342706
6.271542 -6.357897 4.008356 8342706
6.183270 -6.547793 0.562175 8342706
6.174752 -5.853465 1.024000 8342706
6.437260 -6.157146 2.781576 8342706
6.048414 -6.393217 3.728742 8342706
5.985360 -5.550764 2.072025 8342706
6.457075 -6.188170 3.299840 8342706
6.110941 -5.454692 0.234713 8342706
5.467472 -5.708995 4.399955 8342706
6.179523 -6.353363 1.665400 8342706
6.426354 -5.599099 1.842220 8342706
5.880117 -6.106082 0.918172 8342706
6.374558 -5.602383 3.712067 8342706
5.621556 -6.138656 3.751637 8342706
6.512663 -5.932628 1.182807 8342706
5.709589 -5.997811 2.427756 8342706
6.264005 -6.319917 2.943169 8342706
5.715237 -6.393705 4.106295 8342706
6.053855 -6.291258 3.905697 8342706
6.401830 -5.559517 4.949902 8342706
6.507510 -6.265558 4.665612 8342706
6.010638 -5.913929 3.866176 8342706
6.168478 -6.391563 4.340714 8342706
5.731121 -6.202958 2.007547 8342706
6.453859 -5.859622 2.121616 8342706
6.459446 -5.977924 2.206761 8342706
5.848668 -5.439559 1.049794 8342706
6.469340 -5.813057 0.271540 8342706
5.853035 -5.479310 1.384885 8342706
6.261035 -5.691955 4.838680 8342706
5.973062 -5.629045 1.250569 8342706
6.492784 -5.803965 2.289464 8342706
5.789240 -6.219929 3.695144 8342706
6.276658 -6.181555 1.520033 8342706
5.968129 -6.386652 3.964296 8342706
6.003818 -5.826243 2.283710 8342706
6.147272 -6.040422 4.096548 8342706
6.154888 -6.418013 4.346063 8342706
6.303741 -5.617163 4.755587 8342706
6.350223 -5.817548 3.608499 8342706
5.999776 -5.781411 3.161174 8342706
6.542441 -5.887308 3.056587 8342706
6.277249 -5.883650 2.834211 8342706
6.280711 -6.327238 2.001252 8342706
5.754854 -5.715300 3.613515 8342706
5.695347 -5.711297 3.073549 8342706
6.277884 -5.982564 1.463536 8342706
6.394825 -6.236110 1.084974 8342706
5.839647 -5.600937 2.958343 8342706
5.504854 -5.898498 0.139078 8342706
5.648206 -5.653232 0.444634 8342706
5.601605 -5.574817 2.869872 8342706
6.006983 -5.521853 2.123379 8342706
5.522274 -6.117855 1.881505 8342706
6.118580 -5.474308 3.481680 8342706
5.432667 -5.900275 4.557872 8342706
5.438015 -5.814368 2.924640 8342706
6.179806 -6.319414 1.861804 8342706
5.559566 -6.387405 0.854927 8342706
5.884948 -6.527142 1.621073 8342706
6.085160 -6.338131 3.429921 8342706
5.959447 -6.484923 4.609922 8342706
6.356170 -6.149615 0.809974 8342706
6.503576 -6.340020 1.448309 8342706
6.572432 -5.915971 3.397933 8342706
5.563653 -6.092389 1.104595 8342706
6.283575 -6.295424 1.961715 8342706
6.152324 -6.316648 2.955889 8342706
6.066259 -6.509722 4.967259 8342706
5.983140 -6.462042 0.602017 8342706
6.301048 -5.754816 1.732819 8342706
6.382494 -5.927680 1.309295 8342706
6.215851 -6.383950 0.500090 8342706
6.294807 -6.129004 2.906395 8342706
6.470281 -6.155474 0.098145 8342706
6.100585 -5.654259 1.223802 8342706
6.497314 -6.281612 4.278044 8342706
6.470311 -5.660157 4.820081 8342706
6.503013 -6.140344 3.624305 8342706
6.317009 -6.315629 1.603499 8342706
5.756270 -6.311631 0.439692 8342706
6.155453 -5.586634 2.709793 8342706
6.231157 -6.065041 3.857422 8342706
6.299852 -5.830958 0.382257 8342706
6.196602 -5.857394 3.963179 8342706
5.783725 -6.413116 3.294378 8342706
6.392047 -6.213524 0.013164 8342706
6.347915 -5.744102 1.373775 8342706
6.267934 -6.016029 4.217133 8342706
6.345582 -6.076632 2.033786 8342706
5.788777 -5.597601 4.402535 8342706
5.837577 -6.027578 0.847948 8342706
6.056170 -5.733575 4.178213 8342706
5.525949 -5.726594 3.980027 8342706
6.451911 -6.136083 1.748928 8342706
6.283066 -6.458159 1.711375 8342706
6.264765 -6.201468 4.628749 8342706
5.526360 -6.330101 1.218845 8342706
6.014890 -6.244087 3.461067 8342706
6.207850 -5.562656 3.783715 8342706
6.034574 -6.572295 3.678745 8342706
5.934377 -6.025493 1.732585 8342706
5.808833 -5.636390 2.722928 8342706
6.180531 -6.308999 0.916402 8342706
6.187910 -5.997129 3.877607 8342706
6.122723 -6.303440 1.990433 8342706
5.751176 -6.148385 1.035531 8342706
6.568407 -6.015843 1.741747 8342706
5.726336 -6.101777 4.313929 8342706
6.487032 -5.770782 1.027419 8342706
5.563188 -5.865940 0.774249 8342706
6.296975 -5.990362 5.004994 8342706
6.190444 -6.572836 4.137742 8342706
6.085210 -6.406421 4.709783 8342706
5.992067 -5.811099 1.393658 8342706
6.539662 -6.161929 4.981227 8342706
6.158679 -6.077087 1.672742 8342706
5.832573 -5.972190 2.077114 8342706
5.730111 -5.965835 3.030987 8342706
6.493725 -6.238829 4.081831 8342706
5.473059 -5.872292 3.576216 8342706
6.171405 -6.075474 0.975193 8342706
5.872952 -6.272328 1.903233 8342706
5.968417 -5.653248 2.378882 8342706
6.341879 -6.262052 0.098709 8342706
5.819786 -5.589965 4.550018 8342706
5.974773 -5.460000 4.055381 8342706
5.788543 -5.451659 3.549780 8342706
6.431462 -6.368247 1.560341 8342706
5.506191 -6.027277 4.718458 8342706
6.059396 -6.527262 0.104741 8342706
6.523962 -5.958462 1.494073 8342706
6.379517 -5.570130 3.371760 8342706
5.764881 -5.893422 0.818360 8342706
5.995613 -6.000185 0.858174 8342706
5.623836 -5.942147 2.217386 8342706
5.734078 -5.631528 2.266829 8342706
5.776150 -6.113559 3.525809 8342706
6.315772 -5.502026 1.146509 8342706
5.628344 -5.784879 4.831175 8342706
5.888001 -5.804341 0.086687 8342706
5.622855 -6.443932 2.461102 8342706
5.889380 -6.458921 3.644452 8342706
6.032537 -6.581996 0.573987 8342706
6.048864 -5.693175 1.741793 8342706
6.089285 -5.922761 1.771306 8342706
6.159390 -5.770402 4.173978 8342706
5.478695 -6.258431 4.965345 8342706
6.559530 -5.832576 2.158923 8342706
6.224214 -6.448991 3.902653 8342706
6.237669 -5.717889 2.502488 8342706
6.223909 -6.381206 2.390736 8342706
6.069838 -5.658073 4.498356 8342706
5.640409 -6.307325 3.484891 8342706
5.996518 -6.424459 2.716339 8342706
6.566329 -6.108681 0.449709 8342706
5.708126 -5.656711 4.820521 8342706
6.297946 -5.766130 0.296074 8342706
5.951529 -5.731559 4.690597 8342706
6.074090 -5.551927 2.417550 8342706
6.349851 -5.933130 1.875630 8342706
5.821186 -6.334319 3.428507 8342706
6.112644 -5.714131 4.209577 8342706
6.463135 -5.821062 0.463104 8342706
6.372878 -5.796501 4.644351 8342706
6.271279 -6.047496 2.754819 8342706
6.331651 -6.241648 0.696426 8342706
5.429674 -6.028277 2.426420 8342706
5.703668 -5.940864 4.306073 8342706
6.268694 -5.886149 4.810985 8342706
6.287389 -5.575007 1.368304 8342706
5.793317 -6.252854 4.051871 8342706
6.439043 -5.676420 4.597896 8342706
5.850585 -5.500113 4.355182 8342706
5.659153 -5.832748 0.469363 8342706
6.425087 -5.817542 3.468116 8342706
6.364233 -5.755350 0.673680 8342706
5.685636 -6.091949 0.761366 8342706
