# .PCD v0.7 - Point Cloud Data file format
VERSION 0.7
FIELDS x y z rgb
SIZE 4 4 4 4
TYPE F F F U
COUNT 1 1 1 1
WIDTH 1311
HEIGHT 1
VIEWPOINT 0 0 0 1 0 0 0
POINTS 1311
DATA ascii
2.679018 -8.748255 0.961870 1645029
2.631342 -9.176587 0.626104 1645029
3.142338 -8.885903 1.098999 1645029
2.921474 -9.166094 1.275306 1645029
2.434857 -8.904222 0.620101 1645029
3.101964 -9.041157 1.236004 1645029
2.481252 -8.888976 0.852579 1645029
2.281339 -8.616047 1.151777 1645029
2.210819 -9.130426 0.968476 1645029
2.828094 -8.508811 1.146857 1645029
2.891332 -8.681540 1.259483 1645029
2.649276 -8.968749 0.922116 1645029
2.859329 -9.079330 1.163758 1645029
2.467114 -9.080824 1.355057 1645029
2.791458 -8.572522 1.259506 1645029
2.629477 -9.226634 0.684469 1645029
2.753983 -9.302406 0.773104 1645029
2.506380 -8.642129 1.122912 1645029
2.729890 -9.120582 0.871208 1645029
2.587579 -8.849220 0.927213 1645029
2.989897 -8.841118 1.033041 1645029
2.890606 -8.975033 1.134034 1645029
2.444442 -9.065901 0.858900 1645029
2.311845 -8.827888 0.654230 1645029
2.451325 -8.830877 1.347741 1645029
2.475068 -8.862943 0.888416 1645029
3.038145 -9.162779 0.954674 1645029
2.605202 -8.857224 1.078869 1645029
2.692239 -8.470279 1.064076 1645029
2.155011 -9.176774 1.050759 1645029
2.666667 -8.828128 1.157228 1645029
2.416875 -9.206219 1.086187 1645029
2.457940 -9.047026 0.506958 1645029
2.259928 -8.927299 0.861937 1645029
2.875668 -9.052035 1.146050 1645029
2.642387 -8.967114 1.205418 1645029
2.486141 -8.740454 0.690544 1645029
2.766411 -8.786233 0.684732 1645029
2.784110 -8.509867 0.998262 1645029
2.742362 -8.872338 0.890541 1645029
2.551385 -8.908915 0.679417 1645029
2.927074 -9.186571 0.797541 1645029
2.547808 -9.335588 0.968548 1645029
3.025104 -8.959353 0.962601 1645029
2.583969 -9.064949 0.822556 1645029
2.498147 -9.212169 1.358645 1645029
2.561360 -8.759421 0.520567 1645029
3.053031 -8.911571 1.289191 1645029
2.347237 -8.587793 0.729173 1645029
2.334602 -8.695686 0.664811 1645029
2.728991 -9.365769 0.892407 1645029
2.368802 -9.040649 0.869038 1645029
2.647502 -9.318103 0.910391 1645029
2.775145 -8.973099 0.986306 1645029
2.348651 -9.003945 1.006927 1645029
2.514524 -8.626360 0.890821 1645029
2.545591 -8.416845 0.938187 1645029
2.414087 -8.977546 1.412593 1645029
2.535447 -9.002904 1.138608 1645029
2.759155 -8.762429 1.248312 1645029
2.985866 -8.779277 1.142432 1645029
3.092304 -8.794870 1.004560 1645029
2.332722 -9.228302 1.237017 1645029
2.909674 -8.567434 1.045534 1645029
3.008123 -8.908586 1.051353 1645029
2.397671 -8.677962 0.573888 1645029
2.531329 -8.582228 1.256042 1645029
2.683660 -8.485986 1.062345 1645029
2.822593 -8.709242 0.858469 1645029
2.651638 -8.708682 0.530441 1645029
2.947166 -8.880172 1.022575 1645029
2.988597 -8.673709 1.203415 1645029
7.279127 -6.958501 0.613505 1690649
7.027009 -7.384678 0.797328 1690649
7.208094 -7.346380 0.701629 1690649
6.638312 -7.418639 1.315204 1690649
7.342857 -7.217843 0.494140 1690649
7.031129 -7.162469 0.593790 1690649
7.250760 -7.257004 1.030237 1690649
7.007146 -7.346999 1.079726 1690649
7.510675 -7.342630 1.299351 1690649
6.852915 -7.291738 0.943304 1690649
7.473726 -7.174181 0.521177 1690649
7.153310 -7.399010 1.758941 1690649
7.058146 -7.657958 0.179144 1690649
6.757927 -7.060297 1.059874 1690649
7.167983 -6.939246 1.041042 1690649
7.305975 -7.596263 1.144782 1690649
7.477780 -7.375494 1.010447 1690649
6.904720 -7.430450 0.584753 1690649
7.237086 -7.140010 1.403477 1690649
7.166430 -7.334517 1.130440 1690649
7.182988 -6.886757 1.720218 1690649
7.172153 -7.673828 1.169404 1690649
6.690528 -7.448596 0.880605 1690649
6.659499 -7.439419 0.879499 1690649
6.817085 -6.921286 1.527364 1690649
7.220411 -7.370634 1.856407 1690649
6.751226 -7.374999 1.418841 1690649
7.249270 -6.957422 1.819561 1690649
7.060996 -7.552892 0.624183 1690649
7.316489 -7.016706 1.220463 1690649
6.890538 -6.932989 1.438123 1690649
6.920454 -7.106691 1.591724 1690649
7.449833 -7.450651 0.972101 1690649
6.875082 -7.171633 0.759867 1690649
7.073945 -7.392955 1.067093 1690649
7.348002 -6.897351 1.101847 1690649
6.657873 -7.225789 0.558949 1690649
7.134235 -7.044366 0.618705 1690649
6.779839 -7.398196 1.274275 1690649
7.150197 -7.007166 1.876444 1690649
7.219191 -7.122340 1.077460 1690649
6.926152 -7.575386 0.345153 1690649
7.210014 -7.114941 1.903212 1690649
7.067508 -7.542482 1.010380 1690649
6.791865 -6.928415 1.896075 1690649
7.270545 -7.430540 1.133613 1690649
7.114385 -7.568173 1.443338 1690649
7.043785 -7.080104 0.998668 1690649
6.893116 -6.838516 1.036171 1690649
7.050321 -6.900187 1.373736 1690649
6.884710 -7.120235 1.224265 1690649
7.235481 -6.845776 0.416101 1690649
7.473810 -7.140476 1.517477 1690649
6.857802 -7.040698 1.037005 1690649
6.671987 -7.442540 1.836906 1690649
7.036774 -7.598900 1.698045 1690649
6.878489 -7.352007 0.788949 1690649
6.905746 -7.113315 0.594351 1690649
7.418533 -7.484929 0.930329 1690649
7.035463 -7.289686 1.459732 1690649
6.729300 -7.299520 0.920677 1690649
7.242244 -7.243610 0.137503 1690649
6.852336 -7.126886 0.191149 1690649
7.108789 -7.643641 0.171629 1690649
7.067413 -7.010091 0.966112 1690649
7.185475 -7.460585 1.725960 1690649
6.879953 -7.542340 1.683409 1690649
7.135192 -7.695460 1.784746 1690649
6.852362 -7.087750 0.237688 1690649
6.768137 -7.381817 0.313811 1690649
6.880990 -7.158709 1.339075 1690649
7.200817 -7.397864 0.651971 1690649
6.902949 -7.508915 1.635396 1690649
7.445921 -7.296385 1.152224 1690649
7.224191 -7.284470 0.100615 1690649
7.020900 -6.891928 1.243778 1690649
7.106202 -7.087635 0.214124 1690649
7.052307 -7.580211 1.093294 1690649
7.370170 -7.297783 0.717563 1690649
7.234305 -6.987179 1.186424 1690649
6.982093 -6.829348 0.220893 1690649
7.065974 -7.437845 0.484884 1690649
7.150585 -7.084787 0.917267 1690649
6.908103 -7.217010 1.772139 1690649
6.717665 -7.145880 0.680130 1690649
7.165972 -7.615822 0.203592 1690649
7.047330 -7.616050 1.458461 1690649
6.887036 -7.544530 0.145001 1690649
7.296742 -7.074812 1.507439 1690649
7.373334 -7.452783 1.266896 1690649
7.080429 -6.956210 1.690142 1690649
7.017991 -6.933407 1.140323 1690649
7.282995 -6.937924 0.772838 1690649
6.870315 -7.348358 0.169833 1690649
6.849131 -6.943459 1.268677 1690649
7.363309 -7.519540 0.600553 1690649
6.862625 -7.140632 1.677313 1690649
7.004703 -7.209773 1.885909 1690649
7.364079 -7.086148 0.498714 1690649
6.947594 -7.464445 1.638069 1690649
6.721890 -7.476587 0.954395 1690649
6.969596 -6.945696 1.736654 1690649
6.911123 -7.504152 1.471256 1690649
6.761622 -7.022012 0.621321 1690649
6.866655 -7.046086 0.152131 1690649
6.759759 -7.567386 1.123547 1690649
6.850706 -7.039680 0.628445 1690649
6.869403 -7.027278 1.072642 1690649
6.740213 -7.462121 0.778440 1690649
6.874728 -7.402202 1.286809 1690649
7.406650 -7.536289 0.153439 1690649
7.073095 -6.834462 1.885817 1690649
7.467733 -7.157547 0.986027 1690649
7.261653 -7.646672 1.835806 1690649
7.457052 -7.165756 1.458425 1690649
7.189978 -7.540333 1.077646 1690649
7.316612 -7.068675 1.361018 1690649
7.099593 -7.591228 1.134961 1690649
7.012619 -6.913848 0.768406 1690649
7.123513 -7.654176 0.141097 1690649
6.688859 -7.306546 0.960087 1690649
6.774460 -6.991158 0.293093 1690649
7.356949 -7.144358 1.322094 1690649
7.293025 -7.546061 0.106134 1690649
6.845890 -7.253893 1.084511 1690649
7.142222 -7.481684 0.245835 1690649
6.715694 -7.298798 0.937064 1690649
7.072408 -7.554939 0.482964 1690649
7.441541 -7.083377 0.702409 1690649
6.775969 -7.159813 1.878555 1690649
6.967661 -7.150525 0.242167 1690649
7.195316 -7.280521 0.469770 1690649
7.393326 -7.571266 0.892540 1690649
6.647455 -7.079782 1.403345 1690649
6.822103 -7.162991 1.525885 1690649
6.899115 -7.250985 0.348031 1690649
7.267171 -7.555365 1.457744 1690649
6.995151 -7.309736 0.506016 1690649
7.285387 -7.389051 1.339438 1690649
7.215610 -7.041157 0.200363 1690649
6.698106 -7.283226 0.662264 1690649
7.466116 -7.376873 0.740178 1690649
7.363882 -7.126531 1.289516 1690649
6.961639 -7.179826 0.912613 1690649
6.745232 -7.241712 0.635710 1690649
7.499393 -7.099529 1.195160 1690649
7.126595 -7.382735 1.280339 1690649
6.911503 -7.150213 1.663884 1690649
7.084614 -6.848938 1.201687 1690649
7.458297 -7.242229 1.264716 1690649
7.294024 -7.463781 0.494578 1690649
6.847938 -7.249797 1.007837 1690649
7.146765 -7.250082 1.208275 1690649
7.235330 -7.350295 0.700834 1690649
-4.379333 7.172375 0.467229 10053171
-5.975016 7.096843 0.438333 10053171
-4.432971 6.987531 2.386041 10053171
-5.162228 7.143774 2.881094 10053171
-3.850676 6.984122 0.301176 10053171
-6.673910 6.765538 2.477902 10053171
-4.116942 7.158636 2.557082 10053171
-3.167448 6.971389 1.340349 10053171
-4.373765 6.991516 0.501574 10053171
-3.513396 7.212145 2.571617 10053171
-3.672034 7.211882 2.495256 10053171
-3.268548 6.961996 0.859555 10053171
-3.997206 7.066168 0.178153 10053171
-4.965621 6.807615 1.151672 10053171
-6.814739 6.989589 0.173162 10053171
-4.614061 7.121310 2.202677 10053171
-6.426418 6.981980 1.227974 10053171
-4.665068 6.956150 0.449016 10053171
-6.890286 6.752679 2.842135 10053171
-6.297329 7.227025 2.877349 10053171
-6.079631 7.055457 0.749170 10053171
-6.136782 6.824886 2.803526 10053171
-3.740521 6.856493 2.201128 10053171
-4.825078 7.049611 2.517106 10053171
-6.579720 7.004946 2.649757 10053171
-6.060594 7.143975 1.112528 10053171
-3.404391 7.165010 1.455052 10053171
-4.619785 6.964555 1.340729 10053171
-5.996147 7.229756 2.379846 10053171
-6.677622 7.018594 2.947430 10053171
-6.874398 7.073008 1.125068 10053171
-5.976762 6.726460 0.163157 10053171
-6.133245 7.021954 1.947644 10053171
-3.855383 6.979053 0.592114 10053171
-4.706340 7.167768 0.111935 10053171
-5.866822 7.172972 2.050736 10053171
-4.834671 6.941893 1.399826 10053171
-5.509842 7.224597 2.726344 10053171
-5.057364 6.757638 1.290775 10053171
-6.173410 6.971995 2.537629 10053171
-4.476847 6.918237 2.117814 10053171
-4.118584 7.120818 1.107700 10053171
-3.887037 6.778582 0.884311 10053171
-4.728719 6.930750 2.246149 10053171
-5.549338 6.952013 0.643274 10053171
-3.796593 7.054310 1.163029 10053171
-3.497539 7.056819 2.103063 10053171
-4.286489 7.175285 0.701319 10053171
-4.093927 7.247817 2.533608 10053171
-5.300911 6.971666 1.602787 10053171
-6.758259 7.055939 2.621839 10053171
-5.655231 6.984469 1.213353 10053171
-5.770114 6.864041 2.796503 10053171
-3.544126 6.848206 2.705897 10053171
-3.071166 6.912231 0.614854 10053171
-5.028484 7.055784 2.163405 10053171
-3.507709 7.039818 0.824217 10053171
-5.427477 7.057208 1.618316 10053171
-3.344728 7.081172 2.166681 10053171
-6.455360 7.191630 0.010333 10053171
-6.385540 6.761883 2.603241 10053171
-4.396035 6.943341 2.928603 10053171
-6.309725 6.946367 0.873280 10053171
-3.756043 7.189889 1.063189 10053171
-3.556916 7.078555 2.696842 10053171
-4.188562 6.903322 2.145869 10053171
-6.350716 6.817531 1.062144 10053171
-3.776469 6.997082 1.944718 10053171
-3.894200 7.068755 1.235377 10053171
-5.435113 7.199420 0.696527 10053171
-5.938730 6.932292 2.511301 10053171
-3.286363 6.944224 1.477875 10053171
-6.803601 6.761047 2.288300 10053171
-3.690824 6.996378 1.009195 10053171
-6.517507 7.200789 1.574774 10053171
-5.283220 6.989558 0.850966 10053171
-6.507737 6.886450 0.454096 10053171
-4.532938 7.092791 2.276966 10053171
-6.712341 7.180530 1.126773 10053171
-4.029846 6.890152 0.257860 10053171
-5.771178 7.231152 0.700289 10053171
-6.977284 7.056377 2.911650 10053171
-3.129830 7.059819 2.152841 10053171
-4.143188 7.096931 0.032836 10053171
-4.437021 7.190295 1.346470 10053171
-6.598647 7.235805 0.430241 10053171
-5.866574 6.864887 0.174383 10053171
-3.265679 6.881169 0.144161 10053171
-6.530138 6.927980 1.336961 10053171
-5.958818 6.838341 -0.001324 10053171
-5.446354 7.052576 1.758358 10053171
-6.391582 6.986294 2.986755 10053171
-6.063050 6.825615 2.937936 10053171
-4.238280 7.228431 1.408486 10053171
-4.281876 7.104712 2.222738 10053171
-3.924428 7.216080 2.391891 10053171
-5.662318 7.207335 0.386533 10053171
-5.353315 6.908370 0.455958 10053171
-3.355191 6.970729 0.992261 10053171
-6.859179 6.955992 0.259809 10053171
-4.481575 6.805740 1.767364 10053171
-6.252801 7.210343 1.518791 10053171
-3.822051 7.193513 0.884279 10053171
-3.784614 6.946183 2.077399 10053171
-4.813697 7.139062 1.220431 10053171
-5.643998 7.246020 1.585195 10053171
-4.232457 6.983454 0.404449 10053171
-5.523629 7.226460 0.301548 10053171
-3.283650 7.070511 0.119761 10053171
-5.112460 6.780264 1.792584 10053171
-5.628660 7.031351 2.644486 10053171
-5.454140 6.891556 2.379311 10053171
-4.459960 6.932639 0.684094 10053171
-4.775235 6.950752 2.307942 10053171
-6.495528 6.957613 1.168616 10053171
-5.721779 6.773982 1.381649 10053171
-4.573566 6.916667 1.784198 10053171
-4.049197 7.086320 2.565107 10053171
-3.308162 7.028232 0.164182 10053171
-4.626809 6.742559 1.398555 10053171
-3.812322 7.192386 0.866195 10053171
-5.150965 6.865347 0.227876 10053171
-6.439527 6.761346 0.310997 10053171
-5.569993 7.005704 0.823923 10053171
-3.131547 7.182820 1.568884 10053171
-5.391386 7.075503 2.717310 10053171
-5.330374 6.926107 2.703355 10053171
-4.393100 6.896587 0.765332 10053171
-6.971499 7.102570 2.668420 10053171
-4.266723 7.071756 2.897747 10053171
-4.879319 6.965002 0.233493 10053171
-6.485790 6.898272 2.235212 10053171
-5.351367 6.916774 1.734388 10053171
-5.254316 7.034395 1.634349 10053171
-4.636148 6.844851 0.811192 10053171
-3.263419 6.845275 0.432435 10053171
-3.990053 6.942404 1.217408 10053171
-3.775609 7.221249 0.794919 10053171
-5.122651 7.046080 2.762469 10053171
-4.750159 7.180987 1.104925 10053171
-5.647131 6.778275 2.555572 10053171
-5.409202 7.163825 2.287359 10053171
-6.037124 6.994438 2.981251 10053171
-3.708846 6.936095 1.076052 10053171
-4.239763 7.069688 2.738736 10053171
-5.936495 7.046116 0.634854 10053171
-4.978726 6.804641 2.319299 10053171
-3.925901 6.808270 1.360696 10053171
-6.001051 7.194350 1.734430 10053171
-3.616634 7.193577 0.383948 10053171
-5.856602 6.919179 2.255539 10053171
-6.571250 6.858000 1.755665 10053171
-4.752057 6.799390 2.788129 10053171
-6.473270 7.162211 1.219534 10053171
-3.566034 7.019180 1.070096 10053171
-6.260773 6.833692 1.531330 10053171
-3.030151 6.863887 1.575793 10053171
-6.383379 7.239791 0.947857 10053171
-4.777808 7.009088 1.226020 10053171
-6.398035 7.109651 0.933643 10053171
-6.892763 6.882957 2.261287 10053171
-3.700341 7.220003 1.817328 10053171
-4.222788 7.202161 0.807494 10053171
-6.312053 6.793054 2.931984 10053171
-3.021862 6.776769 2.260818 10053171
-6.428013 6.935578 1.508682 10053171
-6.297720 6.979503 1.010469 10053171
-5.153041 6.789023 1.212472 10053171
-3.957075 7.175306 0.943381 10053171
-6.411402 7.078944 0.853674 10053171
-6.221822 6.742720 2.084033 10053171
-3.519686 7.037922 0.944558 10053171
-5.323012 6.972166 2.317023 10053171
-4.497278 6.782299 0.617971 10053171
-5.578715 7.231281 0.175232 10053171
-3.623639 6.922580 1.834544 10053171
-6.992372 7.147141 2.099423 10053171
-6.182334 7.167307 1.923472 10053171
-4.714233 6.902938 0.456547 10053171
-5.541648 6.964565 1.752210 10053171
-6.747377 6.764484 1.274997 10053171
-5.547133 6.806466 1.493283 10053171
-6.405385 6.875815 2.030182 10053171
-5.985235 6.772792 1.056293 10053171
-5.772578 6.752194 2.076340 10053171
-5.559981 6.783551 1.544966 10053171
-3.379270 7.072190 2.623826 10053171
-5.068625 7.032928 0.351784 10053171
-4.189364 7.183777 0.547579 10053171
-5.069089 7.136012 0.828363 10053171
-6.404392 6.915956 2.845318 10053171
-6.870123 6.838318 2.540006 10053171
-6.696044 6.742698 0.431025 10053171
-3.240275 7.083209 1.590440 10053171
-6.030792 6.753515 2.613631 10053171
-4.053347 6.923831 1.564440 10053171
-6.724342 7.214722 0.622451 10053171
-6.892340 6.954652 2.963878 10053171
-4.466339 6.925499 1.922466 10053171
-4.915614 7.086956 2.560351 10053171
-3.965608 7.116448 0.785854 10053171
-4.108825 7.252692 0.504072 10053171
-3.933471 6.788745 1.138383 10053171
-3.485845 7.224428 2.485686 10053171
-3.385270 7.176023 0.191482 10053171
-3.146539 6.792942 0.455308 10053171
-4.800615 7.215767 1.112058 10053171
-6.904840 7.102314 0.584968 10053171
-6.221810 6.763077 1.869918 10053171
-6.621343 6.916616 0.620840 10053171
-6.345811 7.167512 1.743999 10053171
-6.399014 6.815831 1.125849 10053171
-4.979616 6.821702 0.301909 10053171
-5.285865 7.035625 1.125639 10053171
-6.008855 7.081232 1.255584 10053171
-3.197104 6.996243 2.060373 10053171
-4.529902 6.927089 0.153658 10053171
-6.054114 6.838318 0.142123 10053171
-3.641579 7.149204 0.333655 10053171
-3.323923 7.190969 2.602302 10053171
-4.019749 6.899467 2.658342 10053171
-4.101574 6.846131 2.960661 10053171
-5.539970 7.098341 1.939599 10053171
-4.332906 7.152947 0.738689 10053171
-4.265963 6.947998 0.578363 10053171
-3.623553 7.164595 0.600478 10053171
-3.726592 6.949063 0.910799 10053171
-4.654557 7.034508 0.620357 10053171
-4.182261 6.943825 0.207194 10053171
-6.553286 6.787950 2.375030 10053171
-4.724915 7.152502 0.498546 10053171
-5.182404 6.984405 1.456348 10053171
-6.441792 7.243780 1.320185 10053171
-6.974668 7.040148 2.103924 10053171
-6.604829 7.233377 1.473565 10053171
-5.011271 7.130305 2.881385 10053171
-4.723931 6.840344 0.730766 10053171
-4.291470 6.905047 1.307514 10053171
-5.434227 6.833098 2.064549 10053171
-4.009804 6.756742 2.801091 10053171
-5.951497 7.010943 1.392727 10053171
-6.747386 6.768800 0.251981 10053171
-3.276588 7.157176 2.695467 10053171
-5.107251 7.065528 1.736025 10053171
-5.858072 7.186261 0.495790 10053171
-6.223468 6.879043 1.088709 10053171
-6.944049 7.067702 1.614534 10053171
-5.753665 7.212719 2.543202 10053171
-6.227270 6.952386 2.031147 10053171
-3.801131 6.953115 1.348637 10053171
-5.719402 7.156888 0.877275 10053171
-3.111154 6.791016 0.981475 10053171
-3.906781 6.853174 1.119766 10053171
-5.344438 7.178796 1.642069 10053171
-3.504554 6.775614 0.848413 10053171
-4.689810 7.242454 1.559958 10053171
-3.650715 6.997239 2.186284 10053171
-4.591702 7.123930 2.663035 10053171
-4.909353 7.079021 2.096403 10053171
-6.902580 6.780064 2.404285 10053171
-3.422811 7.117367 0.847597 10053171
-5.525765 7.072942 2.934497 10053171
-4.822977 6.927042 0.680326 10053171
-4.584325 7.010254 2.181336 10053171
-6.904779 7.015733 2.185502 10053171
-3.653419 6.847020 1.240525 10053171
-4.349767 6.932006 0.826810 10053171
-6.442900 6.772352 2.080027 10053171
-6.039466 6.783813 2.064529 10053171
-4.848582 6.771325 0.951569 10053171
-3.696286 6.853026 0.007247 10053171
-4.857752 7.098374 2.482546 10053171
-3.753313 7.012078 2.472056 10053171
-5.173257 7.093574 1.523675 10053171
-6.253180 6.858046 1.603302 10053171
-6.664339 7.176814 2.935393 10053171
-3.935372 6.937373 0.950845 10053171
-6.229597 7.047869 0.939495 10053171
-4.899587 7.153811 1.526573 10053171
-3.300757 7.201028 0.915287 10053171
-6.362276 7.073239 1.869864 10053171
-5.683764 6.797217 1.318640 10053171
-3.551410 6.913355 0.413331 10053171
-5.650595 6.799355 2.121513 10053171
-4.315107 7.246540 0.444101 10053171
-3.205154 7.015113 1.427903 10053171
-3.094197 6.948244 1.814608 10053171
-4.075675 6.730490 0.906414 10053171
-4.260411 7.208816 1.340460 10053171
-3.091123 6.872987 0.312457 10053171
-4.005435 7.126655 1.445667 10053171
-5.439044 6.917471 1.069592 10053171
-3.978206 6.958186 0.348614 10053171
-3.781740 6.964869 0.171859 10053171
-5.716741 7.237484 1.876251 10053171
-5.677839 7.211780 1.772286 10053171
-6.052339 6.758121 2.383100 10053171
-3.607460 6.958257 0.798139 10053171
-5.229265 7.135326 1.178699 10053171
-5.116192 6.839509 2.473495 10053171
-4.282979 7.213954 0.647876 10053171
-6.985273 7.223130 0.051342 10053171
-4.008555 6.790929 1.106520 10053171
-4.062891 6.799174 1.842432 10053171
-5.413821 6.856600 2.726964 10053171
-3.284661 7.038554 1.514662 10053171
-3.312515 7.205700 0.007523 10053171
-3.240703 6.822151 1.487899 10053171
-4.637765 6.930719 1.561957 10053171
-4.951307 6.862358 0.153782 10053171
-6.797634 6.847495 1.563160 10053171
-5.545051 6.949427 0.154915 10053171
-6.914264 6.902851 1.432749 10053171
-4.209371 6.768116 1.318339 10053171
-6.382561 6.924645 0.223771 10053171
-3.349967 6.758463 2.832847 10053171
-4.111443 6.791358 1.417996 10053171
-4.743346 6.814128 1.922425 10053171
-6.169765 6.785040 0.132661 10053171
-5.202149 7.132039 1.827271 10053171
-6.279949 7.121309 2.238021 10053171
-5.132742 7.070912 1.406925 10053171
-6.468067 6.941953 1.310768 10053171
-5.482507 7.076254 0.300725 10053171
-4.969670 7.171241 1.778515 10053171
-3.842988 6.994955 1.665514 10053171
-5.423420 7.091869 2.718614 10053171
-5.713737 7.052350 3.000933 10053171
-6.819049 7.136403 0.776462 10053171
-4.906197 7.173450 1.132280 10053171
-6.976223 6.931805 0.268283 10053171
-6.732030 6.968898 1.038678 10053171
-4.311663 6.817139 1.943634 10053171
-3.982423 7.157625 0.083572 10053171
-3.125774 7.026598 1.330991 10053171
-3.874935 7.026982 0.414821 10053171
-3.123365 6.754697 1.712995 10053171
-3.478650 6.858172 0.309116 10053171
-6.645312 7.086579 1.234317 10053171
-4.076454 7.118081 0.752156 10053171
-3.792556 6.986418 2.071283 10053171
-3.800429 7.017487 1.211769 10053171
-4.646638 7.153952 2.686707 10053171
-4.611526 7.219833 2.363872 10053171
-6.247433 7.140769 0.878324 10053171
-3.096977 6.896031 -0.001267 10053171
-4.384774 6.751617 0.522560 10053171
-5.183574 7.020079 2.860732 10053171
-5.325623 6.998827 2.488599 10053171
-3.681833 7.221469 1.070571 10053171
-4.814752 6.789316 0.063431 10053171
-4.739026 7.124219 0.902985 10053171
-4.070337 6.858465 1.490784 10053171
-3.540709 6.952897 0.978154 10053171
-6.957601 7.118707 0.906535 10053171
-3.905134 6.919306 1.361155 10053171
-3.578633 6.957006 2.743686 10053171
-5.482725 6.835057 2.605780 10053171
-5.408631 6.773020 2.419894 10053171
-3.039153 6.833628 2.923038 10053171
-6.147536 6.856177 2.078355 10053171
-4.430302 7.129827 0.768489 10053171
-4.520445 7.018034 0.698105 10053171
-3.189653 7.233579 2.728713 10053171
-5.867491 7.192581 2.553856 10053171
-4.228971 6.904017 2.118494 10053171
-3.182474 6.922673 0.507801 10053171
-4.992803 6.826944 1.837896 10053171
-3.742405 6.977798 0.077901 10053171
-4.319502 7.213175 0.524824 10053171
-6.201233 6.894709 1.540496 10053171
-3.871775 7.201072 0.576665 10053171
-5.451694 6.783332 1.452874 10053171
-3.196064 6.825795 2.188146 10053171
-3.457739 6.976081 0.329364 10053171
-3.956533 7.245225 2.072562 10053171
-6.184393 7.193085 0.249157 10053171
-6.563798 6.896019 0.524027 10053171
-4.614209 6.888187 1.242754 10053171
-5.132512 6.787850 0.001522 10053171
-5.454298 6.800198 0.522033 10053171
-3.763276 6.798765 0.398612 10053171
-5.340220 7.225077 0.694144 10053171
-3.173910 7.175589 1.376344 10053171
-4.947645 6.770657 2.547148 10053171
-6.764871 7.145584 1.624725 10053171
-4.825405 6.796593 1.160787 10053171
-4.088151 7.032573 1.635517 10053171
-4.080526 7.031394 1.600607 10053171
-3.499310 6.914838 2.926891 10053171
-4.085118 7.139526 2.898883 10053171
-6.623472 6.938855 1.740451 10053171
-5.178404 7.054497 1.688718 10053171
-5.132134 7.176174 2.159975 10053171
-4.511892 6.863265 0.011678 10053171
-5.338411 6.755657 2.587498 10053171
-5.165250 6.763946 1.368384 10053171
-4.077389 6.869608 0.705707 10053171
-4.366794 7.037597 1.058912 10053171
-5.226745 7.123121 0.692680 10053171
-3.744337 6.762677 1.910944 10053171
-3.649983 7.247429 2.728123 10053171
-3.392230 7.151192 0.999545 10053171
-4.049055 7.204822 2.644999 10053171
-3.090791 7.165353 2.851930 10053171
-3.569822 7.045632 1.654517 10053171
-5.328512 7.129692 0.084316 10053171
-3.920382 6.939370 2.297250 10053171
-6.409339 7.029058 2.540878 10053171
-3.106704 7.092023 2.771699 10053171
-4.844919 7.179598 0.128663 10053171
-5.885918 6.884587 0.152761 10053171
-4.268488 7.056432 0.567201 10053171
-4.649592 7.130358 -0.001903 10053171
-6.620345 7.201056 1.361318 10053171
-6.062922 6.944222 0.103736 10053171
-5.818561 6.783270 2.908662 10053171
-4.479205 7.045627 2.841501 10053171
-5.600842 7.197885 2.547649 10053171
-3.120304 6.959844 0.611579 10053171
-5.753617 6.948825 0.607018 10053171
-4.097331 7.106255 1.539760 10053171
-4.673851 6.764949 1.659374 10053171
-4.978426 7.153523 1.233116 10053171
-4.425711 6.958538 0.507123 10053171
-5.286817 7.219851 0.314763 10053171
-3.868963 6.949289 0.837124 10053171
-4.254330 6.954861 2.671114 10053171
-5.243936 7.104039 1.707382 10053171
-3.039629 7.003177 0.250221 10053171
-5.438898 6.862160 1.053910 10053171
-6.587201 7.088624 2.712509 10053171
-5.116708 6.817382 1.633068 10053171
-3.044243 6.902547 0.768974 10053171
-6.571593 6.980616 1.174160 10053171
-3.074680 7.006014 0.211923 10053171
-6.266597 7.218640 1.899798 10053171
-3.669611 6.948148 1.371860 10053171
-4.163569 7.110761 0.184571 10053171
-3.851708 7.150726 1.801617 10053171
-4.183743 7.014960 1.353486 10053171
-3.094095 6.805461 0.727448 10053171
-5.606781 7.209416 0.127742 10053171
-5.695199 6.998474 2.799815 10053171
-4.793074 6.948082 1.805936 10053171
-5.943558 7.157789 2.042215 10053171
-3.328629 7.112690 0.968355 10053171
-6.491653 6.808152 0.725481 10053171
-6.588942 7.068215 1.919361 10053171
-3.738198 6.844880 0.041299 10053171
-4.629213 7.130306 2.021084 10053171
-5.588388 6.765056 2.673858 10053171
-3.970364 7.082060 0.422975 10053171
-3.910127 6.775391 1.632397 10053171
-5.381194 7.026779 0.785063 10053171
-4.826235 6.831491 1.760286 10053171
-5.769538 6.946373 1.080397 10053171
-6.607107 6.860422 0.176343 10053171
-4.511247 6.968002 1.717553 10053171
-3.710484 7.110984 2.798592 10053171
-5.701108 6.847724 0.075563 10053171
-5.669206 7.049260 0.378748 10053171
-4.238101 6.855877 0.867257 10053171
-5.864287 6.850006 2.061447 10053171
-4.903353 6.819967 2.905983 10053171
-3.182727 6.999699 2.031954 10053171
-3.614316 6.911186 1.081075 10053171
-4.792205 7.129318 2.847573 10053171
-4.523240 7.165023 1.472887 10053171
-3.448834 7.110548 1.060283 10053171
-3.154675 7.158382 0.501221 10053171
-5.419787 7.107747 0.811151 10053171
-6.661026 6.966297 2.561203 10053171
-3.308215 6.906545 2.373591 10053171
-5.844187 7.148684 2.064230 10053171
-4.658720 6.943158 1.475119 10053171
-4.290334 6.828722 2.111613 10053171
-3.024416 6.771403 2.466791 10053171
-3.034310 6.990654 1.061289 10053171
-4.367661 7.186265 0.324077 10053171
-5.484081 7.213462 2.291765 10053171
-5.610786 7.113089 1.124506 10053171
-3.860698 6.896072 1.851391 10053171
-4.663105 7.113418 2.923974 10053171
-4.744028 7.177112 2.681279 10053171
-6.267368 7.045654 1.589822 10053171
-3.121821 7.219950 0.301967 10053171
-4.504524 6.888685 2.801321 10053171
-3.029875 6.929005 1.114608 10053171
-4.441317 7.254639 2.837203 10053171
-5.029653 6.917797 2.710666 10053171
-3.206567 6.970298 0.508091 10053171
-5.978828 6.804422 0.783452 10053171
-4.688251 7.162492 0.292436 10053171
-3.010408 7.058202 0.549528 10053171
-5.449201 6.910192 1.105495 10053171
-3.926302 6.808967 0.643522 10053171
-6.050866 6.976087 2.724269 10053171
-3.301277 6.936964 0.556497 10053171
-5.744600 6.763484 2.851147 10053171
-4.199321 6.839081 0.643193 10053171
-6.582823 6.974179 2.943475 10053171
-6.904685 7.239086 2.518348 10053171
-6.908641 7.217574 0.750449 10053171
-5.273212 6.998963 2.458171 10053171
-5.196272 6.951080 1.248179 10053171
-3.173329 7.138088 1.884854 10053171
-6.396975 6.938576 1.717289 10053171
-4.064103 6.863993 0.126853 10053171
-3.492390 6.905935 0.010757 10053171
-6.108045 6.887270 1.911405 10053171
-3.127226 7.060544 0.771051 10053171
-3.564153 7.035436 2.726090 10053171
-4.234722 7.066143 2.633990 10053171
-3.454195 6.894664 2.403659 10053171
-5.114481 6.899123 2.882694 10053171
-4.456594 7.126154 1.082148 10053171
-6.610734 6.848642 2.019434 10053171
-3.829771 6.875240 2.276309 10053171
-3.548042 6.985785 1.028712 10053171
-4.261429 6.775965 0.896585 10053171
-3.869199 7.018812 1.019258 10053171
-5.349002 6.966897 2.101735 10053171
-3.232119 6.860385 0.488410 10053171
-3.391784 7.255302 0.638318 10053171
-6.362968 6.744402 1.235952 10053171
-5.812290 7.240566 1.574109 10053171
-3.796157 6.890305 0.796413 10053171
-6.595518 6.879432 1.594875 10053171
-4.367116 6.823410 0.984497 10053171
-5.642528 6.930004 0.086944 10053171
-4.394660 7.023863 1.202666 10053171
-4.178777 6.913008 2.122132 10053171
-3.277442 7.173299 1.295173 10053171
-3.737915 7.231617 2.667900 10053171
-5.881598 6.835624 0.043523 10053171
-5.683926 6.803014 1.564963 10053171
-4.934049 6.966664 2.475771 10053171
-6.077358 7.037432 1.121340 10053171
-6.762639 7.243627 2.133782 10053171
-5.452308 6.887582 1.270187 10053171
-6.162030 6.898338 2.898704 10053171
-5.557819 6.781198 2.413997 10053171
-4.536513 7.170484 1.514088 10053171
-5.301612 6.880010 0.624580 10053171
-6.013569 7.239917 1.491158 10053171
-3.529140 6.859046 2.505019 10053171
-5.661046 6.939659 2.287014 10053171
-6.074797 6.965062 1.421729 10053171
-6.573682 6.887314 1.240345 10053171
-6.761390 7.083300 2.595416 10053171
-6.585835 6.875432 1.837318 10053171
-6.049091 6.999481 2.783653 10053171
-4.210829 7.193293 2.763043 10053171
-4.895297 7.081108 2.192975 10053171
-4.847223 7.128212 0.064696 10053171
-4.082952 6.849505 1.591024 10053171
-6.972717 7.227839 0.302765 10053171
-5.503523 7.156652 0.029229 10053171
-3.514959 6.791851 0.749196 10053171
-6.060855 6.800792 0.879258 10053171
-3.537938 6.813605 2.853209 10053171
-3.533846 7.160361 0.912904 10053171
-5.187757 6.827320 2.972133 10053171
-6.947236 6.874286 2.334526 10053171
-4.337281 6.852322 0.565096 10053171
-4.578693 6.852815 0.874212 10053171
-3.512694 6.820307 0.303808 10053171
-6.438238 6.989353 1.134957 10053171
-5.276824 7.245427 1.659075 10053171
-4.209497 7.161613 1.716930 10053171
-5.749119 7.125670 0.946743 10053171
-4.636077 6.957867 2.950924 10053171
-5.840159 7.031940 1.038189 10053171
-5.205025 7.150699 0.275114 10053171
-4.812601 6.854900 2.735379 10053171
-3.338262 6.997458 0.801466 10053171
-3.907790 7.018014 1.811615 10053171
-5.800335 6.987278 1.290109 10053171
-3.343341 6.958315 1.643378 10053171
-3.002324 7.237350 0.787537 10053171
-3.211673 7.213271 2.765335 10053171
-3.164395 7.177939 2.304101 10053171
-6.074372 6.914933 2.235326 10053171
-6.833059 7.042426 2.063325 10053171
-4.068299 6.792351 1.158332 10053171
-3.184271 7.218683 1.669462 10053171
-6.937048 7.152378 1.479743 10053171
-4.314579 6.885737 1.125872 10053171
-5.313769 7.030969 0.098446 10053171
-6.794386 7.171097 2.888763 10053171
-4.219389 6.832177 2.429591 10053171
-3.460983 7.051862 2.660458 10053171
-3.069057 6.764504 1.163154 10053171
-3.481629 7.226297 0.573941 10053171
-3.472938 6.954412 2.317902 10053171
-4.096694 7.081990 2.731678 10053171
-3.722052 7.073648 2.910398 10053171
-5.748226 6.926944 0.484117 10053171
-4.738798 7.102246 1.560296 10053171
5.894812 -5.960338 1.169730 8342706
6.124158 -5.739102 1.804872 8342706
5.434695 -6.090232 3.625825 8342706
6.155997 -6.482032 0.540607 8342706
5.449070 -6.207306 3.053936 8342706
6.177096 -6.453316 4.073013 8342706
6.357140 -6.052304 4.896340 8342706
6.226370 -5.624558 0.310821 8342706
6.024832 -6.178063 3.991168 8342706
6.202880 -5.991598 0.492384 8342706
5.573268 -5.665746 2.014521 8342706
6.168951 -6.426893 3.315568 8342706
6.536073 -5.812881 4.816191 8342706
6.077782 -5.621932 2.417713 8342706
6.458508 -5.962926 1.325857 8342706
6.112065 -6.224515 2.927275 8342706
6.535918 -5.860743 0.277208 8342706
6.356525 -6.432551 2.984367 8342706
6.304344 -5.504824 2.218547 8342706
6.480158 -6.371512 2.654169 8342706
6.197592 -6.111391 2.953292 8342706
6.284365 -5.571692 2.052390 8342706
5.625287 -6.290666 3.530530 8342706
5.825726 -5.562092 0.199114 8342706
5.642600 -5.763942 0.500107 8342706
6.505690 -5.804253 1.422592 8342706
6.051263 -5.441772 0.770412 8342706
6.228616 -6.313269 1.520337 8342706
6.441745 -6.158384 1.596496 8342706
6.547988 -6.023656 3.484079 8342706
5.627582 -6.169798 3.369674 8342706
5.837295 -6.195334 4.704642 8342706
5.803758 -5.537028 2.054749 8342706
6.324970 -5.762022 2.904233 8342706
6.231310 -5.948474 3.538122 8342706
5.452674 -6.121946 0.529450 8342706
6.401533 -5.820841 1.989650 8342706
5.916594 -5.804221 1.708771 8342706
5.751304 -5.860848 3.157753 8342706
5.666230 -6.186236 1.853425 8342706
5.816288 -5.512082 0.760733 8342706
6.460501 -6.066688 0.391835 8342706
5.986605 -6.124182 4.306422 8342706
5.596719 -6.192496 4.544282 8342706
5.741292 -5.751113 4.179648 8342706
5.756230 -5.929186 3.116431 8342706
6.032888 -5.995161 1.445686 8342706
6.423100 -6.278169 1.991940 8342706
5.660779 -5.716890 3.096939 8342706
6.294375 -6.088881 3.909263 8342706
5.424128 -6.006101 4.573836 8342706
5.951601 -5.459579 4.472259 8342706
5.499575 -5.976117 3.234096 8342706
6.440309 -5.943185 1.948683 8342706
6.163501 -6.505131 4.291546 8342706
6.377322 -5.888916 1.193227 8342706
5.402337 -5.952414 2.344318 8342706
5.531624 -5.734213 4.320865 8342706
6.443573 -5.996452 2.990985 8342706
6.102048 -5.664024 4.858432 8342706
6.287832 -5.859529 2.137027 8342706
5.806984 -5.475342 2.069614 8342706
5.868992 -6.340828 3.537148 8342706
6.002890 -5.502568 3.502364 8342706
5.767313 -6.033462 4.523568 8342706
5.852270 -6.086991 1.755319 8342706
6.164961 -5.740582 2.004681 8342706
6.173331 -6.290657 1.966194 8342706
5.803885 -6.245669 1.515605 8342706
5.596850 -6.255392 1.029842 8342706
5.860567 -6.390537 1.264194 8342706
5.958740 -5.955525 3.027660 8342706
6.055608 -6.126579 4.745394 8342706
5.807895 -5.809687 0.602468 8342706
5.725842 -6.086646 2.506880 8342706
5.940176 -5.996479 3.161655 8342706
5.482353 -6.179976 1.924229 8342706
6.082740 -5.589186 0.157489 8342706
6.474373 -5.943471 1.230299 8342706
6.566849 -6.060932 3.875776 8342706
6.026057 -6.209260 3.287882 8342706
5.578120 -5.640957 1.967926 8342706
6.081512 -6.275254 4.441700 8342706
6.110528 -5.600433 4.643061 8342706
6.425105 -5.672891 0.212781 8342706
5.957480 -6.170504 2.693758 8342706
6.242263 -5.963392 2.422378 8342706
5.506038 -6.157845 3.685141 8342706
6.059917 -6.303859 1.988399 8342706
5.889452 -6.332223 1.027584 8342706
6.188148 -6.403152 4.428605 8342706
5.576875 -5.957449 3.874958 8342706
5.698441 -6.375940 2.511777 8342706
6.121676 -6.508818 1.411903 8342706
5.849278 -5.891469 4.542705 8342706
5.597270 -5.780488 2.349979 8342706
6.454068 -5.851810 2.618814 8342706
6.091224 -6.419366 0.582834 8342706
5.594183 -6.150967 1.855097 8342706
6.335451 -6.035250 1.884514 8342706
6.567278 -6.048176 3.626597 8342706
5.644935 -6.371709 0.612442 8342706
5.672796 -6.454516 0.755200 8342706
6.215056 -6.026566 2.566992 8342706
5.640201 -6.020191 3.311944 8342706
5.761837 -5.580143 4.724897 8342706
5.773900 -6.246024 4.023829 8342706
5.655876 -5.834299 1.237843 8342706
6.432748 -5.965291 4.442345 8342706
5.832035 -5.619429 3.507706 8342706
6.020776 -5.793437 0.925867 8342706
6.159925 -6.372482 1.757888 8342706
6.177947 -5.803157 1.591099 8342706
5.962264 -5.768031 4.076876 8342706
6.033964 -6.203199 4.612626 8342706
5.798273 -6.147100 0.231594 8342706
5.899950 -5.643044 1.675759 8342706
6.182731 -5.634505 3.870103 8342706
5.714156 -5.974999 3.104874 8342706
5.805457 -6.217597 2.599417 8342706
5.679639 -5.835839 2.914875 8342706
5.621867 -6.252652 3.720544 8342706
5.886441 -6.578242 1.098626 8342706
6.117002 -5.794319 1.687699 8342706
6.295746 -6.314060 0.545253 8342706
6.348650 -5.700810 2.305061 8342706
6.132980 -5.583693 3.079568 8342706
5.667492 -5.673185 1.223136 8342706
5.990076 -5.725867 3.710327 8342706
6.192672 -6.017920 4.387920 8342706
6.507514 -6.141195 2.699133 8342706
6.362888 -6.146056 3.382247 8342706
5.666943 -6.306663 4.699229 8342706
6.275429 -5.528854 4.628744 8342706
5.976766 -6.215465 3.550320 8342706
5.765600 -5.654101 2.607028 8342706
6.075703 -6.582610 4.485647 8342706
5.545220 -5.761756 4.275098 8342706
5.514685 -6.137738 2.891944 8342706
6.113119 -5.647734 2.479090 8342706
5.677158 -5.881271 4.040195 8342706
5.870896 -5.434185 3.050723 8342706
6.497654 -5.794671 0.115012 8342706
6.063217 -5.433005 0.407858 8342706
6.382245 -5.716649 0.064743 8342706
6.050908 -5.754627 0.504480 8342706
5.668107 -5.711832 3.075882 8342706
6.328125 -6.230113 1.517031 8342706
6.104545 -5.791677 2.464702 8342706
5.773757 -6.141988 1.587634 8342706
5.998450 -6.201279 0.113128 8342706
5.864880 -6.049688 3.742568 8342706
5.725914 -6.172642 3.381994 8342706
6.297565 -6.257651 4.593726 8342706
6.310787 -6.461112 3.388827 8342706
6.009512 -6.561695 4.172556 8342706
6.009100 -5.657253 4.221019 8342706
5.699153 -5.618725 4.214375 8342706
6.174326 -5.866163 1.889618 8342706
5.517066 -6.238865 4.649454 8342706
5.903842 -6.316069 4.707868 8342706
6.048318 -6.427724 1.316814 8342706
6.147557 -5.635416 2.041595 8342706
5.952978 -6.217967 1.724882 8342706
6.041672 -6.016494 4.522530 8342706
6.069797 -5.630758 1.131727 8342706
6.140107 -6.311460 1.564026 8342706
5.715125 -5.746694 0.122219 8342706
6.359492 -6.163910 3.030411 8342706
6.105345 -5.571221 2.648218 8342706
6.261673 -5.858458 1.026599 8342706
5.618026 -6.073821 1.894293 8342706
5.739936 -5.655325 2.232653 8342706
5.804669 -5.658704 2.589279 8342706
5.511477 -5.925940 3.595209 8342706
6.008393 -5.855143 1.874413 8342706
5.701957 -5.884666 1.467268 8342706
5.733080 -6.262660 2.822017 8342706
6.025670 -6.321397 4.887533 8342706
5.985752 -6.437946 4.831603 8342706
6.066856 -5.591252 3.850011 8342706
5.614465 -5.564176 2.013196 8342706
6.542149 -6.036396 4.254992 8342706
5.656612 -5.593169 1.928379 8342706
6.101681 -6.470174 1.686460 8342706
5.609670 -6.229597 1.872748 8342706
6.319385 -5.910644 3.512472 8342706
6.462231 -5.805337 3.829674 8342706
6.420970 -6.082225 3.867628 8342706
6.153898 -5.855510 3.372112 8342706
6.166916 -6.389487 1.033693 8342706
5.666210 -6.142307 3.328881 8342706
6.510370 -6.332915 0.137249 8342706
6.389846 -6.087269 4.926805 8342706
5.433795 -5.905548 3.788939 8342706
6.482657 -6.016112 0.228940 8342706
6.228831 -5.645720 3.730458 8342706
6.098865 -6.010996 2.451331 8342706
6.281716 -6.006963 0.691476 8342706
6.436767 -5.967703 2.425873 8342706
6.106395 -6.504634 2.770575 8342706
6.397683 -6.089701 1.382857 8342706
6.213705 -5.640128 1.078541 8342706
6.270351 -5.579210 4.324615 8342706
6.175492 -6.454913 0.746598 8342706
5.626335 -6.064744 3.179693 8342706
6.530079 -5.790593 1.092316 8342706
6.155936 -5.781444 2.599632 8342706
6.009056 -6.096121 2.539980 8342706
6.388553 -5.677530 1.815293 8342706
5.977718 -6.120219 3.831624 8342706
6.496583 -6.012434 1.591613 8342706
5.503539 -6.265992 0.716556 8342706
5.832809 -6.343621 4.999997 8342706
6.466159 -5.790595 3.991947 8342706
6.228235 -6.038404 0.120574 8342706
6.263553 -5.821250 3.578601 8342706
6.507066 -6.095838 4.582373 8342706
5.898893 -6.072589 3.133187 8342706
6.398956 -6.242704 1.777227 8342706
6.033758 -5.454443 1.966346 8342706
5.412640 -5.955804 4.246081 8342706
6.076890 -6.068161 2.973943 8342706
6.262763 -5.927530 3.225747 8342706
5.658374 -6.168554 3.372438 8342706
6.120642 -6.378806 4.402781 8342706
6.086720 -5.537676 4.114747 8342706
5.921621 -5.857894 2.923275 8342706
5.415722 -6.125513 2.049027 8342706
6.288227 -6.426400 4.895727 8342706
5.635270 -6.389434 2.940822 8342706
6.329452 -6.310905 2.372069 8342706
6.429883 -5.808640 1.061440 8342706
6.442346 -5.865327 2.259328 8342706
5.995275 -5.514565 2.060720 8342706
6.235473 -5.757965 0.468445 8342706
5.905190 -6.293077 1.578581 8342706
6.402740 -5.761965 2.457349 8342706
6.378401 -5.530282 4.065116 8342706
6.480418 -6.179678 1.484518 8342706
6.144656 -5.813417 3.245879 8342706
5.713210 -6.395479 3.095814 8342706
6.276406 -5.544943 4.475759 8342706
6.041867 -5.885231 0.782295 8342706
5.572667 -6.374139 4.409499 8342706
5.616387 -5.750105 4.270231 8342706
6.199328 -5.824430 1.375599 8342706
5.725906 -5.791722 1.049886 8342706
5.864881 -6.104852 0.612488 8342706
6.180262 -5.442631 1.192368 8342706
6.286347 -5.532021 1.177042 8342706
5.641342 -6.264215 4.276694 8342706
5.929453 -6.053741 4.929542 8342706
6.220447 -5.583212 3.773722 8342706
5.652742 -6.041854 4.271506 8342706
6.093271 -6.570538 4.285355 8342706
5.684724 -5.713696 3.972940 8342706
5.564604 -6.078084 3.754176 8342706
6.205819 -6.429673 1.019986 8342706
6.562908 -5.944079 0.483153 8342706
6.005547 -5.535998 2.921005 8342706
6.182142 -6.415166 1.659424 8342706
5.498935 -6.223502 3.947156 8342706
5.609196 -6.462557 2.802707 8342706
5.799837 -5.516622 2.271414 8342706
6.522768 -6.224603 2.080914 8342706
6.051497 -6.373988 0.517509 8342706
5.453021 -5.861535 2.591830 8342706
5.836518 -5.641747 2.544096 8342706
6.306852 -6.092590 0.215598 8342706
6.047205 -5.599471 4.357044 8342706
6.515965 -6.293304 4.422678 8342706
5.824988 -6.378786 4.423153 8342706
5.454419 -5.777726 4.319879 8342706
5.950490 -5.472271 1.509167 8342706
6.527194 -6.206716 4.016735 8342706
6.389329 -6.163571 1.416377 8342706
5.823588 -6.178408 3.745603 8342706
6.114461 -6.339793 1.929410 8342706
5.539675 -5.638921 3.388732 8342706
5.776993 -6.446696 3.538709 8342706
5.508691 -5.699046 3.917431 8342706
6.177308 -5.554066 0.060824 8342706
6.358656 -5.965329 2.641523 8342706
6.362286 -6.098993 1.742879 8342706
5.779789 -5.792987 3.223089 8342706
6.025493 -5.794032 3.178227 8342706
6.297262 -6.059326 2.031782 8342706
6.349176 -5.834392 2.220380 8342706
6.047554 -5.813999 0.107490 8342706
5.817553 -6.077254 0.094181 8342706
6.213466 -6.431579 0.880626 8342706
6.360397 -6.454803 0.730729 8342706
6.139044 -6.362749 4.235423 8342706
5.855610 -6.509432 1.803287 8342706
5.659724 -5.901468 1.000147 8342706
5.755617 -5.664505 2.702197 8342706
6.206876 -5.742889 0.415735 8342706
6.087052 -5.421651 2.088020 8342706
6.010190 -6.487810 1.062381 8342706
6.259941 -5.530997 1.274019 8342706
6.432586 -5.677397 3.599747 8342706
6.496528 -6.250040 0.317130 8342706
5.780870 -5.935001 4.020803 8342706
6.187614 -6.111415 1.733722 8342706
6.101831 -6.256878 3.241385 8342706
5.580959 -6.254137 3.731647 8342706
6.535192 -6.165251 1.839781 8342706
6.267548 -6.208670 1.693343 8342706
5.583496 -5.779930 2.482966 8342706
6.391815 -6.399724 2.028087 8342706
6.113674 -6.224693 3.580076 8342706
6.167145 -6.570737 4.299026 8342706
6.466413 -6.384291 3.667215 8342706
6.105326 -5.526085 2.007239 8342706
6.067128 -5.452705 0.889713 8342706
6.141230 -6.443933 1.166170 8342706
5.684817 -6.052389 0.137553 8342706
5.854401 -5.600454 2.629776 8342706
5.787138 -6.367942 2.639888 8342706
6.106019 -5.474753 3.486735 8342706
5.774760 -6.273373 3.359945 8342706
6.320774 -6.321896 1.060325 8342706
5.811245 -6.514914 4.767684 8342706
6.259366 -5.657745 4.915129 8342706
6.014590 -6.483189 1.885894 8342706
5.673409 -5.769882 0.303796 8342706
6.311028 -5.523599 4.309134 8342706
5.594538 -5.848973 4.374942 8342706
6.218059 -5.590434 0.506061 8342706
6.290723 -6.373312 4.015532 8342706
6.201015 -6.552594 0.555097 8342706
6.168506 -5.848672 1.021817 8342706
6.428208 -6.159340 2.768388 8342706
6.048775 -6.377219 3.744905 8342706
5.996169 -5.535918 2.044464 8342706
6.441682 -6.196656 3.283573 8342706
6.117071 -5.458408 0.242854 8342706
5.489182 -5.717170 4.407192 8342706
6.180517 -6.349132 1.669889 8342706
6.419868 -5.600642 1.865029 8342706
5.850409 -6.111667 0.891120 8342706
6.357620 -5.621480 3.712401 8342706
5.646844 -6.136130 3.760347 8342706
6.513646 -5.913177 1.176165 8342706
5.715982 -6.000588 2.448743 8342706
6.257447 -6.343363 2.944565 8342706
5.734784 -6.371114 4.086967 8342706
6.045567 -6.282750 3.900426 8342706
6.407404 -5.573064 4.936727 8342706
6.539207 -6.273734 4.663564 8342706
6.014100 -5.920664 3.881865 8342706
6.151945 -6.373562 4.323857 8342706
5.723216 -6.191123 2.000269 8342706
6.442591 -5.872021 2.103743 8342706
6.443309 -6.009728 2.199199 8342706
5.868986 -5.452857 1.057432 8342706
6.475247 -5.788035 0.255848 8342706
5.860847 -5.472433 1.378123 8342706
6.232003 -5.704870 4.833677 8342706
5.987151 -5.652273 1.239312 8342706
6.495193 -5.804175 2.252727 8342706
5.779017 -6.216370 3.695629 8342706
6.273236 -6.198545 1.521210 8342706
5.987310 -6.405440 3.993232 8342706
6.009638 -5.812771 2.265396 8342706
6.159824 -6.070557 4.119936 8342706
6.156888 -6.406070 4.355728 8342706
6.290484 -5.610227 4.743177 8342706
6.361736 -5.850430 3.609181 8342706
5.996973 -5.761208 3.165531 8342706
6.516787 -5.872517 3.045105 8342706
6.267838 -5.857760 2.832521 8342706
6.292575 -6.326324 2.009800 8342706
5.757874 -5.727553 3.615991 8342706
5.710637 -5.734293 3.085471 8342706
6.264107 -5.972068 1.466843 8342706
6.391811 -6.238835 1.073784 8342706
5.823269 -5.580613 2.958293 8342706
5.510255 -5.883193 0.123377 8342706
5.653457 -5.642791 0.443573 8342706
5.618463 -5.580211 2.860205 8342706
6.004711 -5.490049 2.118402 8342706
5.517443 -6.131250 1.891246 8342706
6.117561 -5.510066 3.469616 8342706
5.428082 -5.892609 4.596902 8342706
5.486815 -5.804493 2.922419 8342706
6.181342 -6.324911 1.859555 8342706
5.566608 -6.387271 0.834212 8342706
5.892091 -6.511430 1.631344 8342706
6.088707 -6.345376 3.398003 8342706
5.956356 -6.487366 4.607491 8342706
6.356151 -6.181543 0.795067 8342706
6.478308 -6.323618 1.429389 8342706
6.564513 -5.903098 3.406209 8342706
5.592902 -6.113343 1.114629 8342706
6.262412 -6.287318 1.954638 8342706
6.175615 -6.280849 2.944238 8342706
6.070091 -6.503736 4.979119 8342706
5.984575 -6.453603 0.612457 8342706
6.280392 -5.780329 1.742665 8342706
6.391293 -5.928065 1.298566 8342706
6.230464 -6.400662 0.494896 8342706
6.290900 -6.124714 2.900486 8342706
6.483909 -6.133921 0.099390 8342706
6.095254 -5.643109 1.210976 8342706
6.490260 -6.272166 4.294742 8342706
6.454526 -5.646446 4.806860 8342706
6.506238 -6.178835 3.623009 8342706
6.323005 -6.337027 1.603510 8342706
5.745044 -6.278564 0.438079 8342706
6.157185 -5.580137 2.714855 8342706
6.235207 -6.044484 3.849867 8342706
6.304295 -5.850386 0.391862 8342706
6.191375 -5.867918 3.952522 8342706
5.777444 -6.416133 3.285890 8342706
6.399996 -6.192078 -0.007860 8342706
6.353224 -5.755421 1.366458 8342706
6.292796 -6.021255 4.213582 8342706
6.352159 -6.067744 2.039362 8342706
5.785928 -5.573701 4.369835 8342706
5.832113 -6.014931 0.859099 8342706
6.035076 -5.736030 4.188843 8342706
5.522295 -5.725781 4.000297 8342706
6.463722 -6.137475 1.753080 8342706
6.284762 -6.452044 1.699099 8342706
6.294027 -6.225500 4.628034 8342706
5.531399 -6.319688 1.246681 8342706
6.000490 -6.219916 3.478684 8342706
6.245589 -5.569525 3.781938 8342706
6.018889 -6.588196 3.658605 8342706
5.948181 -6.015263 1.745126 8342706
5.810951 -5.647054 2.734796 8342706
6.179601 -6.308349 0.909926 8342706
6.184494 -5.977403 3.892630 8342706
6.111413 -6.299536 1.965939 8342706
5.765935 -6.164649 1.025259 8342706
6.578413 -6.020280 1.758213 8342706
5.735077 -6.108535 4.310372 8342706
6.444683 -5.756192 1.012726 8342706
5.567221 -5.875352 0.769166 8342706
6.304494 -6.014492 4.998374 8342706
6.199106 -6.538764 4.110359 8342706
6.099552 -6.429367 4.723926 8342706
5.986072 -5.807554 1.398827 8342706
6.516722 -6.164211 4.979096 8342706
6.143097 -6.057573 1.659580 8342706
5.837022 -5.961398 2.078278 8342706
5.724044 -5.966996 3.029803 8342706
6.511448 -6.249659 4.093311 8342706
5.490588 -5.879883 3.592513 8342706
6.173697 -6.083820 0.975605 8342706
5.856360 -6.269136 1.896404 8342706
5.953726 -5.637683 2.381301 8342706
6.324850 -6.269756 0.108048 8342706
5.825888 -5.551821 4.546207 8342706
5.983719 -5.485266 4.059452 8342706
5.780124 -5.452211 3.574555 8342706
6.394480 -6.374057 1.542329 8342706
5.518481 -6.005733 4.697999 8342706
6.047060 -6.533055 0.123226 8342706
6.529330 -5.963274 1.497403 8342706
6.350075 -5.552368 3.367005 8342706
5.799350 -5.890055 0.850090 8342706
6.011304 -6.009951 0.879004 8342706
5.633624 -5.937906 2.238228 8342706
5.718822 -5.615071 2.298017 8342706
5.802773 -6.118233 3.560262 8342706
6.336122 -5.498656 1.142776 8342706
5.670493 -5.779652 4.844215 8342706
5.881411 -5.792605 0.092076 8342706
5.650882 -6.444689 2.444378 8342706
5.877129 -6.460937 3.649391 8342706
6.051358 -6.605236 0.567404 8342706
6.043931 -5.709449 1.736694 8342706
6.113111 -5.919328 1.788584 8342706
6.173581 -5.788337 4.148508 8342706
5.481630 -6.286812 4.976425 8342706
6.556540 -5.845526 2.152589 8342706
6.225992 -6.462553 3.905336 8342706
6.225328 -5.716774 2.531085 8342706
6.208858 -6.376658 2.395696 8342706
6.069152 -5.645074 4.497134 8342706
5.626234 -6.311602 3.477645 8342706
5.984057 -6.425344 2.719008 8342706
