# .PCD v0.7 - Point Cloud Data file format
VERSION 0.7
FIELDS x y z rgb
SIZE 4 4 4 4
TYPE F F F U
COUNT 1 1 1 1
WIDTH 1307
HEIGHT 1
VIEWPOINT 0 0 0 1 0 0 0
POINTS 1307
DATA ascii
-1.214012 10.609852 1.043195 15014169
-1.638286 10.420364 1.580126 15014169
-1.624077 11.019723 1.296722 15014169
-1.228757 10.864285 0.495686 15014169
-1.111430 10.858838 1.061526 15014169
-1.346677 10.681742 0.937123 15014169
-1.089454 10.549649 0.362616 15014169
-0.996539 10.694658 1.365998 15014169
-1.199675 10.722720 0.489365 15014169
-1.501250 10.654606 1.085283 15014169
-1.104893 10.574990 0.858450 15014169
-1.047475 10.920132 0.434981 15014169
-1.566236 10.809940 1.105514 15014169
-0.981751 10.878964 1.437155 15014169
-1.503133 10.696581 1.183758 15014169
-1.665588 10.715924 0.913464 15014169
-1.426697 10.540921 1.555674 15014169
-1.663039 10.583416 0.705330 15014169
-0.992054 10.354777 0.928315 15014169
-1.434499 10.843614 1.259568 15014169
-1.196935 10.991904 1.616256 15014169
-1.621811 10.452579 0.343345 15014169
-1.024441 11.046332 0.807633 15014169
-1.620716 10.436476 1.539684 15014169
-1.340108 10.475899 1.189817 15014169
-1.124351 10.681248 0.348382 15014169
-1.399463 10.973562 0.440790 15014169
-1.594770 10.921645 0.479447 15014169
-1.588868 10.506533 0.714789 15014169
-1.449266 10.893995 0.655842 15014169
-1.588473 10.422564 0.800443 15014169
-1.498065 10.938778 1.154364 15014169
-1.474405 11.066444 0.871913 15014169
-1.043316 10.563411 0.734371 15014169
-0.998632 10.420510 1.544864 15014169
-0.997269 10.592999 1.561818 15014169
-1.050023 11.063629 0.474320 15014169
-1.247788 10.905557 1.314603 15014169
-1.101193 10.378891 1.617326 15014169
-1.539145 10.389746 1.652767 15014169
-1.535133 10.930864 0.315636 15014169
-1.653142 10.401239 1.201035 15014169
-1.509722 10.660896 1.651421 15014169
-1.513650 10.529200 0.993694 15014169
-1.467788 10.722224 0.940693 15014169
-1.447452 10.389261 1.344672 15014169
-1.043090 10.604894 0.947428 15014169
-1.622199 10.878156 0.613858 15014169
-1.581839 10.447442 0.575398 15014169
-1.158095 10.645322 1.267946 15014169
-1.568696 10.531799 1.458179 15014169
-1.678764 10.529647 1.475465 15014169
-1.203780 10.557316 1.457153 15014169
-1.536594 10.722412 1.139487 15014169
-0.993226 10.816220 0.794678 15014169
-1.307117 10.537930 1.702567 15014169
-1.376884 10.407671 1.671220 15014169
-1.039533 10.728594 0.369299 15014169
-1.078866 10.977502 1.178007 15014169
-1.474633 11.010065 0.330162 15014169
-1.442542 10.590310 1.468716 15014169
-1.682293 10.813650 1.089436 15014169
-1.426162 10.416061 0.498410 15014169
-1.212058 10.384950 0.386827 15014169
-1.345869 10.727847 0.323342 15014169
-1.306847 10.436236 0.448349 15014169
-1.177824 10.576257 1.399993 15014169
3.479817 -7.930064 0.473849 1645029
3.502394 -7.639279 1.204719 1645029
2.964569 -8.136274 1.046065 1645029
3.208332 -7.906591 1.007086 1645029
3.287099 -7.817499 1.198396 1645029
3.229911 -7.846848 1.488277 1645029
3.231182 -7.802337 0.611606 1645029
3.105571 -7.675277 1.265622 1645029
3.361877 -7.871849 0.971396 1645029
3.287714 -8.311660 0.624239 1645029
3.832226 -8.036703 1.082741 1645029
3.620257 -8.286079 1.267295 1645029
3.114579 -8.023706 0.635015 1645029
3.769336 -8.157769 1.211772 1645029
3.185524 -8.007829 0.814064 1645029
2.967318 -7.725321 1.141594 1645029
2.875598 -8.260845 0.951935 1645029
3.498650 -7.620631 1.124457 1645029
3.583205 -7.805938 1.274037 1645029
3.315874 -8.085923 0.905732 1645029
3.568270 -8.188020 1.161448 1645029
3.148226 -8.218277 1.335089 1645029
3.491780 -7.714467 1.263695 1645029
3.309632 -8.350609 0.687026 1645029
3.429781 -8.446532 0.766383 1645029
3.189857 -7.769162 1.114180 1645029
3.414065 -8.267585 0.844259 1645029
3.248200 -7.982075 0.929792 1645029
3.682115 -7.972299 1.014988 1645029
3.580467 -8.116842 1.116313 1645029
3.131569 -8.191562 0.846120 1645029
2.983439 -7.956999 0.649679 1645029
3.127410 -7.975940 1.332710 1645029
3.134840 -7.989971 0.898198 1645029
3.709914 -8.286312 0.935439 1645029
3.287374 -7.982847 1.070161 1645029
3.370667 -7.578373 1.077833 1645029
2.855382 -8.302443 1.088947 1645029
3.357551 -7.963713 1.146635 1645029
3.105286 -8.343055 1.090362 1645029
3.149775 -8.176846 0.509864 1645029
2.940673 -8.036116 0.894234 1645029
3.551585 -8.170238 1.164696 1645029
3.334242 -8.078036 1.216047 1645029
3.159300 -7.865730 0.691190 1645029
3.453673 -7.886078 0.677079 1645029
3.447063 -7.635754 1.001384 1645029
3.424246 -7.999027 0.873714 1645029
3.223433 -8.024181 0.683094 1645029
3.618782 -8.325685 0.829986 1645029
3.229401 -8.437210 0.963975 1645029
3.704064 -8.086590 0.957856 1645029
3.262398 -8.195599 0.849262 1645029
3.161121 -8.340907 1.344107 1645029
3.219066 -7.892907 0.507399 1645029
3.748580 -8.045118 1.277757 1645029
3.009202 -7.710505 0.730056 1645029
3.011664 -7.795390 0.672790 1645029
3.421712 -8.482799 0.891102 1645029
3.053821 -8.173111 0.862093 1645029
3.349868 -8.424001 0.941496 1645029
3.463895 -8.092561 0.966059 1645029
3.025208 -8.131628 0.993671 1645029
3.217232 -7.782692 0.912490 1645029
3.216239 -7.546207 0.947575 1645029
3.099017 -8.108168 1.404261 1645029
3.209892 -8.138718 1.135749 1645029
3.458968 -7.860686 1.241863 1645029
3.674262 -7.909162 1.159621 1645029
3.771955 -7.937296 1.020315 1645029
2.977616 -8.362861 1.233448 1645029
3.592462 -7.692788 1.044266 1645029
3.706000 -8.032696 1.023736 1645029
3.063303 -7.815892 0.583023 1645029
3.202864 -7.718024 1.244547 1645029
3.355008 -7.619773 1.075835 1645029
3.507882 -7.858011 0.850307 1645029
3.304633 -7.833359 0.544374 1645029
3.623922 -7.989880 1.013420 1645029
3.664264 -7.785369 1.225861 1645029
6.347363 -7.248242 0.593766 1690649
6.081439 -7.685231 0.779922 1690649
6.298329 -7.636980 0.702128 1690649
5.721252 -7.704476 1.305089 1690649
6.400574 -7.510619 0.480328 1690649
6.098732 -7.458216 0.595630 1690649
6.314080 -7.548626 1.029331 1690649
6.062145 -7.639924 1.074708 1690649
6.555986 -7.632789 1.308232 1690649
5.909777 -7.578446 0.953552 1690649
6.537981 -7.465149 0.529920 1690649
6.210401 -7.689087 1.768434 1690649
6.119572 -7.927152 0.180108 1690649
5.818484 -7.377551 1.053644 1690649
6.228994 -7.260544 1.041697 1690649
6.340708 -7.901261 1.168033 1690649
6.541708 -7.702182 1.029864 1690649
5.979978 -7.717353 0.573641 1690649
6.294963 -7.443891 1.393525 1690649
6.224413 -7.626245 1.142018 1690649
6.255723 -7.188693 1.742028 1690649
6.223215 -7.948161 1.167234 1690649
5.748778 -7.749597 0.855715 1690649
5.733487 -7.727124 0.898202 1690649
5.879558 -7.190174 1.539177 1690649
6.285101 -7.694781 1.868191 1690649
5.798030 -7.671960 1.412228 1690649
6.308615 -7.264502 1.835284 1690649
6.144895 -7.870026 0.632479 1690649
6.382979 -7.310979 1.235589 1690649
5.961505 -7.229126 1.390532 1690649
5.986719 -7.435308 1.588471 1690649
6.506994 -7.758752 0.974762 1690649
5.937692 -7.478607 0.769675 1690649
6.159515 -7.653850 1.077131 1690649
6.399062 -7.203798 1.101698 1690649
5.712485 -7.514357 0.559258 1690649
6.190559 -7.350401 0.609630 1690649
5.825664 -7.691057 1.266634 1690649
6.193501 -7.310401 1.873836 1690649
6.289449 -7.423397 1.080975 1690649
5.996216 -7.844538 0.353632 1690649
6.253537 -7.409643 1.881171 1690649
6.129418 -7.844936 0.973255 1690649
5.855057 -7.231826 1.902263 1690649
6.356586 -7.714114 1.128537 1690649
6.173265 -7.854541 1.425981 1690649
6.105147 -7.378719 0.994102 1690649
5.991006 -7.158662 1.057756 1690649
6.110210 -7.217829 1.381872 1690649
5.959111 -7.408039 1.208787 1690649
6.296589 -7.141694 0.402548 1690649
6.508756 -7.443003 1.524015 1690649
5.906798 -7.341603 1.043954 1690649
5.750422 -7.727660 1.829698 1690649
6.078001 -7.910349 1.688451 1690649
5.970756 -7.643457 0.790525 1690649
5.981752 -7.405919 0.582341 1690649
6.492382 -7.775360 0.924470 1690649
6.084048 -7.590872 1.452693 1690649
5.796351 -7.575073 0.920569 1690649
6.292251 -7.532037 0.129024 1690649
5.921600 -7.393246 0.208375 1690649
6.183131 -7.950069 0.191759 1690649
6.121906 -7.308296 0.969649 1690649
6.249815 -7.764420 1.742424 1690649
5.968297 -7.818846 1.654874 1690649
6.180196 -7.977983 1.788138 1690649
5.934284 -7.399792 0.215850 1690649
5.825714 -7.686475 0.346099 1690649
5.934361 -7.450904 1.344978 1690649
6.284124 -7.682694 0.646212 1690649
5.959574 -7.775472 1.653903 1690649
6.516602 -7.597635 1.136899 1690649
6.292447 -7.578895 0.094544 1690649
6.107519 -7.204247 1.248406 1690649
6.186401 -7.399358 0.214882 1690649
6.111320 -7.897922 1.104556 1690649
6.421926 -7.578499 0.742153 1690649
6.312515 -7.253200 1.179186 1690649
6.060288 -7.131442 0.223439 1690649
6.116219 -7.729238 0.488428 1690649
6.206502 -7.384121 0.906225 1690649
5.989906 -7.500575 1.765908 1690649
5.807443 -7.446589 0.692937 1690649
6.235510 -7.913202 0.207009 1690649
6.120266 -7.913511 1.466268 1690649
5.933079 -7.830472 0.136840 1690649
6.369668 -7.375369 1.496387 1690649
6.435767 -7.760713 1.238002 1690649
6.151480 -7.241879 1.680852 1690649
6.057572 -7.212302 1.115430 1690649
6.322758 -7.246385 0.745565 1690649
5.919397 -7.638125 0.159888 1690649
5.931245 -7.216247 1.270301 1690649
6.413793 -7.829359 0.585272 1690649
5.919804 -7.441054 1.661139 1690649
6.061317 -7.533906 1.897979 1690649
6.425227 -7.377176 0.483053 1690649
5.993598 -7.775142 1.624267 1690649
5.788697 -7.780898 0.969743 1690649
6.002195 -7.240108 1.740343 1690649
5.983468 -7.813723 1.462033 1690649
5.817198 -7.330040 0.621942 1690649
5.917006 -7.330186 0.167851 1690649
5.835343 -7.876266 1.146653 1690649
5.910192 -7.310112 0.625077 1690649
5.943003 -7.337688 1.077086 1690649
5.805512 -7.748105 0.783052 1690649
5.931526 -7.687495 1.266602 1690649
6.469060 -7.839820 0.138166 1690649
6.144917 -7.133887 1.896210 1690649
6.534883 -7.454679 0.970086 1690649
6.340455 -7.926442 1.823200 1690649
6.525365 -7.443803 1.451695 1690649
6.270267 -7.827413 1.044578 1690649
6.377232 -7.354300 1.355335 1690649
6.169381 -7.878578 1.135401 1690649
6.087548 -7.220589 0.764736 1690649
6.204517 -7.929640 0.161193 1690649
5.744648 -7.595922 0.965641 1690649
5.839758 -7.314209 0.300122 1690649
6.419852 -7.422326 1.322367 1690649
6.360396 -7.829460 0.112326 1690649
5.895341 -7.574982 1.056131 1690649
6.181540 -7.779708 0.245074 1690649
5.750306 -7.606139 0.952210 1690649
6.118990 -7.827753 0.452586 1690649
6.526844 -7.374125 0.694405 1690649
5.835046 -7.454289 1.869502 1690649
6.025249 -7.419017 0.228726 1690649
6.255056 -7.601384 0.456306 1690649
6.435905 -7.860661 0.897549 1690649
5.712351 -7.385590 1.411425 1690649
5.905008 -7.472815 1.516001 1690649
5.963005 -7.560788 0.323841 1690649
6.325643 -7.831564 1.447832 1690649
6.056603 -7.598144 0.510273 1690649
6.323118 -7.690536 1.346720 1690649
6.253854 -7.328899 0.205024 1690649
5.759263 -7.585979 0.654478 1690649
6.541273 -7.651704 0.743568 1690649
6.431552 -7.445527 1.303623 1690649
6.022198 -7.475365 0.900651 1690649
5.840398 -7.581752 0.627825 1690649
6.555612 -7.393077 1.163772 1690649
6.200694 -7.668733 1.299527 1690649
5.964786 -7.451889 1.671271 1690649
6.156522 -7.143793 1.195160 1690649
6.542894 -7.530278 1.266905 1690649
6.332733 -7.762867 0.508020 1690649
5.906098 -7.548880 1.012101 1690649
6.212962 -7.548552 1.219969 1690649
6.289582 -7.651619 0.681359 1690649
-4.342651 7.179971 0.474077 10053171
-5.980101 7.102260 0.437223 10053171
-4.428194 6.960796 2.350300 10053171
-5.165314 7.160940 2.865777 10053171
-3.820472 7.001066 0.286111 10053171
-6.698845 6.761830 2.498978 10053171
-4.114218 7.166244 2.545788 10053171
-3.154610 6.973823 1.342551 10053171
-4.378194 6.973456 0.493169 10053171
-3.517189 7.210844 2.528888 10053171
-3.685306 7.192656 2.492108 10053171
-3.267513 6.971128 0.849722 10053171
-3.989460 7.065475 0.163167 10053171
-4.978646 6.815718 1.127850 10053171
-6.824670 6.980767 0.167015 10053171
-4.605994 7.113687 2.210350 10053171
-6.428461 7.001423 1.217060 10053171
-4.648881 6.940042 0.444274 10053171
-6.896887 6.742185 2.824170 10053171
-6.283952 7.237842 2.878408 10053171
-6.076902 7.069425 0.758901 10053171
-6.142390 6.800307 2.829418 10053171
-3.752363 6.866668 2.225415 10053171
-4.830480 7.076556 2.516103 10053171
-6.564877 7.006859 2.647898 10053171
-6.046040 7.155395 1.122380 10053171
-3.407247 7.144422 1.462760 10053171
-4.612147 6.946744 1.365164 10053171
-5.998159 7.227503 2.383153 10053171
-6.676765 7.031587 2.972370 10053171
-6.879210 7.061189 1.089609 10053171
-5.969633 6.768779 0.162608 10053171
-6.137070 7.040784 1.960306 10053171
-3.870854 6.960885 0.593520 10053171
-4.718883 7.151822 0.123079 10053171
-5.871263 7.182202 2.073082 10053171
-4.854354 6.969732 1.395413 10053171
-5.493869 7.229548 2.735551 10053171
-5.053929 6.746693 1.299683 10053171
-6.172403 6.980783 2.539823 10053171
-4.469922 6.920872 2.121622 10053171
-4.100148 7.096501 1.109422 10053171
-3.869947 6.774859 0.882346 10053171
-4.722575 6.910532 2.251484 10053171
-5.545779 6.938159 0.638145 10053171
-3.805812 7.061915 1.166790 10053171
-3.494191 7.061067 2.118180 10053171
-4.285484 7.188561 0.731013 10053171
-4.114128 7.254639 2.529864 10053171
-5.309914 6.981177 1.622954 10053171
-6.777452 7.065063 2.621328 10053171
-5.678306 6.961032 1.208063 10053171
-5.765657 6.853411 2.762456 10053171
-3.531557 6.875412 2.701214 10053171
-3.062755 6.904526 0.628058 10053171
-5.037498 7.042305 2.178759 10053171
-3.496216 7.065096 0.821134 10053171
-5.440503 7.017893 1.622878 10053171
-3.350211 7.097251 2.172419 10053171
-6.465934 7.183945 0.024779 10053171
-6.380830 6.764788 2.584784 10053171
-4.386777 6.950212 2.941856 10053171
-6.331515 6.945332 0.891050 10053171
-3.758744 7.180221 1.055786 10053171
-3.546457 7.058351 2.684123 10053171
-4.172956 6.919070 2.147696 10053171
-6.354950 6.828835 1.065061 10053171
-3.771060 7.008682 1.916007 10053171
-3.881608 7.047095 1.232035 10053171
-5.460967 7.194354 0.704490 10053171
-5.900713 6.935612 2.498863 10053171
-3.287472 6.926617 1.508670 10053171
-6.809566 6.772268 2.277808 10053171
-3.712734 6.978378 0.995217 10053171
-6.523867 7.224311 1.587589 10053171
-5.318919 6.981023 0.871978 10053171
-6.473634 6.858671 0.445119 10053171
-4.505908 7.098377 2.293799 10053171
-6.736390 7.172719 1.152047 10053171
-4.008169 6.885560 0.242127 10053171
-5.791959 7.225363 0.699890 10053171
-6.973455 7.073254 2.906817 10053171
-3.145480 7.075832 2.174959 10053171
-4.134094 7.102297 0.058851 10053171
-4.443326 7.177300 1.363862 10053171
-6.610139 7.217400 0.416170 10053171
-5.843400 6.863097 0.171370 10053171
-3.260687 6.902810 0.155997 10053171
-6.548764 6.925744 1.339749 10053171
-5.969839 6.835802 0.001698 10053171
-5.449700 7.035446 1.777927 10053171
-6.387957 6.990084 2.966928 10053171
-6.069698 6.837180 2.958830 10053171
-4.233209 7.211364 1.424918 10053171
-4.295681 7.109767 2.188972 10053171
-3.903028 7.207773 2.398568 10053171
-5.671166 7.209180 0.392928 10053171
-5.339969 6.915035 0.438284 10053171
-3.354076 6.949425 0.966405 10053171
-6.858601 6.942909 0.251681 10053171
-4.496662 6.811974 1.774654 10053171
-6.228155 7.207477 1.551844 10053171
-3.841037 7.195575 0.860867 10053171
-3.805762 6.955565 2.076982 10053171
-4.801248 7.133959 1.215717 10053171
-5.642165 7.255530 1.571561 10053171
-4.233565 6.970204 0.424077 10053171
-5.514283 7.191730 0.290376 10053171
-3.250386 7.084276 0.120354 10053171
-5.117096 6.777580 1.795210 10053171
-5.613514 7.053639 2.643224 10053171
-5.454852 6.901918 2.374031 10053171
-4.470679 6.936493 0.688832 10053171
-4.766104 6.937853 2.318814 10053171
-6.504665 6.966455 1.184290 10053171
-5.732328 6.783678 1.373443 10053171
-4.575670 6.920496 1.775896 10053171
-4.045107 7.061115 2.537298 10053171
-3.329773 7.021258 0.183379 10053171
-4.641285 6.766813 1.415233 10053171
-3.805914 7.198426 0.851609 10053171
-5.156204 6.857546 0.245882 10053171
-6.425786 6.775086 0.301927 10053171
-5.592953 7.010411 0.829630 10053171
-3.139068 7.186275 1.570440 10053171
-5.377246 7.082490 2.719238 10053171
-5.329646 6.929685 2.695399 10053171
-4.397140 6.920035 0.801800 10053171
-6.968542 7.105733 2.652329 10053171
-4.275012 7.056208 2.895868 10053171
-4.862766 6.964655 0.230761 10053171
-6.480917 6.918660 2.247704 10053171
-5.337684 6.907717 1.728392 10053171
-5.261475 7.060797 1.640753 10053171
-4.642959 6.841694 0.807715 10053171
-3.288686 6.829044 0.433830 10053171
-4.006945 6.954740 1.232051 10053171
-3.749788 7.230814 0.767013 10053171
-5.109632 7.030120 2.747356 10053171
-4.743446 7.186051 1.082840 10053171
-5.654735 6.790304 2.538625 10053171
-5.429371 7.160494 2.288893 10053171
-6.069091 7.017465 2.970480 10053171
-3.716425 6.938645 1.066294 10053171
-4.246591 7.081259 2.740653 10053171
-5.937557 7.056020 0.646116 10053171
-4.963356 6.813732 2.312599 10053171
-3.932131 6.805171 1.352943 10053171
-6.018085 7.185542 1.743912 10053171
-3.619176 7.197915 0.398844 10053171
-5.847322 6.913898 2.275134 10053171
-6.565982 6.879772 1.742192 10053171
-4.771050 6.787782 2.796534 10053171
-6.474659 7.158007 1.217343 10053171
-3.569679 7.010498 1.095213 10053171
-6.266330 6.818438 1.552304 10053171
-3.022726 6.864208 1.551215 10053171
-6.389471 7.248880 0.954337 10053171
-4.790296 7.001345 1.218468 10053171
-6.410009 7.083069 0.940031 10053171
-6.888411 6.872003 2.259526 10053171
-3.698641 7.230243 1.810913 10053171
-4.215046 7.193233 0.807275 10053171
-6.345081 6.783156 2.932818 10053171
-3.033704 6.761385 2.276774 10053171
-6.423194 6.920619 1.505715 10053171
-6.311492 6.996347 1.005118 10053171
-5.142524 6.792087 1.237178 10053171
-3.954058 7.162200 0.922221 10053171
-6.401794 7.069654 0.869280 10053171
-6.222475 6.757124 2.092090 10053171
-3.519747 7.039469 0.962582 10053171
-5.312176 6.971530 2.335622 10053171
-4.493700 6.782339 0.626004 10053171
-5.564955 7.197464 0.156959 10053171
-3.606694 6.924500 1.828979 10053171
-6.975896 7.184391 2.104676 10053171
-6.193274 7.178686 1.935008 10053171
-4.709410 6.903898 0.429426 10053171
-5.550299 6.946514 1.750773 10053171
-6.740215 6.770823 1.265373 10053171
-5.587072 6.811712 1.505273 10053171
-6.415857 6.886561 2.017375 10053171
-5.961131 6.773085 1.065589 10053171
-5.787247 6.756768 2.077273 10053171
-5.545315 6.814880 1.564455 10053171
-3.363538 7.073943 2.627155 10053171
-5.037320 7.027189 0.360232 10053171
-4.191089 7.184610 0.543915 10053171
-5.053919 7.135714 0.835632 10053171
-6.379271 6.911020 2.838535 10053171
-6.862231 6.823660 2.531979 10053171
-6.717408 6.759911 0.420933 10053171
-3.254282 7.094062 1.593880 10053171
-6.030997 6.780833 2.618612 10053171
-4.063130 6.926396 1.568272 10053171
-6.733067 7.226286 0.618990 10053171
-6.925172 6.966487 2.962338 10053171
-4.462439 6.929335 1.924558 10053171
-4.907280 7.073702 2.544095 10053171
-3.969364 7.115839 0.797952 10053171
-4.126950 7.251404 0.497880 10053171
-3.920740 6.771900 1.144550 10053171
-3.471145 7.208127 2.487703 10053171
-3.389696 7.165812 0.172886 10053171
-3.159814 6.778920 0.470002 10053171
-4.791868 7.192717 1.108423 10053171
-6.930160 7.095176 0.587148 10053171
-6.261803 6.770991 1.893561 10053171
-6.637650 6.935200 0.619265 10053171
-6.367574 7.177629 1.717316 10053171
-6.411180 6.807772 1.137186 10053171
-4.953856 6.825966 0.301983 10053171
-5.304962 7.029347 1.127419 10053171
-6.001750 7.066153 1.258205 10053171
-3.171282 7.014457 2.059577 10053171
-4.534863 6.912858 0.159278 10053171
-6.041572 6.844933 0.165885 10053171
-3.648409 7.138619 0.322008 10053171
-3.341408 7.190667 2.589600 10053171
-4.006059 6.902043 2.667487 10053171
-4.105716 6.834192 2.988272 10053171
-5.543222 7.077611 1.936710 10053171
-4.318871 7.161038 0.737070 10053171
-4.262491 6.940120 0.592698 10053171
-3.609308 7.155335 0.600357 10053171
-3.744822 6.933895 0.917060 10053171
-4.651524 7.032447 0.597421 10053171
-4.180953 6.936202 0.197398 10053171
-6.536839 6.789142 2.349338 10053171
-4.739232 7.163192 0.512926 10053171
-5.160677 6.975690 1.447765 10053171
-6.440406 7.258410 1.325299 10053171
-6.974699 7.025726 2.094684 10053171
-6.587402 7.236140 1.466234 10053171
-5.060163 7.123946 2.900552 10053171
-4.716222 6.857262 0.744228 10053171
-4.295124 6.924839 1.321156 10053171
-5.439158 6.817293 2.059673 10053171
-4.014848 6.764184 2.831653 10053171
-5.922359 7.012178 1.382556 10053171
-6.754850 6.761077 0.263424 10053171
-3.301143 7.152668 2.713622 10053171
-5.102790 7.072015 1.734782 10053171
-5.852704 7.173654 0.517273 10053171
-6.251373 6.880733 1.081227 10053171
-6.953225 7.065520 1.616853 10053171
-5.757253 7.217145 2.550394 10053171
-6.227655 6.940533 2.035884 10053171
-3.784072 6.947731 1.358626 10053171
-5.697627 7.156176 0.864475 10053171
-3.120943 6.804896 0.974875 10053171
-3.900913 6.860390 1.116353 10053171
-5.354553 7.172876 1.636318 10053171
-3.494922 6.767456 0.845606 10053171
-4.675472 7.238766 1.551900 10053171
-3.639616 7.004237 2.212795 10053171
-4.573880 7.135069 2.694728 10053171
-4.896175 7.090923 2.095997 10053171
-6.909928 6.790616 2.381544 10053171
-3.417673 7.112268 0.851940 10053171
-5.516303 7.065671 2.922712 10053171
-4.835583 6.928525 0.685950 10053171
-4.609363 6.995000 2.192030 10053171
-6.927897 7.013627 2.195078 10053171
-3.630911 6.870418 1.227400 10053171
-4.331679 6.921751 0.840549 10053171
-6.443153 6.781073 2.065484 10053171
-6.047560 6.784390 2.083550 10053171
-4.841315 6.761876 0.941449 10053171
-3.697770 6.869527 -0.003674 10053171
-4.879723 7.118227 2.457083 10053171
-3.748203 7.010091 2.466031 10053171
-5.168549 7.086224 1.523006 10053171
-6.252347 6.859928 1.590752 10053171
-6.677744 7.174630 2.924855 10053171
-3.952683 6.929010 0.943689 10053171
-6.238712 7.041117 0.940791 10053171
-4.895208 7.165966 1.526605 10053171
-3.276791 7.217076 0.934145 10053171
-6.351109 7.064768 1.851576 10053171
-5.688303 6.818371 1.327593 10053171
-3.547584 6.918231 0.436353 10053171
-5.631913 6.810405 2.096323 10053171
-4.304654 7.250152 0.441155 10053171
-3.199393 6.990233 1.456023 10053171
-3.109845 6.945003 1.821602 10053171
-4.083462 6.758885 0.900234 10053171
-4.273328 7.191716 1.324956 10053171
-3.081576 6.865964 0.303646 10053171
-4.006451 7.127266 1.424749 10053171
-5.441483 6.922678 1.068015 10053171
-3.981352 6.946563 0.362678 10053171
-3.783782 6.937409 0.172371 10053171
-5.742488 7.244099 1.849464 10053171
-5.700410 7.221469 1.799914 10053171
-6.031963 6.752003 2.353841 10053171
-3.611177 6.968413 0.801766 10053171
-5.221951 7.120590 1.201739 10053171
-5.136073 6.833665 2.482134 10053171
-4.283372 7.194107 0.626910 10053171
-6.969031 7.227478 0.053277 10053171
-4.021497 6.785450 1.117725 10053171
-4.061415 6.797662 1.837180 10053171
-5.407512 6.856121 2.735039 10053171
-3.276985 7.025235 1.510326 10053171
-3.315516 7.219292 -0.005126 10053171
-3.232740 6.812833 1.500704 10053171
-4.620718 6.947231 1.576550 10053171
-4.964990 6.864048 0.151167 10053171
-6.800513 6.823177 1.552787 10053171
-5.542930 6.932749 0.154144 10053171
-6.913571 6.910439 1.413095 10053171
-4.196105 6.769651 1.329179 10053171
-6.386313 6.903538 0.217371 10053171
-3.354035 6.753058 2.835165 10053171
-4.109182 6.792926 1.394501 10053171
-4.738843 6.839324 1.947372 10053171
-6.161971 6.776583 0.131006 10053171
-5.196346 7.138277 1.830570 10053171
-6.267893 7.116233 2.272129 10053171
-5.134002 7.087124 1.395283 10053171
-6.469483 6.947000 1.331886 10053171
-5.465369 7.075052 0.288401 10053171
-4.948642 7.173312 1.783301 10053171
-3.862804 6.969295 1.633631 10053171
-5.414599 7.081187 2.715460 10053171
-5.708143 7.060441 2.966683 10053171
-6.845125 7.160841 0.777650 10053171
-4.915751 7.154063 1.130714 10053171
-6.977002 6.946430 0.264404 10053171
-6.733126 6.989065 1.044867 10053171
-4.307067 6.785654 1.920155 10053171
-3.992659 7.171144 0.074460 10053171
-3.107857 7.026576 1.331713 10053171
-3.853603 7.004345 0.425295 10053171
-3.100377 6.752910 1.716238 10053171
-3.484485 6.874138 0.329294 10053171
-6.646040 7.102081 1.221706 10053171
-4.079083 7.120424 0.748652 10053171
-3.776806 7.013362 2.082821 10053171
-3.778230 7.026625 1.240760 10053171
-4.641280 7.133690 2.678912 10053171
-4.603166 7.226925 2.353332 10053171
-6.228924 7.150416 0.854772 10053171
-3.114327 6.902387 0.019735 10053171
-4.376502 6.750305 0.516782 10053171
-5.177498 7.021141 2.860151 10053171
-5.319970 7.009562 2.473406 10053171
-3.632049 7.237121 1.059262 10053171
-4.813684 6.761426 0.076517 10053171
-4.737790 7.129210 0.895223 10053171
-4.077268 6.873266 1.502144 10053171
-3.553509 6.955756 0.959766 10053171
-6.959310 7.109244 0.912455 10053171
-3.914982 6.931222 1.356838 10053171
-3.582131 6.922211 2.723721 10053171
-5.502589 6.836483 2.602080 10053171
-5.414233 6.748259 2.415663 10053171
-3.031279 6.798453 2.923096 10053171
-6.166381 6.840402 2.056053 10053171
-4.436763 7.124823 0.762529 10053171
-4.527695 7.006671 0.690622 10053171
-3.176270 7.224840 2.732460 10053171
-5.890649 7.195077 2.526682 10053171
-4.203466 6.910528 2.135970 10053171
-3.181932 6.925365 0.496380 10053171
-5.012902 6.853086 1.856903 10053171
-3.709452 6.979887 0.098767 10053171
-4.328209 7.208081 0.535614 10053171
-6.186182 6.880598 1.543267 10053171
-3.850180 7.191620 0.589769 10053171
-5.450187 6.776785 1.455741 10053171
-3.212561 6.816128 2.171152 10053171
-3.460893 6.952391 0.321912 10053171
-3.934553 7.254059 2.047915 10053171
-6.167776 7.190111 0.268375 10053171
-6.565477 6.895838 0.540472 10053171
-4.626841 6.885033 1.237539 10053171
-5.144537 6.789978 0.009806 10053171
-5.447840 6.793988 0.532518 10053171
-3.769632 6.805464 0.408015 10053171
-5.347250 7.205319 0.694473 10053171
-3.188693 7.195584 1.378630 10053171
-4.947353 6.771851 2.555067 10053171
-6.747642 7.141518 1.624632 10053171
-4.838730 6.794543 1.178413 10053171
-4.085522 7.033599 1.631119 10053171
-4.078332 7.014291 1.622039 10053171
-3.493072 6.940418 2.930928 10053171
-4.068637 7.160954 2.886279 10053171
-6.610216 6.921045 1.749033 10053171
-5.174691 7.050061 1.685459 10053171
-5.098355 7.188060 2.157881 10053171
-4.499156 6.848923 0.046226 10053171
-5.338101 6.750330 2.563029 10053171
-5.182989 6.750659 1.378163 10053171
-4.055762 6.893319 0.719901 10053171
-4.381591 7.059925 1.038186 10053171
-5.227550 7.127469 0.706358 10053171
-3.739411 6.764747 1.903250 10053171
-3.639159 7.248147 2.744430 10053171
-3.357949 7.137034 0.970848 10053171
-4.055819 7.209410 2.642448 10053171
-3.088699 7.181288 2.857706 10053171
-3.573309 7.009642 1.667282 10053171
-5.322858 7.115503 0.101612 10053171
-3.921609 6.944438 2.274162 10053171
-6.382712 7.047251 2.541169 10053171
-3.120943 7.088677 2.774612 10053171
-4.856914 7.165230 0.122686 10053171
-5.867585 6.894536 0.149652 10053171
-4.303523 7.041781 0.574081 10053171
-4.621634 7.138456 0.011644 10053171
-6.609187 7.210330 1.413719 10053171
-6.051685 6.932302 0.092321 10053171
-5.828242 6.776887 2.901567 10053171
-4.460831 7.057926 2.840513 10053171
-5.607612 7.213764 2.544225 10053171
-3.124969 6.951275 0.605753 10053171
-5.762028 6.929161 0.607168 10053171
-4.062430 7.104036 1.527507 10053171
-4.693536 6.754683 1.661771 10053171
-4.978871 7.131294 1.216937 10053171
-4.412316 6.967471 0.512635 10053171
-5.296470 7.244495 0.333144 10053171
-3.871818 6.944769 0.827606 10053171
-4.236588 6.930488 2.667197 10053171
-5.258893 7.095124 1.713901 10053171
-3.033211 6.977977 0.249916 10053171
-5.439229 6.845291 1.063511 10053171
-6.587574 7.084859 2.712729 10053171
-5.119996 6.821169 1.637338 10053171
-3.044718 6.919440 0.748864 10053171
-6.571833 6.988839 1.173240 10053171
-3.078560 6.999413 0.208356 10053171
-6.249739 7.213767 1.899633 10053171
-3.686553 6.910365 1.372977 10053171
-4.172704 7.117955 0.207506 10053171
-3.845461 7.130798 1.804610 10053171
-4.166607 7.002133 1.361639 10053171
-3.101720 6.809386 0.738605 10053171
-5.606634 7.231191 0.140155 10053171
-5.666123 7.013850 2.784304 10053171
-4.789445 6.945042 1.800859 10053171
-5.939402 7.168848 2.054745 10053171
-3.318520 7.097593 0.980785 10053171
-6.497961 6.812137 0.727297 10053171
-6.612646 7.063437 1.902732 10053171
-3.759868 6.854604 0.031563 10053171
-4.645279 7.118812 2.036088 10053171
-5.599627 6.750606 2.659691 10053171
-3.969159 7.102326 0.436385 10053171
-3.923942 6.796597 1.644298 10053171
-5.391867 7.001289 0.803937 10053171
-4.834895 6.834657 1.758883 10053171
-5.770149 6.948785 1.082873 10053171
-6.613664 6.866104 0.162653 10053171
-4.520400 6.952450 1.714314 10053171
-3.717483 7.115296 2.809864 10053171
-5.700205 6.864963 0.092949 10053171
-5.682494 7.042100 0.365043 10053171
-4.253730 6.856159 0.862259 10053171
-5.878432 6.861089 2.080627 10053171
-4.895133 6.843023 2.933996 10053171
-3.171430 6.980562 2.042706 10053171
-3.610516 6.920046 1.080692 10053171
-4.779260 7.145279 2.841685 10053171
-4.526241 7.163272 1.474799 10053171
-3.469133 7.086230 1.060307 10053171
-3.152077 7.151257 0.508303 10053171
-5.417240 7.099132 0.837029 10053171
-6.675317 6.962386 2.578592 10053171
-3.281744 6.902961 2.373869 10053171
-5.862001 7.139726 2.039532 10053171
-4.684044 6.929269 1.464047 10053171
-4.301508 6.830470 2.112520 10053171
-3.027923 6.759710 2.462910 10053171
-3.038625 6.984659 1.074589 10053171
-4.395289 7.186818 0.285023 10053171
-5.494333 7.235115 2.273813 10053171
-5.624333 7.115400 1.107551 10053171
-3.877194 6.879644 1.848382 10053171
-4.677531 7.105787 2.916118 10053171
-4.747890 7.170919 2.689742 10053171
-6.290205 7.033736 1.600430 10053171
-3.115023 7.207379 0.332830 10053171
-4.509946 6.880530 2.799548 10053171
-3.041995 6.930533 1.104172 10053171
-4.460927 7.250332 2.832205 10053171
-5.015417 6.925530 2.679878 10053171
-3.222146 6.972346 0.520593 10053171
-6.000301 6.800122 0.780162 10053171
-4.692322 7.149955 0.306326 10053171
-3.007942 7.059154 0.540683 10053171
-5.438069 6.891037 1.099204 10053171
-3.926972 6.807870 0.628362 10053171
-6.079082 6.982080 2.718175 10053171
-3.296309 6.927509 0.567371 10053171
-5.719417 6.758580 2.826104 10053171
-4.188295 6.851989 0.647020 10053171
-6.616144 6.992957 2.954824 10053171
-6.888727 7.229773 2.518266 10053171
-6.928538 7.204889 0.747250 10053171
-5.265423 6.993248 2.448772 10053171
-5.212251 6.956633 1.269804 10053171
-3.171163 7.138585 1.897824 10053171
-6.380561 6.951973 1.716363 10053171
-4.075121 6.853846 0.122395 10053171
-3.494770 6.888880 0.017013 10053171
-6.120227 6.876321 1.896927 10053171
-3.117454 7.076326 0.766108 10053171
-3.568255 7.056866 2.721513 10053171
-4.223508 7.041649 2.641010 10053171
-3.432653 6.919127 2.417711 10053171
-5.109098 6.901124 2.887725 10053171
-4.461318 7.109775 1.070738 10053171
-6.594951 6.849161 2.034190 10053171
-3.844026 6.883235 2.285449 10053171
-3.561377 6.973613 1.040451 10053171
-4.287725 6.759806 0.880474 10053171
-3.868710 7.005357 1.010248 10053171
-5.355371 6.973094 2.067099 10053171
-3.217234 6.830691 0.501006 10053171
-3.403319 7.238764 0.645208 10053171
-6.369930 6.733179 1.234368 10053171
-5.833616 7.246518 1.589369 10053171
-3.800510 6.885119 0.800718 10053171
-6.565185 6.880731 1.592867 10053171
-4.378433 6.810380 0.972128 10053171
-5.670276 6.932001 0.056903 10053171
-4.403417 7.016589 1.198288 10053171
-4.178343 6.912115 2.112578 10053171
-3.269944 7.180669 1.301052 10053171
-3.737219 7.224365 2.647601 10053171
-5.893776 6.817080 0.053434 10053171
-5.682390 6.793365 1.581037 10053171
-4.964634 6.951610 2.491215 10053171
-6.074375 7.053923 1.122222 10053171
-6.755085 7.237500 2.117189 10053171
-5.462352 6.867330 1.233654 10053171
-6.175117 6.923200 2.902064 10053171
-5.534387 6.768974 2.399581 10053171
-4.523401 7.179549 1.536119 10053171
-5.287114 6.861919 0.616277 10053171
-6.019802 7.225831 1.487737 10053171
-3.518368 6.851283 2.516735 10053171
-5.669413 6.953082 2.288415 10053171
-6.071102 6.962196 1.457063 10053171
-6.579263 6.870327 1.249526 10053171
-6.753602 7.082532 2.612020 10053171
-6.570233 6.854138 1.830022 10053171
-6.078780 6.975689 2.778378 10053171
-4.212060 7.170773 2.773399 10053171
-4.893698 7.081308 2.194556 10053171
-4.850845 7.142880 0.043437 10053171
-4.086612 6.847699 1.573040 10053171
-6.979387 7.247259 0.314513 10053171
-5.482995 7.160145 0.031177 10053171
-3.498457 6.804593 0.739727 10053171
-6.078581 6.800963 0.902215 10053171
-3.545007 6.805877 2.849053 10053171
-3.554738 7.173837 0.910813 10053171
-5.204060 6.807405 2.945363 10053171
-6.956196 6.879011 2.314299 10053171
-4.310554 6.846239 0.570984 10053171
-4.566953 6.840671 0.879150 10053171
-3.486913 6.828907 0.288787 10053171
-6.439477 6.994179 1.148545 10053171
-5.271155 7.246533 1.643372 10053171
-4.209537 7.182674 1.706544 10053171
-5.749102 7.120732 0.932314 10053171
-4.626563 6.951539 2.960948 10053171
-5.861605 7.020230 1.022622 10053171
-5.196624 7.155697 0.296928 10053171
-4.809810 6.862405 2.720325 10053171
-3.320515 6.992293 0.798761 10053171
-3.915154 7.020398 1.804741 10053171
-5.812656 7.001329 1.281580 10053171
-3.323208 6.961282 1.626492 10053171
-3.006215 7.234993 0.811916 10053171
-3.203943 7.225249 2.772903 10053171
-3.187704 7.190114 2.307951 10053171
-6.064503 6.929138 2.236725 10053171
-6.827633 7.044872 2.056184 10053171
-4.080600 6.792374 1.175203 10053171
-3.204817 7.201180 1.693747 10053171
-6.915552 7.161264 1.469295 10053171
-4.304098 6.881196 1.107608 10053171
-5.305682 7.036937 0.098093 10053171
-6.804343 7.149217 2.881911 10053171
-4.217301 6.807990 2.426692 10053171
-3.457465 7.040693 2.642925 10053171
-3.071820 6.772149 1.125842 10053171
-3.500956 7.231736 0.566479 10053171
-3.474871 6.948461 2.305074 10053171
-4.091710 7.070700 2.709606 10053171
-3.748357 7.059977 2.908147 10053171
-5.744258 6.929873 0.481359 10053171
-4.751556 7.110576 1.558369 10053171
5.887798 -5.955109 1.149729 8342706
6.127549 -5.719169 1.806501 8342706
5.457823 -6.097484 3.636845 8342706
6.166525 -6.473475 0.542323 8342706
5.475632 -6.211450 3.039385 8342706
6.164955 -6.470222 4.103742 8342706
6.347166 -6.044363 4.906565 8342706
6.194285 -5.620902 0.304226 8342706
5.998198 -6.163123 3.985005 8342706
6.192893 -5.988548 0.485743 8342706
5.583626 -5.649704 2.012037 8342706
6.144865 -6.416926 3.323346 8342706
6.521562 -5.803988 4.818605 8342706
6.057191 -5.628854 2.402761 8342706
6.489943 -5.966919 1.338110 8342706
6.093760 -6.252400 2.939170 8342706
6.538919 -5.854360 0.290382 8342706
6.352477 -6.425206 2.955400 8342706
6.319837 -5.516982 2.199425 8342706
6.452873 -6.374891 2.662164 8342706
6.192787 -6.115246 2.945951 8342706
6.272909 -5.578589 2.046925 8342706
5.610463 -6.294509 3.530168 8342706
5.815642 -5.568860 0.202108 8342706
5.642644 -5.767904 0.529816 8342706
6.494838 -5.799744 1.417182 8342706
6.032034 -5.411288 0.773980 8342706
6.229618 -6.329942 1.507963 8342706
6.432230 -6.140561 1.605131 8342706
6.544734 -6.032313 3.484795 8342706
5.605999 -6.189796 3.370044 8342706
5.836155 -6.175828 4.711252 8342706
5.761323 -5.549582 2.046275 8342706
6.317903 -5.762888 2.899597 8342706
6.258849 -5.925886 3.526457 8342706
5.442855 -6.126629 0.549710 8342706
6.385179 -5.823155 1.991274 8342706
5.906835 -5.803224 1.715706 8342706
5.733969 -5.838233 3.159778 8342706
5.654932 -6.173801 1.853153 8342706
5.808290 -5.521008 0.791793 8342706
6.446086 -6.067894 0.378503 8342706
5.993725 -6.126683 4.314620 8342706
5.590151 -6.197726 4.548937 8342706
5.755168 -5.749826 4.172719 8342706
5.741385 -5.915514 3.108737 8342706
6.043145 -5.999387 1.439700 8342706
6.426271 -6.278145 1.999266 8342706
5.661822 -5.716172 3.091222 8342706
6.274732 -6.075336 3.919244 8342706
5.424225 -5.995841 4.570039 8342706
5.966003 -5.468056 4.495304 8342706
5.503228 -5.962940 3.234565 8342706
6.421339 -5.952841 1.940365 8342706
6.164431 -6.497819 4.274609 8342706
6.385640 -5.889311 1.207631 8342706
5.419117 -5.961653 2.330125 8342706
5.537643 -5.765087 4.324336 8342706
6.425551 -5.979878 3.002503 8342706
6.106311 -5.657211 4.840474 8342706
6.265055 -5.861712 2.130615 8342706
5.813434 -5.473390 2.075600 8342706
5.877220 -6.333665 3.538600 8342706
5.995803 -5.516995 3.503443 8342706
5.748389 -6.044055 4.529156 8342706
5.863234 -6.084706 1.735795 8342706
6.171150 -5.750342 2.008031 8342706
6.170542 -6.301343 1.971832 8342706
5.781273 -6.232306 1.509618 8342706
5.607874 -6.247627 1.066490 8342706
5.836104 -6.367798 1.257607 8342706
5.960603 -5.943526 3.022824 8342706
6.053303 -6.130608 4.756162 8342706
5.790274 -5.794178 0.612773 8342706
5.723531 -6.076265 2.505293 8342706
5.963820 -5.989900 3.147750 8342706
5.478671 -6.205550 1.927767 8342706
6.082357 -5.595959 0.154447 8342706
6.442384 -5.933975 1.229747 8342706
6.565664 -6.070289 3.871938 8342706
6.029189 -6.206294 3.289366 8342706
5.574257 -5.640285 1.949826 8342706
6.111421 -6.284960 4.440220 8342706
6.100608 -5.580280 4.634902 8342706
6.405227 -5.693136 0.240541 8342706
5.978141 -6.160109 2.703736 8342706
6.220566 -5.988244 2.435234 8342706
5.494471 -6.173647 3.683784 8342706
6.063228 -6.300091 2.013884 8342706
5.873319 -6.338488 1.001282 8342706
6.204665 -6.402114 4.420875 8342706
5.545653 -5.918083 3.871543 8342706
5.697827 -6.392918 2.519133 8342706
6.115393 -6.505882 1.423714 8342706
5.854867 -5.880112 4.548337 8342706
5.593752 -5.775872 2.344412 8342706
6.456043 -5.833593 2.619619 8342706
6.116643 -6.412054 0.578968 8342706
5.545969 -6.153425 1.872373 8342706
6.317485 -6.054016 1.884223 8342706
6.583331 -6.051489 3.646271 8342706
5.654008 -6.378654 0.616497 8342706
5.668674 -6.462432 0.783381 8342706
6.215605 -6.019083 2.576320 8342706
5.654957 -6.010424 3.301824 8342706
5.769588 -5.602554 4.733129 8342706
5.763593 -6.230608 4.021870 8342706
5.634295 -5.828514 1.226123 8342706
6.420703 -5.957814 4.442805 8342706
5.850173 -5.637814 3.509814 8342706
6.043878 -5.802564 0.939958 8342706
6.179828 -6.353130 1.761116 8342706
6.153657 -5.780912 1.596224 8342706
5.964259 -5.765191 4.081004 8342706
6.040663 -6.195076 4.584640 8342706
5.779660 -6.160613 0.236868 8342706
5.896945 -5.669330 1.671853 8342706
6.203656 -5.607969 3.859950 8342706
5.689123 -5.968135 3.103065 8342706
5.803312 -6.186201 2.611287 8342706
5.697540 -5.849221 2.916711 8342706
5.622691 -6.244971 3.710046 8342706
5.907146 -6.590323 1.070797 8342706
6.120345 -5.794078 1.674547 8342706
6.295236 -6.321817 0.542239 8342706
6.363049 -5.691988 2.301160 8342706
6.131089 -5.583051 3.082291 8342706
5.684593 -5.687894 1.226882 8342706
6.010684 -5.721248 3.707549 8342706
6.191539 -6.040755 4.411981 8342706
6.495107 -6.138917 2.677882 8342706
6.330063 -6.143120 3.350725 8342706
5.675433 -6.304215 4.711136 8342706
6.290744 -5.538390 4.647332 8342706
5.969479 -6.215209 3.540834 8342706
5.763543 -5.649192 2.600312 8342706
6.052330 -6.582066 4.495034 8342706
5.519604 -5.761146 4.263971 8342706
5.520488 -6.132489 2.890512 8342706
6.089211 -5.631782 2.477777 8342706
5.678717 -5.880307 4.054844 8342706
5.862877 -5.439081 3.037807 8342706
6.495068 -5.816428 0.100678 8342706
6.070690 -5.436965 0.410214 8342706
6.390737 -5.714111 0.076000 8342706
6.043286 -5.777841 0.508849 8342706
5.660031 -5.691622 3.066164 8342706
6.338459 -6.216014 1.532413 8342706
6.137843 -5.784858 2.509639 8342706
5.782521 -6.149873 1.598173 8342706
6.004142 -6.231143 0.141897 8342706
5.847279 -6.045886 3.759185 8342706
5.732706 -6.145615 3.385762 8342706
6.293609 -6.234888 4.596704 8342706
6.360779 -6.462401 3.393798 8342706
6.021391 -6.561834 4.161516 8342706
6.016818 -5.671278 4.226527 8342706
5.694664 -5.646999 4.212069 8342706
6.200728 -5.863637 1.874897 8342706
5.516155 -6.206196 4.652935 8342706
5.913638 -6.326985 4.700607 8342706
6.063807 -6.438089 1.331483 8342706
6.124071 -5.613869 2.028476 8342706
5.959993 -6.221832 1.709735 8342706
6.033847 -6.043634 4.530619 8342706
6.099787 -5.643191 1.154731 8342706
6.139240 -6.297217 1.578036 8342706
5.752568 -5.733029 0.135300 8342706
6.344335 -6.161498 3.039361 8342706
6.103877 -5.574995 2.646799 8342706
6.265184 -5.848150 1.008407 8342706
5.621874 -6.088871 1.912868 8342706
5.720886 -5.679647 2.256316 8342706
5.794230 -5.654970 2.598836 8342706
5.502573 -5.935442 3.582795 8342706
6.024708 -5.840634 1.885915 8342706
5.708352 -5.876409 1.468079 8342706
5.736785 -6.275509 2.827650 8342706
6.010110 -6.311441 4.875879 8342706
5.999630 -6.446167 4.829909 8342706
6.079268 -5.589778 3.835821 8342706
5.615246 -5.566860 1.994402 8342706
6.548370 -6.045209 4.262126 8342706
5.647697 -5.601773 1.929451 8342706
6.108546 -6.470837 1.691433 8342706
5.606431 -6.232480 1.858332 8342706
6.306865 -5.914611 3.523252 8342706
6.475914 -5.812167 3.829625 8342706
6.421221 -6.115861 3.866263 8342706
6.127064 -5.848406 3.374346 8342706
6.144016 -6.399760 1.023669 8342706
5.656175 -6.151527 3.343784 8342706
6.498027 -6.324861 0.139674 8342706
6.385404 -6.113890 4.942285 8342706
5.443515 -5.909301 3.783914 8342706
6.481948 -6.042615 0.229836 8342706
6.242050 -5.664435 3.721359 8342706
6.088294 -5.999468 2.480677 8342706
6.281816 -5.966819 0.688871 8342706
6.414286 -5.952864 2.422659 8342706
6.066580 -6.508921 2.785069 8342706
6.402489 -6.070559 1.400912 8342706
6.208286 -5.648924 1.088790 8342706
6.282068 -5.590792 4.327214 8342706
6.181758 -6.455121 0.752981 8342706
5.632442 -6.029352 3.175191 8342706
6.534999 -5.776424 1.068892 8342706
6.166413 -5.802334 2.600724 8342706
5.987606 -6.065873 2.530229 8342706
6.382701 -5.684339 1.818381 8342706
5.952981 -6.101430 3.843691 8342706
6.503233 -5.999133 1.574840 8342706
5.502344 -6.303217 0.721951 8342706
5.811216 -6.370798 5.000010 8342706
6.456126 -5.747844 3.988948 8342706
6.220004 -6.037700 0.105382 8342706
6.270321 -5.850671 3.585866 8342706
6.479158 -6.083088 4.587867 8342706
5.929474 -6.047185 3.128435 8342706
6.403019 -6.230086 1.775363 8342706
6.028943 -5.424278 1.978002 8342706
5.422111 -5.958221 4.251082 8342706
6.091657 -6.054385 2.984360 8342706
6.258010 -5.921180 3.260493 8342706
5.642936 -6.158828 3.349632 8342706
6.160901 -6.373170 4.422046 8342706
6.095867 -5.523520 4.133162 8342706
5.932787 -5.835299 2.909494 8342706
5.407896 -6.106728 2.046808 8342706
6.314632 -6.410113 4.864690 8342706
5.644093 -6.377215 2.931959 8342706
6.318135 -6.348831 2.359810 8342706
6.421425 -5.810075 1.066532 8342706
6.436868 -5.863779 2.270349 8342706
5.999551 -5.515834 2.056653 8342706
6.208938 -5.759305 0.471405 8342706
5.895913 -6.274518 1.566968 8342706
6.400763 -5.787087 2.438758 8342706
6.358812 -5.529834 4.086329 8342706
6.456103 -6.174863 1.473577 8342706
6.145404 -5.791569 3.250718 8342706
5.722868 -6.386829 3.083434 8342706
6.268322 -5.542336 4.467077 8342706
6.037637 -5.889489 0.773518 8342706
5.581567 -6.367651 4.409527 8342706
5.602035 -5.754547 4.285466 8342706
6.187921 -5.840483 1.373469 8342706
5.736226 -5.792950 1.057554 8342706
5.866305 -6.108610 0.626145 8342706
6.188260 -5.440274 1.180750 8342706
6.280612 -5.530580 1.156672 8342706
5.644336 -6.258119 4.284172 8342706
5.926863 -6.062462 4.937993 8342706
6.206307 -5.582373 3.774035 8342706
5.656554 -6.037342 4.257792 8342706
6.093742 -6.575012 4.291529 8342706
5.680257 -5.728640 3.969781 8342706
5.557127 -6.089728 3.777236 8342706
6.225841 -6.422808 1.034104 8342706
6.558760 -5.944026 0.501049 8342706
5.990266 -5.529286 2.930339 8342706
6.203194 -6.400413 1.671850 8342706
5.502858 -6.220275 3.915296 8342706
5.596700 -6.469271 2.802752 8342706
5.797712 -5.487412 2.278048 8342706
6.558130 -6.225762 2.092108 8342706
6.052089 -6.365695 0.523246 8342706
5.442722 -5.852523 2.601050 8342706
5.840157 -5.667560 2.548035 8342706
6.283040 -6.087453 0.239134 8342706
6.058585 -5.604187 4.371134 8342706
6.514000 -6.283627 4.417146 8342706
5.825749 -6.386110 4.395340 8342706
5.457214 -5.763983 4.319820 8342706
5.951499 -5.500741 1.500592 8342706
6.526484 -6.210286 4.030666 8342706
6.394071 -6.166959 1.421035 8342706
5.820346 -6.191996 3.747138 8342706
6.100395 -6.351890 1.934881 8342706
5.540864 -5.639913 3.390083 8342706
5.793204 -6.458626 3.501186 8342706
5.515010 -5.681667 3.913086 8342706
6.163276 -5.560495 0.032857 8342706
6.334519 -5.957666 2.653886 8342706
6.377921 -6.101969 1.739858 8342706
5.787518 -5.794771 3.223324 8342706
6.033206 -5.793097 3.166861 8342706
6.320188 -6.051671 2.030875 8342706
6.359405 -5.813034 2.214877 8342706
6.064451 -5.801655 0.108466 8342706
5.825476 -6.078796 0.096573 8342706
6.231866 -6.444291 0.877914 8342706
6.364708 -6.464264 0.742425 8342706
6.139717 -6.374083 4.230860 8342706
5.866126 -6.548550 1.816198 8342706
5.625699 -5.920798 0.978836 8342706
5.764207 -5.675129 2.709820 8342706
6.196910 -5.737966 0.414422 8342706
6.071694 -5.406762 2.093435 8342706
6.013779 -6.491252 1.066894 8342706
6.265090 -5.545722 1.292831 8342706
6.441215 -5.677069 3.602068 8342706
6.483631 -6.257290 0.318841 8342706
5.766197 -5.900662 4.009398 8342706
6.160159 -6.099004 1.732066 8342706
6.114892 -6.219892 3.241639 8342706
5.605344 -6.255088 3.683560 8342706
6.535269 -6.158926 1.856905 8342706
6.266775 -6.216356 1.694853 8342706
5.582097 -5.806154 2.493080 8342706
6.365229 -6.391203 2.022905 8342706
6.112208 -6.197237 3.567447 8342706
6.166583 -6.579349 4.293283 8342706
6.435233 -6.376245 3.679066 8342706
6.119777 -5.539311 2.012389 8342706
6.084569 -5.463563 0.899095 8342706
6.119267 -6.443043 1.164770 8342706
5.676751 -6.049485 0.119664 8342706
5.850362 -5.604819 2.614790 8342706
5.789980 -6.381706 2.636717 8342706
6.119016 -5.487453 3.490963 8342706
5.772638 -6.295360 3.362755 8342706
6.310594 -6.323652 1.069487 8342706
5.797582 -6.541560 4.739653 8342706
6.271718 -5.666695 4.919390 8342706
6.009010 -6.479517 1.865694 8342706
5.695148 -5.774135 0.306273 8342706
6.306599 -5.527115 4.306750 8342706
5.593315 -5.862119 4.363008 8342706
6.252590 -5.595433 0.494560 8342706
6.282514 -6.357686 4.010715 8342706
6.191416 -6.541461 0.568561 8342706
6.168736 -5.861835 1.011748 8342706
6.453925 -6.155820 2.776584 8342706
6.053494 -6.388021 3.736647 8342706
5.999523 -5.540654 2.058937 8342706
6.455941 -6.190038 3.316348 8342706
6.099817 -5.430347 0.245000 8342706
5.481570 -5.699602 4.382693 8342706
6.174528 -6.334828 1.669965 8342706
6.425597 -5.594628 1.847828 8342706
5.880134 -6.102149 0.921184 8342706
6.365841 -5.607733 3.692383 8342706
5.635700 -6.131028 3.750127 8342706
6.505430 -5.920352 1.178649 8342706
5.734594 -6.004756 2.419101 8342706
6.250779 -6.350851 2.940518 8342706
5.682590 -6.374807 4.078996 8342706
6.039611 -6.300817 3.908122 8342706
6.384687 -5.541581 4.949900 8342706
6.510170 -6.272951 4.659152 8342706
6.021621 -5.945027 3.894135 8342706
6.178277 -6.386292 4.342937 8342706
5.726538 -6.198441 2.001445 8342706
6.441444 -5.870567 2.103451 8342706
6.454915 -6.007908 2.220419 8342706
5.856541 -5.456377 1.038779 8342706
6.485030 -5.793743 0.297578 8342706
5.857842 -5.458739 1.389298 8342706
6.237565 -5.707874 4.824706 8342706
5.971294 -5.658315 1.236848 8342706
6.487340 -5.811824 2.263288 8342706
5.800887 -6.221588 3.696544 8342706
6.279365 -6.204089 1.520719 8342706
5.974449 -6.399542 3.974520 8342706
6.000832 -5.830230 2.283419 8342706
6.171579 -6.054889 4.125594 8342706
6.161005 -6.400495 4.338129 8342706
6.287815 -5.595418 4.747304 8342706
6.364077 -5.800938 3.613604 8342706
5.988332 -5.802446 3.149556 8342706
6.539425 -5.880705 3.031620 8342706
6.281702 -5.866238 2.849181 8342706
6.293263 -6.325219 1.991634 8342706
5.750116 -5.710793 3.618605 8342706
5.740942 -5.737411 3.082879 8342706
6.283985 -5.968007 1.452213 8342706
6.381711 -6.228331 1.093161 8342706
5.835078 -5.603076 2.977965 8342706
5.486222 -5.890459 0.131960 8342706
5.655793 -5.641845 0.454370 8342706
5.617590 -5.604729 2.879673 8342706
5.997069 -5.525267 2.119947 8342706
5.519036 -6.104446 1.862685 8342706
6.123933 -5.488727 3.470266 8342706
5.441576 -5.908713 4.584229 8342706
5.478030 -5.801318 2.926634 8342706
6.208290 -6.321568 1.838343 8342706
5.574814 -6.392274 0.851112 8342706
5.885278 -6.515875 1.617877 8342706
6.099774 -6.331204 3.431103 8342706
5.960769 -6.475843 4.599423 8342706
6.362683 -6.156674 0.796425 8342706
6.499397 -6.337090 1.443115 8342706
6.549518 -5.924102 3.395728 8342706
5.570759 -6.073305 1.098668 8342706
6.285961 -6.302066 1.952598 8342706
6.157842 -6.291380 2.941359 8342706
6.063986 -6.520642 4.953370 8342706
5.985559 -6.434402 0.604596 8342706
6.282256 -5.765724 1.742752 8342706
6.400856 -5.922853 1.294997 8342706
6.222897 -6.400057 0.482050 8342706
6.290580 -6.123915 2.897774 8342706
6.471810 -6.151661 0.092116 8342706
6.079951 -5.656688 1.221002 8342706
