# .PCD v0.7 - Point Cloud Data file format
VERSION 0.7
FIELDS x y z rgb
SIZE 4 4 4 4
TYPE F F F U
COUNT 1 1 1 1
WIDTH 1287
HEIGHT 1
VIEWPOINT 0 0 0 1 0 0 0
POINTS 1287
DATA ascii
2.950281 17.238337 1.618369 15014169
2.839573 17.763342 0.589222 15014169
2.503075 17.448404 0.632649 15014169
3.077338 17.307623 1.335329 15014169
2.761958 17.289234 1.346026 15014169
2.531021 17.791389 1.645384 15014169
3.127379 17.430759 0.347480 15014169
3.182390 17.399244 1.313734 15014169
2.749315 17.176455 1.507965 15014169
2.965638 17.690685 1.074933 15014169
3.130555 17.792871 0.308846 15014169
2.523332 17.326756 0.493970 15014169
2.983312 17.426565 1.534023 15014169
2.620419 17.462038 0.330715 15014169
2.985430 17.500328 0.480976 15014169
3.101088 17.794743 0.419781 15014169
2.519226 17.472202 1.136504 15014169
2.688560 17.617258 0.593720 15014169
2.852054 17.556725 0.918755 15014169
2.593585 17.306538 0.496713 15014169
2.702461 17.309387 1.031924 15014169
2.902589 17.445835 0.771972 15014169
2.887215 17.757700 1.496606 15014169
2.575844 17.386423 0.891986 15014169
2.970284 17.652723 0.935344 15014169
2.786318 17.708220 1.062651 15014169
3.137493 17.186300 0.805316 15014169
3.151896 17.634535 1.564830 15014169
2.663475 17.664724 0.580732 15014169
2.870603 17.298506 0.903250 15014169
3.053897 17.362057 1.179526 15014169
2.799221 17.804768 1.218900 15014169
2.936674 17.391506 1.050382 15014169
2.519740 17.216032 1.592971 15014169
2.540140 17.790701 1.308290 15014169
2.924799 17.678175 0.504662 15014169
3.049945 17.660852 1.060346 15014169
2.840015 17.483986 0.923092 15014169
3.061475 17.344664 0.401525 15014169
3.167321 17.476917 1.362255 15014169
2.959208 17.551937 0.466465 15014169
2.663339 17.463835 1.099288 15014169
3.069451 17.367311 0.845289 15014169
3.111053 17.729910 0.447540 15014169
2.595999 17.596462 1.094177 15014169
3.179365 17.682970 1.421816 15014169
2.648899 17.519835 1.207928 15014169
2.502608 17.517445 0.926712 15014169
2.737241 17.345705 1.568178 15014169
2.529744 17.382374 0.710382 15014169
3.165839 17.177393 0.942077 15014169
2.699500 17.643673 1.266255 15014169
2.975145 17.769878 1.640751 15014169
2.553906 17.235765 0.350508 15014169
3.141240 17.839527 0.832466 15014169
2.532251 17.222221 1.547094 15014169
2.822206 17.298000 1.172627 15014169
3.041883 17.475151 0.351474 15014169
2.743673 17.756905 0.444539 15014169
2.576532 17.710104 0.476103 15014169
2.579927 17.329260 0.697631 15014169
2.724225 17.694899 0.649919 15014169
2.551082 17.250122 0.791630 15014169
2.638537 17.727512 1.138640 15014169
2.693022 17.857971 0.887734 15014169
3.126946 17.360014 0.736122 15014169
3.172717 17.224442 1.536780 15014169
3.172784 17.383799 1.602662 15014169
3.115295 17.851784 0.454700 15014169
2.911985 17.717703 1.310472 15014169
3.070688 17.155552 1.624331 15014169
2.609071 17.155750 1.671540 15014169
2.615536 17.732265 0.310134 15014169
2.508487 17.208223 1.192084 15014169
2.650919 17.460052 1.665909 15014169
2.619685 17.304510 0.972767 15014169
2.688124 17.501272 0.915886 15014169
2.727110 17.146305 1.334055 15014169
3.107867 17.415915 0.942059 15014169
2.527115 17.683973 0.626548 15014169
2.567594 17.245541 0.566845 15014169
2.999990 17.466452 1.276465 15014169
2.587756 17.308311 1.462373 15014169
2.496287 17.318338 1.481251 15014169
2.984698 17.351995 1.451561 15014169
2.608553 17.524698 1.126705 15014169
3.193902 17.623291 0.779086 15014169
2.842002 17.316137 1.683182 15014169
2.790222 17.227667 1.652252 15014169
3.115747 17.531824 0.356983 15014169
3.073859 17.787756 1.187408 15014169
2.681507 17.792377 0.323169 15014169
2.712282 17.388859 1.483975 15014169
2.492918 17.594448 1.069997 15014169
2.733387 17.213699 0.522779 15014169
2.947474 17.163008 0.381796 15014169
2.811566 17.521851 0.304028 15014169
2.844591 17.235168 0.462237 15014169
2.941608 17.376127 1.394692 15014169
-0.669016 -13.920474 0.485317 1645029
-0.658816 -13.663545 1.226336 1645029
-1.182736 -14.164952 1.060028 1645029
-0.965228 -13.912351 1.013406 1645029
-0.880604 -13.840804 1.188752 1645029
-0.926327 -13.860091 1.503997 1645029
-0.920568 -13.818500 0.613427 1645029
-1.043950 -13.705415 1.278093 1645029
-0.801939 -13.878825 0.953955 1645029
-0.852790 -14.327461 0.610314 1645029
-0.329681 -14.019781 1.095871 1645029
-0.538122 -14.298377 1.279976 1645029
-1.038080 -14.025230 0.619044 1645029
-0.396562 -14.194954 1.229397 1645029
-0.992819 -14.043525 0.841758 1645029
-1.201870 -13.750533 1.126548 1645029
-1.264614 -14.257015 0.947520 1645029
-0.671129 -13.651701 1.139051 1645029
-0.567206 -13.828517 1.301155 1645029
-0.821586 -14.134673 0.894329 1645029
-0.608998 -14.235778 1.150949 1645029
-1.010964 -14.221346 1.330705 1645029
-0.677227 -13.725266 1.268179 1645029
-0.829050 -14.358355 0.688865 1645029
-0.733185 -14.457642 0.764948 1645029
-0.969126 -13.777659 1.151410 1645029
-0.743355 -14.292298 0.848841 1645029
-0.904308 -13.990792 0.927222 1645029
-0.476993 -13.985332 1.036181 1645029
-0.583157 -14.145317 1.129533 1645029
-1.017027 -14.181024 0.863782 1645029
-1.160334 -13.968163 0.631475 1645029
-1.024132 -14.003681 1.351139 1645029
-1.007391 -14.002218 0.892453 1645029
-0.480400 -14.301839 0.944084 1645029
-0.881943 -14.010823 1.084272 1645029
-0.795513 -13.608423 1.082601 1645029
-1.296864 -14.312396 1.059860 1645029
-0.796241 -13.964637 1.168040 1645029
-1.042611 -14.355518 1.095616 1645029
-1.014478 -14.165592 0.512213 1645029
-1.239702 -14.055853 0.860681 1645029
-0.597782 -14.176352 1.127320 1645029
-0.817376 -14.077154 1.223799 1645029
-0.965374 -13.893341 0.680860 1645029
-0.705883 -13.925954 0.652747 1645029
-0.710498 -13.642085 1.002961 1645029
-0.723500 -14.006805 0.878913 1645029
-0.903719 -14.036866 0.682553 1645029
-0.526781 -14.322673 0.817360 1645029
-0.927198 -14.464758 0.969347 1645029
-0.448088 -14.072492 0.980212 1645029
-0.890458 -14.224845 0.838705 1645029
-0.998932 -14.347361 1.340200 1645029
-0.933687 -13.906770 0.529408 1645029
-0.415757 -14.078586 1.273423 1645029
-1.117938 -13.712514 0.728910 1645029
-1.124246 -13.846694 0.651529 1645029
-0.730309 -14.484320 0.903580 1645029
-1.102045 -14.188235 0.875264 1645029
-0.810227 -14.463313 0.962414 1645029
-0.701837 -14.125151 0.971584 1645029
-1.122067 -14.154841 1.010029 1645029
-0.965092 -13.797488 0.907774 1645029
-0.945898 -13.574636 0.958975 1645029
-1.063668 -14.124791 1.413075 1645029
-0.955547 -14.155220 1.158175 1645029
-0.715511 -13.875598 1.226387 1645029
-0.492761 -13.929967 1.152625 1645029
-0.382347 -13.942814 1.003255 1645029
-1.147283 -14.387506 1.222641 1645029
-0.562499 -13.729260 1.032875 1645029
-0.466132 -14.035929 1.028584 1645029
-1.094511 -13.838082 0.572406 1645029
-0.923064 -13.738216 1.245020 1645029
-0.790772 -13.647877 1.065579 1645029
-0.674430 -13.853245 0.853779 1645029
-0.845794 -13.865725 0.537837 1645029
-0.542879 -14.012834 1.015931 1645029
-0.512021 -13.818259 1.231862 1645029
-4.371712 7.147599 0.472142 10053171
-5.950986 7.088559 0.413784 10053171
-4.432379 6.958437 2.368350 10053171
-5.153264 7.159120 2.891523 10053171
-3.854261 6.991570 0.299047 10053171
-6.678969 6.763516 2.476389 10053171
-4.095011 7.163861 2.551340 10053171
-3.168178 6.932074 1.347193 10053171
-4.387976 6.976762 0.527701 10053171
-3.502501 7.202140 2.560035 10053171
-3.673335 7.184774 2.490377 10053171
-3.269682 6.961144 0.869406 10053171
-3.987602 7.075016 0.163783 10053171
-4.978175 6.823265 1.138477 10053171
-6.817076 6.972603 0.203827 10053171
-4.613462 7.114681 2.211027 10053171
-6.427404 6.993547 1.212595 10053171
-4.651029 6.945246 0.443644 10053171
-6.908116 6.751023 2.825346 10053171
-6.309782 7.225906 2.905572 10053171
-6.069631 7.067008 0.772242 10053171
-6.135572 6.800246 2.801021 10053171
-3.734681 6.857992 2.224468 10053171
-4.838068 7.068865 2.522232 10053171
-6.587764 6.993990 2.657716 10053171
-6.050467 7.168239 1.099724 10053171
-3.412574 7.165354 1.429154 10053171
-4.617310 6.942445 1.353108 10053171
-6.022342 7.236925 2.393064 10053171
-6.674944 7.034167 2.948254 10053171
-6.877312 7.058961 1.101595 10053171
-5.979651 6.748189 0.139170 10053171
-6.131819 7.023452 1.950710 10053171
-3.880321 6.958823 0.589446 10053171
-4.699937 7.158170 0.106528 10053171
-5.883495 7.175611 2.069078 10053171
-4.834028 6.952983 1.409185 10053171
-5.506075 7.258564 2.752004 10053171
-5.069018 6.767361 1.310102 10053171
-6.153040 6.979777 2.529329 10053171
-4.475584 6.926699 2.138512 10053171
-4.115540 7.106752 1.118326 10053171
-3.874392 6.773009 0.886281 10053171
-4.715132 6.935131 2.231463 10053171
-5.558764 6.952203 0.638195 10053171
-3.796270 7.054508 1.143170 10053171
-3.502279 7.073327 2.124937 10053171
-4.296414 7.196311 0.699086 10053171
-4.122013 7.252028 2.557202 10053171
-5.311422 6.981726 1.596745 10053171
-6.777479 7.063334 2.624407 10053171
-5.704502 6.989658 1.221059 10053171
-5.754724 6.844397 2.800715 10053171
-3.545327 6.849505 2.699389 10053171
-3.092009 6.888352 0.619712 10053171
-5.019416 7.033186 2.168453 10053171
-3.501507 7.051396 0.812476 10053171
-5.434399 7.043814 1.613504 10053171
-3.356357 7.097260 2.170793 10053171
-6.449612 7.185437 0.008764 10053171
-6.367654 6.752594 2.609743 10053171
-4.391116 6.953248 2.945420 10053171
-6.287263 6.953719 0.878258 10053171
-3.738394 7.169952 1.049894 10053171
-3.561790 7.074474 2.686451 10053171
-4.176591 6.909716 2.137294 10053171
-6.352809 6.831348 1.051763 10053171
-3.769865 7.018763 1.930339 10053171
-3.878431 7.069335 1.225803 10053171
-5.427611 7.189707 0.725254 10053171
-5.931374 6.952262 2.529428 10053171
-3.270990 6.930693 1.522865 10053171
-6.809953 6.772754 2.294468 10053171
-3.706493 6.976746 0.990052 10053171
-6.502952 7.215594 1.574078 10053171
-5.314762 6.974188 0.859276 10053171
-6.486896 6.872829 0.433049 10053171
-4.550786 7.079385 2.268586 10053171
-6.745941 7.164804 1.141486 10053171
-4.030382 6.873800 0.241114 10053171
-5.778879 7.230087 0.699680 10053171
-6.956865 7.063994 2.934335 10053171
-3.131247 7.063540 2.173717 10053171
-4.127006 7.118550 0.031518 10053171
-4.435811 7.198383 1.364422 10053171
-6.597111 7.213504 0.415560 10053171
-5.841136 6.844694 0.165415 10053171
-3.269091 6.878487 0.169059 10053171
-6.541550 6.913076 1.332328 10053171
-5.968156 6.843673 0.014410 10053171
-5.445581 7.048765 1.773400 10053171
-6.377775 6.988077 2.967942 10053171
-6.075596 6.832034 2.953457 10053171
-4.235870 7.186031 1.412323 10053171
-4.292019 7.108367 2.195893 10053171
-3.912427 7.187177 2.395826 10053171
-5.671264 7.226475 0.393302 10053171
-5.353789 6.913952 0.450851 10053171
-3.320893 6.956314 0.981697 10053171
-6.859861 6.947101 0.240157 10053171
-4.488690 6.800083 1.771414 10053171
-6.240577 7.213929 1.538146 10053171
-3.844891 7.191277 0.874343 10053171
-3.790664 6.977725 2.085648 10053171
-4.819229 7.137271 1.217290 10053171
-5.637881 7.258932 1.599496 10053171
-4.232419 6.964513 0.411095 10053171
-5.522593 7.191661 0.333142 10053171
-3.274868 7.067101 0.156863 10053171
-5.124695 6.794858 1.794953 10053171
-5.635631 7.063990 2.621331 10053171
-5.457179 6.887506 2.396803 10053171
-4.448712 6.905617 0.682508 10053171
-4.781989 6.933776 2.329869 10053171
-6.499609 6.939481 1.158930 10053171
-5.726200 6.779380 1.389298 10053171
-4.588727 6.930372 1.779186 10053171
-4.050280 7.076972 2.562755 10053171
-3.324132 7.020354 0.190328 10053171
-4.631990 6.758252 1.409438 10053171
-3.805922 7.210480 0.826886 10053171
-5.158327 6.850811 0.237844 10053171
-6.427017 6.759859 0.295326 10053171
-5.579556 7.025579 0.816128 10053171
-3.147717 7.188950 1.547771 10053171
-5.386564 7.086366 2.725467 10053171
-5.327590 6.933975 2.698581 10053171
-4.400274 6.910621 0.776413 10053171
-6.973161 7.134158 2.686514 10053171
-4.282288 7.050554 2.901835 10053171
-4.883719 6.970844 0.230055 10053171
-6.487223 6.910797 2.238360 10053171
-5.363720 6.911551 1.728491 10053171
-5.249285 7.046980 1.627512 10053171
-4.642251 6.845329 0.812207 10053171
-3.281090 6.832918 0.452400 10053171
-4.007013 6.940742 1.224208 10053171
-3.767326 7.232380 0.791727 10053171
-5.119871 7.031093 2.751740 10053171
-4.754004 7.156975 1.092648 10053171
-5.653578 6.782077 2.531467 10053171
-5.411281 7.156419 2.279027 10053171
-6.042552 7.022176 2.970161 10053171
-3.706543 6.946918 1.064845 10053171
-4.250646 7.090082 2.759271 10053171
-5.916735 7.047522 0.650328 10053171
-4.977897 6.819024 2.301132 10053171
-3.914185 6.802659 1.354583 10053171
-6.025493 7.199696 1.728695 10053171
-3.626007 7.198753 0.397378 10053171
-5.857514 6.907571 2.269381 10053171
-6.544995 6.862399 1.765719 10053171
-4.755841 6.801082 2.799704 10053171
-6.484049 7.158174 1.214817 10053171
-3.580629 6.997644 1.082173 10053171
-6.252130 6.831849 1.544825 10053171
-3.011315 6.844612 1.546393 10053171
-6.362818 7.233418 0.949370 10053171
-4.774097 6.981580 1.246791 10053171
-6.422378 7.102205 0.939225 10053171
-6.887528 6.875247 2.236453 10053171
-3.703809 7.212507 1.819456 10053171
-4.217901 7.215784 0.810308 10053171
-6.319347 6.807849 2.943732 10053171
-3.035880 6.750067 2.272538 10053171
-6.399785 6.940434 1.481557 10053171
-6.301117 6.995204 1.004296 10053171
-5.148263 6.792319 1.211111 10053171
-3.971115 7.175488 0.943149 10053171
-6.412722 7.086442 0.863077 10053171
-6.221728 6.742550 2.108443 10053171
-3.527722 7.035221 0.957143 10053171
-5.319261 6.962618 2.334100 10053171
-4.512511 6.788858 0.629620 10053171
-5.579902 7.205492 0.154618 10053171
-3.613557 6.923212 1.814908 10053171
-6.991839 7.193356 2.111470 10053171
-6.165341 7.167650 1.930406 10053171
-4.700102 6.908491 0.430461 10053171
-5.540309 6.951751 1.737005 10053171
-6.760073 6.758579 1.268801 10053171
-5.575082 6.791395 1.488521 10053171
-6.401176 6.858912 2.040474 10053171
-5.966807 6.763001 1.046030 10053171
-5.792934 6.745602 2.079114 10053171
-5.542138 6.805542 1.574902 10053171
-3.383388 7.057417 2.642924 10053171
-5.044790 7.041934 0.349605 10053171
-4.193292 7.202639 0.560602 10053171
-5.055024 7.123085 0.818490 10053171
-6.398820 6.898211 2.844271 10053171
-6.870102 6.831376 2.536010 10053171
-6.702648 6.748558 0.424066 10053171
-3.235887 7.083248 1.582035 10053171
-6.030060 6.736111 2.617190 10053171
-4.072536 6.926132 1.554869 10053171
-6.706297 7.228356 0.607083 10053171
-6.897052 6.947650 2.963996 10053171
-4.483730 6.938476 1.944437 10053171
-4.914667 7.095213 2.558186 10053171
-3.975915 7.095726 0.785362 10053171
-4.128645 7.253017 0.509049 10053171
-3.910608 6.776572 1.124147 10053171
-3.472314 7.216081 2.474832 10053171
-3.393783 7.176082 0.191748 10053171
-3.159138 6.783248 0.449382 10053171
-4.790105 7.208220 1.093214 10053171
-6.913954 7.100366 0.582484 10053171
-6.264737 6.755296 1.869446 10053171
-6.643116 6.935265 0.621878 10053171
-6.362509 7.158605 1.723100 10053171
-6.413645 6.803257 1.108579 10053171
-4.983371 6.834112 0.277878 10053171
-5.298422 7.025649 1.134978 10053171
-5.980070 7.071551 1.256049 10053171
-3.177961 7.009286 2.073109 10053171
-4.539361 6.906970 0.162317 10053171
-6.069693 6.831438 0.173619 10053171
-3.631693 7.157775 0.321068 10053171
-3.330885 7.192253 2.602948 10053171
-4.022168 6.885627 2.671483 10053171
-4.103749 6.837887 2.994441 10053171
-5.525681 7.113461 1.928945 10053171
-4.304890 7.155999 0.750055 10053171
-4.250135 6.948671 0.595410 10053171
-3.621643 7.160319 0.594653 10053171
-3.726168 6.939537 0.909923 10053171
-4.656614 7.017651 0.619370 10053171
-4.180710 6.946680 0.206341 10053171
-6.524321 6.795536 2.357113 10053171
-4.720831 7.177022 0.507381 10053171
-5.164012 6.987820 1.460795 10053171
-6.468786 7.240768 1.318066 10053171
-6.985810 7.045949 2.080730 10053171
-6.605269 7.230007 1.470559 10053171
-5.029077 7.133223 2.880357 10053171
-4.711717 6.831595 0.737146 10053171
-4.303984 6.914427 1.326523 10053171
-5.435762 6.810725 2.078703 10053171
-4.009574 6.745908 2.804107 10053171
-5.962611 7.025704 1.389445 10053171
-6.755860 6.769407 0.248681 10053171
-3.301449 7.150005 2.690244 10053171
-5.103749 7.042294 1.743491 10053171
-5.842113 7.190584 0.513740 10053171
-6.239761 6.882736 1.067808 10053171
-6.943051 7.076940 1.622446 10053171
-5.748666 7.206046 2.560053 10053171
-6.221056 6.934512 2.040026 10053171
-3.804240 6.963652 1.360615 10053171
-5.718909 7.163100 0.875987 10053171
-3.095462 6.804401 0.971093 10053171
-3.923551 6.847917 1.123049 10053171
-5.354938 7.165359 1.616745 10053171
-3.510203 6.760478 0.852998 10053171
-4.666620 7.244369 1.567245 10053171
-3.633053 6.992295 2.207860 10053171
-4.581726 7.131207 2.705549 10053171
-4.890472 7.091172 2.097559 10053171
-6.909383 6.805176 2.390484 10053171
-3.435757 7.097412 0.869199 10053171
-5.519743 7.057881 2.928924 10053171
-4.839373 6.937016 0.671230 10053171
-4.608251 7.011177 2.169480 10053171
-6.919389 7.053112 2.190613 10053171
-3.656040 6.844260 1.229131 10053171
-4.335840 6.909869 0.828759 10053171
-6.428238 6.788464 2.071056 10053171
-6.037108 6.808318 2.072269 10053171
-4.837833 6.769771 0.947164 10053171
-3.715671 6.859125 0.007339 10053171
-4.858531 7.100400 2.471047 10053171
-3.756966 7.002423 2.469564 10053171
-5.182682 7.069264 1.519141 10053171
-6.240867 6.850179 1.590327 10053171
-6.671533 7.176727 2.928903 10053171
-3.939211 6.922156 0.951708 10053171
-6.233673 7.042766 0.965133 10053171
-4.886830 7.154304 1.521543 10053171
-3.266609 7.215346 0.934564 10053171
-6.344368 7.081128 1.870177 10053171
-5.685982 6.817166 1.331388 10053171
-3.556553 6.913132 0.429685 10053171
-5.641160 6.800256 2.110019 10053171
-4.304554 7.241348 0.449508 10053171
-3.208756 7.013272 1.446454 10053171
-3.112105 6.958080 1.825590 10053171
-4.071688 6.747278 0.895664 10053171
-4.267797 7.203333 1.332408 10053171
-3.083957 6.872486 0.299749 10053171
-4.021968 7.114793 1.433161 10053171
-5.439172 6.923769 1.049424 10053171
-3.979239 6.952434 0.370150 10053171
-3.792850 6.939377 0.165959 10053171
-5.701510 7.248790 1.853883 10053171
-5.683715 7.202462 1.781080 10053171
-6.041977 6.754917 2.389987 10053171
-3.605839 6.955928 0.802055 10053171
-5.205899 7.130307 1.169379 10053171
-5.134238 6.839841 2.480192 10053171
-4.297659 7.199958 0.634231 10053171
-6.964477 7.222346 0.060108 10053171
-4.032053 6.794846 1.106484 10053171
-4.079462 6.790750 1.826778 10053171
-5.400616 6.867321 2.737492 10053171
-3.285646 7.046056 1.513415 10053171
-3.319781 7.218712 -0.001877 10053171
-3.229883 6.805367 1.506063 10053171
-4.627189 6.960814 1.538566 10053171
-4.975957 6.860317 0.136799 10053171
-6.808157 6.819847 1.544841 10053171
-5.548752 6.919077 0.144951 10053171
-6.925262 6.923528 1.413198 10053171
-4.213160 6.767672 1.310107 10053171
-6.389918 6.915392 0.212347 10053171
-3.360884 6.748547 2.828184 10053171
-4.096106 6.785937 1.416529 10053171
-4.726992 6.833764 1.922162 10053171
-6.167677 6.790783 0.131717 10053171
-5.203771 7.139102 1.827127 10053171
-6.275814 7.122294 2.266918 10053171
-5.137515 7.077421 1.381668 10053171
-6.458442 6.941028 1.309200 10053171
-5.454210 7.072631 0.292060 10053171
-4.938585 7.171597 1.787028 10053171
-3.858934 6.984845 1.638490 10053171
-5.423988 7.075326 2.712052 10053171
-5.722651 7.070491 2.970588 10053171
-6.834087 7.146875 0.780340 10053171
-4.904449 7.169367 1.120751 10053171
-6.982890 6.948754 0.260810 10053171
-6.737124 6.976511 1.037044 10053171
-4.311054 6.790936 1.935577 10053171
-3.992349 7.164242 0.080238 10053171
-3.106105 7.047200 1.325733 10053171
-3.871459 7.026072 0.436856 10053171
-3.109699 6.753047 1.709706 10053171
-3.466910 6.849857 0.317822 10053171
-6.642473 7.086816 1.218913 10053171
-4.078380 7.127334 0.741004 10053171
-3.786178 7.002748 2.063566 10053171
-3.783189 7.030076 1.237854 10053171
-4.615988 7.142563 2.687534 10053171
-4.619492 7.218482 2.349809 10053171
-6.247542 7.122649 0.880181 10053171
-3.120770 6.908606 0.017157 10053171
-4.383161 6.777519 0.506668 10053171
-5.181685 7.007594 2.871563 10053171
-5.329721 6.990918 2.491719 10053171
-3.662898 7.225248 1.079777 10053171
-4.849553 6.785648 0.083859 10053171
-4.759470 7.132209 0.904391 10053171
-4.079050 6.853839 1.513635 10053171
-3.548577 6.967740 0.983076 10053171
-6.950789 7.133465 0.908935 10053171
-3.892904 6.942573 1.362006 10053171
-3.603861 6.939725 2.717932 10053171
-5.511128 6.817001 2.585230 10053171
-5.398845 6.765625 2.402912 10053171
-3.012951 6.822781 2.940574 10053171
-6.152677 6.849658 2.059112 10053171
-4.433923 7.133734 0.802625 10053171
-4.520095 7.025481 0.702992 10053171
-3.181992 7.234893 2.724873 10053171
-5.885604 7.216256 2.519506 10053171
-4.221142 6.898903 2.129695 10053171
-3.208099 6.952664 0.492591 10053171
-5.010187 6.823591 1.842195 10053171
-3.717503 6.949748 0.097854 10053171
-4.319317 7.224698 0.529853 10053171
-6.182700 6.890473 1.540977 10053171
-3.864205 7.196836 0.597802 10053171
-5.438911 6.764507 1.443907 10053171
-3.223051 6.815681 2.185701 10053171
-3.453606 6.952357 0.323760 10053171
-3.961308 7.254734 2.062696 10053171
-6.167796 7.188679 0.266206 10053171
-6.550282 6.893878 0.535652 10053171
-4.617115 6.879330 1.225705 10053171
-5.141098 6.791337 0.018381 10053171
-5.449783 6.808276 0.518981 10053171
-3.779238 6.799416 0.407967 10053171
-5.340136 7.201828 0.685272 10053171
-3.182076 7.180881 1.380111 10053171
-4.941357 6.778662 2.548781 10053171
-6.744262 7.150197 1.595988 10053171
-4.839699 6.769540 1.178527 10053171
-4.086812 7.033133 1.644269 10053171
-4.073803 7.025528 1.614701 10053171
-3.496439 6.903065 2.927817 10053171
-4.091245 7.150067 2.897871 10053171
-6.611742 6.921222 1.750421 10053171
-5.183056 7.065626 1.702350 10053171
-5.107379 7.160822 2.150007 10053171
-4.490236 6.851885 0.031184 10053171
-5.353563 6.753434 2.585268 10053171
-5.166504 6.754315 1.381773 10053171
-4.083930 6.868523 0.723260 10053171
-4.387256 7.051974 1.045498 10053171
-5.224017 7.118264 0.692526 10053171
-3.741297 6.791083 1.885202 10053171
-3.666474 7.246727 2.750463 10053171
-3.375805 7.157740 1.011584 10053171
-4.069584 7.199045 2.649907 10053171
-3.107836 7.155396 2.867024 10053171
-3.561067 7.037942 1.661666 10053171
-5.311635 7.109116 0.074242 10053171
-3.907640 6.919953 2.312242 10053171
-6.403525 7.066614 2.536135 10053171
-3.123437 7.111841 2.782616 10053171
-4.852376 7.152104 0.137126 10053171
-5.908048 6.889637 0.149622 10053171
-4.287767 7.017191 0.567385 10053171
-4.646237 7.156314 -0.000186 10053171
-6.617374 7.216682 1.392750 10053171
-6.048791 6.931026 0.100409 10053171
-5.844211 6.753617 2.917086 10053171
-4.477623 7.059295 2.845463 10053171
-5.636530 7.196841 2.529571 10053171
-3.122263 6.966953 0.609736 10053171
-5.737920 6.921896 0.623794 10053171
-4.078999 7.098308 1.536071 10053171
-4.676085 6.779414 1.653577 10053171
-4.973787 7.137430 1.210840 10053171
-4.443658 6.951563 0.498982 10053171
-5.292326 7.239454 0.315224 10053171
-3.880267 6.963145 0.830828 10053171
-4.250356 6.938334 2.656442 10053171
-5.241585 7.096651 1.719029 10053171
-3.049685 6.985472 0.263710 10053171
-5.439734 6.857289 1.058622 10053171
-6.590275 7.070689 2.698022 10053171
-5.104095 6.818503 1.627611 10053171
-3.037791 6.916409 0.745854 10053171
-6.564529 6.971378 1.163774 10053171
-3.073637 6.987741 0.207533 10053171
-6.278523 7.221820 1.900486 10053171
-3.694080 6.920335 1.342957 10053171
-4.183581 7.111290 0.209708 10053171
-3.829189 7.147125 1.805594 10053171
-4.172535 7.018456 1.340275 10053171
-3.114868 6.831524 0.736128 10053171
-5.591180 7.211874 0.149240 10053171
-5.673616 7.020362 2.800825 10053171
-4.805135 6.955394 1.797312 10053171
-5.920206 7.159832 2.035228 10053171
-3.308628 7.101562 0.986430 10053171
-6.487562 6.802406 0.732576 10053171
-6.593680 7.067313 1.908049 10053171
-3.747343 6.868939 0.018970 10053171
-4.631144 7.128643 2.007617 10053171
-5.596991 6.771673 2.653168 10053171
-3.974594 7.083694 0.432807 10053171
-3.898903 6.777749 1.633565 10053171
-5.362644 7.032114 0.805961 10053171
-4.827749 6.816472 1.750720 10053171
-5.783989 6.952825 1.072253 10053171
-6.613235 6.851737 0.164858 10053171
-4.492912 6.958237 1.717098 10053171
-3.713447 7.100716 2.793517 10053171
-5.694705 6.846375 0.063381 10053171
-5.672577 7.051442 0.380535 10053171
-4.233310 6.833673 0.864090 10053171
-5.885221 6.855202 2.060510 10053171
-4.921021 6.832098 2.888445 10053171
-3.181973 6.973244 2.017902 10053171
-3.607956 6.912781 1.069325 10053171
-4.798185 7.133114 2.843972 10053171
-4.537111 7.158931 1.499007 10053171
-3.475191 7.086346 1.070013 10053171
-3.152846 7.152143 0.507538 10053171
-5.433527 7.122612 0.839021 10053171
-6.653339 6.975913 2.586869 10053171
-3.289450 6.914673 2.379158 10053171
-5.850327 7.157340 2.063601 10053171
-4.687068 6.914838 1.458300 10053171
-4.298136 6.839216 2.128683 10053171
-3.023275 6.763865 2.467305 10053171
-3.037294 7.001754 1.078493 10053171
-4.380429 7.194341 0.302567 10053171
-5.486447 7.226493 2.267097 10053171
-5.604477 7.108971 1.114552 10053171
-3.883797 6.879442 1.854127 10053171
-4.657131 7.087793 2.948992 10053171
-4.735708 7.188485 2.679475 10053171
-6.295527 7.021890 1.586506 10053171
-3.120912 7.199799 0.336563 10053171
-4.517398 6.902848 2.799829 10053171
-3.049149 6.928547 1.109282 10053171
-4.448604 7.242778 2.830963 10053171
-5.033188 6.920054 2.696366 10053171
-3.240402 6.970152 0.511329 10053171
-5.963325 6.803981 0.780029 10053171
-4.694738 7.156786 0.302241 10053171
-3.018430 7.046673 0.580769 10053171
-5.416037 6.908216 1.091898 10053171
-3.921344 6.807289 0.608414 10053171
-6.078897 6.963922 2.726862 10053171
-3.298193 6.924676 0.546457 10053171
-5.733945 6.775584 2.836201 10053171
-4.208092 6.841725 0.620218 10053171
-6.625765 6.982423 2.947173 10053171
-6.918825 7.244565 2.518281 10053171
-6.920246 7.216535 0.736052 10053171
-5.283519 7.019258 2.444839 10053171
-5.207520 6.959259 1.263529 10053171
-3.169452 7.140951 1.925930 10053171
-6.382810 6.952172 1.724341 10053171
-4.074080 6.847260 0.115043 10053171
-3.505839 6.911942 0.025703 10053171
-6.090612 6.884800 1.888054 10053171
-3.111264 7.071625 0.806721 10053171
-3.575753 7.046110 2.712228 10053171
-4.244146 7.035389 2.624164 10053171
-3.431150 6.889189 2.419352 10053171
-5.095096 6.898065 2.880047 10053171
-4.453800 7.124239 1.050477 10053171
-6.606522 6.852240 2.042280 10053171
-3.838797 6.879616 2.273158 10053171
-3.553046 6.983853 1.040491 10053171
-4.278520 6.774504 0.885510 10053171
-3.848555 7.008384 1.008124 10053171
-5.355312 6.936136 2.071764 10053171
-3.244738 6.848018 0.504975 10053171
-3.393924 7.243086 0.643808 10053171
-6.346606 6.769671 1.238487 10053171
-5.813715 7.238819 1.598985 10053171
-3.799479 6.896220 0.812791 10053171
-6.561471 6.868340 1.587359 10053171
-4.369558 6.812808 0.967432 10053171
-5.643088 6.917634 0.058105 10053171
-4.410733 6.997809 1.187934 10053171
-4.181246 6.911034 2.135594 10053171
-3.261018 7.190911 1.283911 10053171
-3.745010 7.218417 2.674988 10053171
-5.900453 6.819345 0.033936 10053171
-5.680209 6.792542 1.560850 10053171
-4.916857 6.963364 2.483867 10053171
-6.094777 7.069937 1.126495 10053171
-6.781454 7.237926 2.095987 10053171
-5.471149 6.870796 1.238723 10053171
-6.181396 6.926962 2.926615 10053171
-5.559646 6.766105 2.393418 10053171
-4.530418 7.177760 1.522625 10053171
-5.299599 6.893545 0.627104 10053171
-6.021113 7.233339 1.466749 10053171
-3.517701 6.845979 2.520465 10053171
-5.661272 6.936008 2.293863 10053171
-6.062392 6.945844 1.450733 10053171
-6.557765 6.882080 1.247672 10053171
-6.760505 7.069302 2.606610 10053171
-6.560690 6.858707 1.845560 10053171
-6.084686 6.984713 2.785056 10053171
-4.230222 7.182823 2.747883 10053171
-4.893723 7.067279 2.183723 10053171
-4.870595 7.145635 0.048831 10053171
-4.090428 6.853127 1.557352 10053171
-6.971321 7.213330 0.303538 10053171
-5.493551 7.146011 0.031167 10053171
-3.505064 6.797170 0.722948 10053171
-6.084661 6.775922 0.902397 10053171
-3.534606 6.822409 2.856099 10053171
-3.534476 7.183140 0.915993 10053171
-5.192901 6.822673 2.941505 10053171
-6.958129 6.874097 2.334250 10053171
-4.332243 6.846865 0.585228 10053171
-4.567219 6.871768 0.863732 10053171
-3.502511 6.833787 0.284878 10053171
-6.433492 7.002271 1.132467 10053171
-5.294778 7.227170 1.656499 10053171
-4.225925 7.181586 1.714831 10053171
-5.743744 7.136271 0.932509 10053171
-4.638916 6.956827 2.948274 10053171
-5.830265 7.037333 1.055784 10053171
-5.200935 7.140145 0.283052 10053171
-4.812123 6.869164 2.731736 10053171
-3.326352 6.998326 0.800175 10053171
-3.909183 7.030818 1.827765 10053171
-5.797693 6.988229 1.268071 10053171
-3.332838 6.953547 1.644588 10053171
-3.000763 7.233779 0.799923 10053171
-3.190870 7.214749 2.766404 10053171
-3.178807 7.154097 2.308461 10053171
-6.067986 6.915618 2.237590 10053171
-6.820875 7.042878 2.058380 10053171
-4.054602 6.796778 1.147833 10053171
-3.203928 7.203533 1.666309 10053171
-6.931798 7.158666 1.467881 10053171
-4.306095 6.899201 1.128950 10053171
-5.298460 7.018023 0.104208 10053171
-6.784165 7.155070 2.884219 10053171
-4.195889 6.822198 2.438332 10053171
-3.453178 7.034569 2.654245 10053171
-3.066466 6.789260 1.146675 10053171
-3.474344 7.198406 0.552934 10053171
-3.457697 6.948365 2.313392 10053171
-4.095591 7.077259 2.703424 10053171
-3.736615 7.033806 2.894391 10053171
-5.756813 6.929148 0.469599 10053171
-4.751510 7.104043 1.550424 10053171
5.906955 -5.983127 1.144107 8342706
6.149854 -5.716019 1.808147 8342706
5.445416 -6.090047 3.626006 8342706
6.174114 -6.496706 0.545059 8342706
5.461183 -6.204485 3.040108 8342706
6.176676 -6.449193 4.082362 8342706
6.353051 -6.061875 4.901912 8342706
6.201816 -5.640893 0.328284 8342706
6.015222 -6.162572 4.001975 8342706
6.183028 -6.006784 0.490231 8342706
5.573195 -5.673361 2.009084 8342706
6.176773 -6.427932 3.314491 8342706
6.520567 -5.792348 4.824660 8342706
6.045465 -5.635988 2.404772 8342706
6.469692 -5.977668 1.315573 8342706
6.088139 -6.219733 2.950973 8342706
6.519796 -5.862874 0.258701 8342706
6.351329 -6.441546 2.963625 8342706
6.307960 -5.519940 2.215847 8342706
6.474414 -6.375294 2.671526 8342706
6.192132 -6.082151 2.956219 8342706
6.273932 -5.577257 2.041357 8342706
5.620211 -6.288021 3.511236 8342706
5.821763 -5.546462 0.199624 8342706
5.642119 -5.771522 0.521427 8342706
6.497842 -5.795634 1.406075 8342706
6.028615 -5.426882 0.754576 8342706
6.220024 -6.326250 1.502196 8342706
6.415176 -6.158557 1.591160 8342706
6.531578 -6.026304 3.480747 8342706
5.607291 -6.161436 3.366238 8342706
5.838995 -6.198298 4.684126 8342706
5.808152 -5.537475 2.043190 8342706
6.321342 -5.774128 2.903457 8342706
6.273839 -5.945163 3.540982 8342706
5.440845 -6.120142 0.541453 8342706
6.382158 -5.814075 1.975602 8342706
5.913826 -5.784906 1.717723 8342706
5.739831 -5.866031 3.144390 8342706
5.646475 -6.156811 1.835917 8342706
5.793128 -5.480026 0.795582 8342706
6.469807 -6.088469 0.392855 8342706
5.999733 -6.142057 4.291038 8342706
5.591478 -6.195528 4.559700 8342706
5.741219 -5.751591 4.143882 8342706
5.758232 -5.903215 3.119654 8342706
6.053370 -5.997551 1.443844 8342706
6.405594 -6.274083 2.030651 8342706
5.651026 -5.745087 3.094167 8342706
6.281476 -6.103603 3.912109 8342706
5.421801 -5.974575 4.592041 8342706
5.959617 -5.473576 4.490492 8342706
5.503090 -5.969212 3.235712 8342706
6.420033 -5.950644 1.959877 8342706
6.164450 -6.498546 4.300668 8342706
6.384140 -5.880462 1.196878 8342706
5.415928 -5.975960 2.335535 8342706
5.510450 -5.755997 4.313532 8342706
6.434316 -5.999526 2.989177 8342706
6.098462 -5.672848 4.827666 8342706
6.262598 -5.869192 2.122054 8342706
5.826961 -5.460281 2.079052 8342706
5.877655 -6.351504 3.553140 8342706
5.995286 -5.517208 3.513856 8342706
5.761775 -6.039189 4.528859 8342706
5.856851 -6.065088 1.744721 8342706
6.177468 -5.740565 2.008337 8342706
6.162100 -6.292620 1.968892 8342706
5.765141 -6.234448 1.524228 8342706
5.603031 -6.260070 1.046740 8342706
5.843161 -6.380119 1.252925 8342706
5.970150 -5.961472 3.034208 8342706
6.059390 -6.121481 4.738811 8342706
5.806077 -5.829668 0.604424 8342706
5.727553 -6.080377 2.495029 8342706
5.962967 -5.984674 3.140424 8342706
5.480065 -6.194477 1.928061 8342706
6.081065 -5.609213 0.123726 8342706
6.449621 -5.943117 1.227709 8342706
6.576024 -6.056867 3.877114 8342706
6.028539 -6.208556 3.286049 8342706
5.568191 -5.642776 1.970117 8342706
6.090210 -6.282086 4.439516 8342706
6.115815 -5.590023 4.637109 8342706
6.438610 -5.683969 0.232787 8342706
5.972964 -6.181561 2.695136 8342706
6.218104 -5.979421 2.419855 8342706
5.496471 -6.167434 3.697425 8342706
6.059184 -6.325240 1.999720 8342706
5.865838 -6.336147 0.994683 8342706
6.185509 -6.410519 4.446709 8342706
5.566064 -5.946056 3.876482 8342706
5.673102 -6.366899 2.496974 8342706
6.115812 -6.494766 1.394700 8342706
5.869287 -5.881204 4.548879 8342706
5.597298 -5.763481 2.327970 8342706
6.448725 -5.867409 2.616121 8342706
6.109317 -6.430738 0.597754 8342706
5.565429 -6.138639 1.856731 8342706
6.316892 -6.048547 1.881515 8342706
6.553845 -6.055627 3.636256 8342706
5.653092 -6.382939 0.617977 8342706
5.677630 -6.448867 0.754317 8342706
6.218696 -6.035644 2.574708 8342706
5.629520 -6.011043 3.300303 8342706
5.760512 -5.598221 4.701945 8342706
5.761098 -6.244307 4.018578 8342706
5.640893 -5.820132 1.227834 8342706
6.425259 -5.957080 4.448012 8342706
5.840014 -5.615391 3.482733 8342706
6.039186 -5.803585 0.922637 8342706
6.150254 -6.367810 1.776509 8342706
6.137489 -5.792395 1.607894 8342706
5.965394 -5.765223 4.085579 8342706
6.047666 -6.195305 4.581184 8342706
5.753112 -6.140273 0.223195 8342706
5.898337 -5.638097 1.657662 8342706
6.189541 -5.627563 3.858346 8342706
5.711233 -5.988339 3.109657 8342706
5.812285 -6.188874 2.594301 8342706
5.677845 -5.848479 2.899255 8342706
5.619017 -6.226276 3.729306 8342706
5.892062 -6.584152 1.077250 8342706
6.133497 -5.797472 1.664215 8342706
6.312634 -6.334817 0.525126 8342706
6.359673 -5.679307 2.305681 8342706
6.122755 -5.575732 3.088783 8342706
5.684942 -5.693765 1.215724 8342706
5.995935 -5.710697 3.712170 8342706
6.224448 -6.033195 4.404347 8342706
6.516087 -6.101682 2.686018 8342706
6.344661 -6.140515 3.361224 8342706
5.671296 -6.304078 4.714417 8342706
6.280853 -5.529965 4.657537 8342706
6.001850 -6.230081 3.543396 8342706
5.766349 -5.655018 2.581553 8342706
6.078718 -6.568589 4.498057 8342706
5.539896 -5.764216 4.271621 8342706
5.543646 -6.139873 2.909683 8342706
6.099689 -5.639431 2.464393 8342706
5.683612 -5.900683 4.041326 8342706
5.884747 -5.435939 3.060366 8342706
6.515565 -5.803396 0.123547 8342706
6.069626 -5.451756 0.413366 8342706
6.395983 -5.738676 0.056284 8342706
6.048554 -5.763908 0.508380 8342706
5.674349 -5.727817 3.080781 8342706
6.337531 -6.225242 1.533111 8342706
6.121191 -5.811751 2.480227 8342706
5.755996 -6.148093 1.601992 8342706
5.986162 -6.195944 0.141132 8342706
5.845024 -6.049826 3.745652 8342706
5.717963 -6.149274 3.386337 8342706
6.309915 -6.251122 4.578324 8342706
6.327255 -6.455355 3.372471 8342706
6.010304 -6.546542 4.179344 8342706
6.024929 -5.658350 4.228325 8342706
5.700987 -5.632722 4.225355 8342706
6.199099 -5.863172 1.895376 8342706
5.501013 -6.243981 4.658814 8342706
5.891299 -6.340297 4.712978 8342706
6.049564 -6.430904 1.306063 8342706
6.121039 -5.618117 2.028008 8342706
5.965835 -6.212369 1.690090 8342706
6.027756 -6.028323 4.561295 8342706
6.098979 -5.624224 1.131422 8342706
6.131231 -6.296741 1.569314 8342706
5.741413 -5.765767 0.142598 8342706
6.342171 -6.177751 3.046476 8342706
6.099674 -5.566750 2.628547 8342706
6.266400 -5.874845 1.022852 8342706
5.615397 -6.092347 1.908852 8342706
5.711554 -5.668749 2.252372 8342706
5.790757 -5.667218 2.611317 8342706
5.510730 -5.940572 3.582526 8342706
6.032053 -5.833993 1.887209 8342706
5.722766 -5.880100 1.472636 8342706
5.753461 -6.278570 2.828716 8342706
6.005746 -6.308640 4.911279 8342706
5.978215 -6.462980 4.829397 8342706
6.074020 -5.619049 3.830001 8342706
5.631116 -5.574292 1.990480 8342706
6.545470 -6.031805 4.234153 8342706
5.671775 -5.587665 1.929019 8342706
6.087687 -6.471428 1.678401 8342706
5.604173 -6.234588 1.867607 8342706
6.322023 -5.898636 3.521101 8342706
6.480451 -5.836409 3.818824 8342706
6.429821 -6.104298 3.859465 8342706
6.126037 -5.839218 3.361257 8342706
6.162961 -6.380948 1.020134 8342706
5.656175 -6.150910 3.341567 8342706
6.507678 -6.309183 0.125138 8342706
6.382195 -6.099821 4.935094 8342706
5.434155 -5.914656 3.786426 8342706
6.477242 -6.044131 0.245429 8342706
6.243998 -5.651636 3.721272 8342706
6.087567 -6.000633 2.470296 8342706
6.258274 -5.999207 0.688096 8342706
6.427375 -5.966668 2.404407 8342706
6.081289 -6.501466 2.777848 8342706
6.385991 -6.085900 1.384805 8342706
6.201274 -5.654100 1.098043 8342706
6.248139 -5.585176 4.344521 8342706
6.153891 -6.451977 0.729328 8342706
5.632377 -6.048847 3.187997 8342706
6.512344 -5.785428 1.101313 8342706
6.164585 -5.782679 2.577617 8342706
5.993294 -6.081660 2.527419 8342706
6.382245 -5.674524 1.825737 8342706
5.961981 -6.106413 3.844613 8342706
6.494916 -6.011275 1.574185 8342706
5.505031 -6.294783 0.723181 8342706
5.829890 -6.365835 4.990754 8342706
6.458383 -5.756496 3.978853 8342706
6.240075 -6.016539 0.123684 8342706
6.255135 -5.839583 3.573294 8342706
6.505255 -6.076795 4.569892 8342706
5.919268 -6.056344 3.145511 8342706
6.383227 -6.245817 1.767440 8342706
6.038772 -5.425538 1.980495 8342706
5.410440 -5.946649 4.247407 8342706
6.089954 -6.083925 2.978324 8342706
6.264359 -5.946880 3.241041 8342706
5.659180 -6.184888 3.368941 8342706
6.140860 -6.345793 4.414833 8342706
6.102844 -5.526590 4.108084 8342706
5.918107 -5.856743 2.917206 8342706
5.412833 -6.119391 2.052423 8342706
6.349482 -6.431193 4.872738 8342706
5.643323 -6.392090 2.934527 8342706
6.313013 -6.335846 2.371550 8342706
6.441117 -5.795478 1.048567 8342706
6.447656 -5.862793 2.260180 8342706
5.976371 -5.524701 2.054290 8342706
6.225575 -5.751300 0.466022 8342706
5.880638 -6.279621 1.562634 8342706
6.408889 -5.766879 2.458330 8342706
6.389891 -5.539428 4.080195 8342706
6.465554 -6.180824 1.491361 8342706
6.157803 -5.810600 3.259911 8342706
5.711106 -6.381560 3.104154 8342706
6.276322 -5.544300 4.471692 8342706
6.045342 -5.910086 0.769675 8342706
5.575010 -6.363641 4.420343 8342706
5.605197 -5.748449 4.277198 8342706
6.199442 -5.846363 1.372128 8342706
5.740681 -5.804095 1.076308 8342706
5.881004 -6.102157 0.629192 8342706
6.173968 -5.460869 1.177641 8342706
6.280605 -5.525221 1.161927 8342706
5.635533 -6.274045 4.278167 8342706
5.922455 -6.073805 4.926018 8342706
6.206754 -5.565185 3.776219 8342706
5.671488 -6.036154 4.279686 8342706
6.100698 -6.583335 4.273118 8342706
5.690347 -5.714863 3.960761 8342706
5.549736 -6.091450 3.776826 8342706
6.212681 -6.392600 1.034061 8342706
6.559407 -5.937007 0.493563 8342706
5.990977 -5.550276 2.908225 8342706
6.193505 -6.403617 1.655811 8342706
5.499864 -6.227076 3.919674 8342706
5.615764 -6.476045 2.802190 8342706
5.807115 -5.496522 2.262846 8342706
6.525264 -6.222225 2.074091 8342706
6.056857 -6.355845 0.536987 8342706
5.453001 -5.842276 2.592756 8342706
5.838973 -5.676884 2.545055 8342706
6.297355 -6.078282 0.221125 8342706
6.058262 -5.616062 4.350969 8342706
6.515594 -6.290404 4.435616 8342706
5.827511 -6.383858 4.433896 8342706
5.461823 -5.762755 4.345063 8342706
5.960905 -5.485072 1.504799 8342706
6.522171 -6.213437 4.017787 8342706
6.386920 -6.165446 1.431143 8342706
5.826275 -6.166030 3.734485 8342706
6.114012 -6.333056 1.925325 8342706
5.538260 -5.632839 3.373824 8342706
5.785224 -6.452064 3.531736 8342706
5.495561 -5.682823 3.915588 8342706
6.174885 -5.556817 0.051336 8342706
6.373734 -5.955650 2.634992 8342706
6.357876 -6.085835 1.734594 8342706
5.804262 -5.776531 3.224008 8342706
6.005130 -5.798395 3.164061 8342706
6.311264 -6.073900 2.046240 8342706
6.358897 -5.817984 2.211561 8342706
6.062732 -5.800449 0.104120 8342706
5.819928 -6.077457 0.089166 8342706
6.222818 -6.465780 0.878485 8342706
6.355772 -6.481110 0.755130 8342706
6.149122 -6.368580 4.214098 8342706
5.857650 -6.524454 1.811101 8342706
5.624022 -5.917627 0.983380 8342706
5.771589 -5.679726 2.695339 8342706
6.185783 -5.734307 0.413104 8342706
6.070063 -5.416205 2.100490 8342706
6.003901 -6.498005 1.070535 8342706
6.255228 -5.538192 1.293843 8342706
6.452707 -5.677018 3.620563 8342706
6.482458 -6.266878 0.310501 8342706
5.776530 -5.926283 4.032261 8342706
6.188725 -6.101455 1.757465 8342706
6.097317 -6.256806 3.245091 8342706
5.611567 -6.253972 3.707612 8342706
6.512753 -6.143657 1.838727 8342706
6.252316 -6.211899 1.688402 8342706
5.547407 -5.787338 2.476795 8342706
6.352511 -6.398596 2.024416 8342706
6.106726 -6.213124 3.602015 8342706
6.168066 -6.597247 4.296019 8342706
6.442030 -6.376033 3.679419 8342706
6.129667 -5.551312 2.010549 8342706
6.091715 -5.463017 0.901460 8342706
6.137569 -6.423388 1.156802 8342706
5.662230 -6.056743 0.127526 8342706
5.836134 -5.593246 2.623791 8342706
5.795738 -6.389078 2.632688 8342706
6.083375 -5.477055 3.479244 8342706
5.747537 -6.272945 3.375339 8342706
6.314335 -6.327839 1.083961 8342706
5.796731 -6.531624 4.750645 8342706
6.248976 -5.654738 4.908319 8342706
6.019928 -6.470969 1.866687 8342706
5.667409 -5.787862 0.316764 8342706
6.279453 -5.525454 4.286760 8342706
5.591605 -5.859413 4.353141 8342706
6.209630 -5.588669 0.477573 8342706
6.263034 -6.359293 4.001387 8342706
6.170319 -6.550962 0.566852 8342706
6.191078 -5.843246 1.025887 8342706
6.445321 -6.170241 2.765888 8342706
6.026317 -6.397842 3.723829 8342706
5.996468 -5.557772 2.058992 8342706
6.472477 -6.187379 3.304903 8342706
6.122235 -5.440258 0.228772 8342706
5.492008 -5.722401 4.393030 8342706
6.187064 -6.333938 1.675942 8342706
6.430607 -5.599570 1.863629 8342706
5.869140 -6.099040 0.931537 8342706
6.368897 -5.611499 3.698559 8342706
5.642480 -6.134314 3.743952 8342706
6.508502 -5.901397 1.171331 8342706
5.719176 -6.000994 2.433136 8342706
6.265126 -6.353910 2.949394 8342706
5.699241 -6.374894 4.090250 8342706
6.049981 -6.269388 3.905843 8342706
6.390867 -5.533278 4.952384 8342706
6.509170 -6.262936 4.659022 8342706
6.014636 -5.928175 3.871099 8342706
6.167058 -6.397404 4.327044 8342706
5.746859 -6.216870 2.001010 8342706
6.443752 -5.881541 2.108492 8342706
6.434114 -5.990460 2.204280 8342706
5.861203 -5.440136 1.076804 8342706
6.503930 -5.794096 0.288278 8342706
5.839122 -5.472059 1.385865 8342706
6.238241 -5.713088 4.814091 8342706
5.971164 -5.643963 1.230001 8342706
6.497763 -5.785299 2.247901 8342706
5.794334 -6.234076 3.691861 8342706
6.273226 -6.202291 1.532627 8342706
5.985745 -6.406199 3.970394 8342706
6.011095 -5.816753 2.294732 8342706
6.165314 -6.059191 4.106198 8342706
6.171247 -6.402969 4.364338 8342706
6.313020 -5.592009 4.752165 8342706
6.341970 -5.830662 3.615543 8342706
5.985939 -5.789604 3.153862 8342706
6.544862 -5.878105 3.043664 8342706
6.272389 -5.857748 2.849747 8342706
6.288413 -6.325442 2.002283 8342706
5.763864 -5.702956 3.620240 8342706
5.705504 -5.710989 3.063100 8342706
6.261130 -5.976347 1.449400 8342706
6.374892 -6.246220 1.090235 8342706
5.821830 -5.584150 2.985340 8342706
5.522635 -5.870775 0.118161 8342706
5.653995 -5.640677 0.448594 8342706
5.610748 -5.571544 2.858729 8342706
5.979917 -5.534672 2.116803 8342706
5.518768 -6.116840 1.876725 8342706
6.131442 -5.481742 3.478079 8342706
5.441926 -5.911887 4.591996 8342706
5.443568 -5.793947 2.922216 8342706
6.176027 -6.316987 1.850980 8342706
5.560687 -6.384513 0.837692 8342706
5.886072 -6.516125 1.604940 8342706
6.084101 -6.336836 3.415322 8342706
5.957303 -6.499213 4.598002 8342706
6.354716 -6.158418 0.797697 8342706
6.515418 -6.340117 1.443264 8342706
6.548865 -5.916640 3.411011 8342706
5.574130 -6.101018 1.117235 8342706
6.263978 -6.290226 1.952848 8342706
6.158515 -6.298797 2.950617 8342706
6.076609 -6.518121 4.972234 8342706
5.986742 -6.443032 0.617552 8342706
6.298791 -5.759261 1.744277 8342706
6.396536 -5.917552 1.303273 8342706
6.214361 -6.401071 0.492612 8342706
6.293766 -6.124513 2.902783 8342706
6.469758 -6.132466 0.105882 8342706
6.083171 -5.656664 1.226411 8342706
6.474510 -6.266733 4.303043 8342706
6.442728 -5.658716 4.808506 8342706
6.500678 -6.178931 3.641417 8342706
6.330448 -6.330709 1.581155 8342706
5.760076 -6.308992 0.413701 8342706
6.155120 -5.588788 2.715347 8342706
6.229727 -6.041047 3.852455 8342706
6.316373 -5.852759 0.392664 8342706
6.194216 -5.855406 3.953276 8342706
5.769466 -6.413323 3.275240 8342706
6.398948 -6.191527 -0.009377 8342706
6.349456 -5.764260 1.362467 8342706
6.282579 -6.005033 4.242563 8342706
6.336080 -6.095311 2.021574 8342706
5.769851 -5.594941 4.382020 8342706
5.831870 -6.017492 0.850293 8342706
6.052864 -5.745026 4.194331 8342706
5.527874 -5.731359 3.984342 8342706
6.451150 -6.129327 1.758415 8342706
6.284811 -6.457719 1.729087 8342706
6.276845 -6.205712 4.633444 8342706
5.548141 -6.330728 1.238024 8342706
6.016327 -6.228779 3.454636 8342706
6.235269 -5.567012 3.771624 8342706
6.042294 -6.578049 3.670984 8342706
5.937697 -6.016124 1.743075 8342706
5.812237 -5.636957 2.727457 8342706
6.174819 -6.329103 0.927733 8342706
6.177530 -5.993333 3.898856 8342706
6.130744 -6.293279 1.984112 8342706
5.773464 -6.151099 1.044231 8342706
6.568799 -6.025697 1.755870 8342706
5.736997 -6.123947 4.312321 8342706
6.454927 -5.765580 1.017377 8342706
5.552879 -5.873921 0.776380 8342706
6.311502 -6.013798 4.989075 8342706
6.181402 -6.561380 4.115222 8342706
6.073911 -6.397007 4.722301 8342706
6.011419 -5.820178 1.401995 8342706
6.520244 -6.167383 4.994990 8342706
6.123605 -6.075650 1.659947 8342706
5.828375 -5.957943 2.070092 8342706
5.730121 -5.976721 3.053678 8342706
6.514711 -6.225861 4.089647 8342706
5.493440 -5.875412 3.599200 8342706
6.170581 -6.097546 0.991445 8342706
5.887219 -6.261611 1.891820 8342706
5.954165 -5.665790 2.405366 8342706
6.324043 -6.264006 0.072163 8342706
5.826372 -5.579058 4.548031 8342706
5.985067 -5.442474 4.050629 8342706
5.750599 -5.456741 3.569048 8342706
6.390938 -6.354211 1.549493 8342706
5.499492 -6.014253 4.732690 8342706
6.041552 -6.520450 0.140378 8342706
6.539748 -5.947452 1.498277 8342706
6.355789 -5.562286 3.368940 8342706
5.775102 -5.891218 0.816144 8342706
6.001724 -6.007890 0.893639 8342706
5.629067 -5.904782 2.231131 8342706
5.708755 -5.605070 2.272305 8342706
5.773183 -6.107370 3.534821 8342706
6.342373 -5.493651 1.157411 8342706
5.649535 -5.763849 4.832890 8342706
5.872731 -5.800127 0.087623 8342706
5.635787 -6.456904 2.437971 8342706
5.893292 -6.469060 3.625085 8342706
6.034173 -6.578583 0.587207 8342706
6.054152 -5.711992 1.718870 8342706
6.085741 -5.897803 1.795193 8342706
6.155592 -5.755137 4.170920 8342706
5.482182 -6.253226 4.957983 8342706
6.561342 -5.836444 2.146077 8342706
6.230156 -6.435659 3.891941 8342706
6.254561 -5.722570 2.521966 8342706
6.235119 -6.364084 2.399582 8342706
6.067531 -5.639044 4.502087 8342706
5.618492 -6.291496 3.470971 8342706
6.001532 -6.440722 2.715876 8342706
6.594090 -6.081575 0.449111 8342706
5.712847 -5.652907 4.793540 8342706
6.284504 -5.784189 0.280010 8342706
5.932793 -5.722363 4.697431 8342706
6.061777 -5.557579 2.441319 8342706
6.357564 -5.951616 1.852615 8342706
5.867551 -6.326649 3.430662 8342706
6.104642 -5.708953 4.246484 8342706
6.467122 -5.829979 0.478475 8342706
6.376612 -5.781403 4.617310 8342706
6.244418 -6.049016 2.773924 8342706
6.329117 -6.241659 0.719303 8342706
5.454155 -6.017889 2.426787 8342706
5.693814 -5.941489 4.315362 8342706
6.281509 -5.895887 4.811817 8342706
6.306607 -5.587379 1.374613 8342706
5.807446 -6.236897 4.070604 8342706
6.440980 -5.671072 4.613579 8342706
5.878936 -5.517045 4.359499 8342706
5.659683 -5.862935 0.471798 8342706
6.416411 -5.812086 3.477679 8342706
6.361590 -5.750524 0.672443 8342706
5.683837 -6.090092 0.746691 8342706
