# .PCD v0.7 - Point Cloud Data file format
VERSION 0.7
FIELDS x y z rgb
SIZE 4 4 4 4
TYPE F F F U
COUNT 1 1 1 1
WIDTH 1305
HEIGHT 1
VIEWPOINT 0 0 0 1 0 0 0
POINTS 1305
DATA ascii
-6.597575 4.526913 0.499070 15014169
-6.485443 4.496813 1.048826 15014169
-6.692539 4.312299 0.909493 15014169
-6.455077 4.173641 0.386040 15014169
-6.370937 4.326923 1.348430 15014169
-6.538774 4.370836 0.476834 15014169
-6.834990 4.295798 1.076402 15014169
-6.472873 4.202276 0.851018 15014169
-6.414942 4.570925 0.449086 15014169
-6.919599 4.463333 1.098507 15014169
-6.347658 4.527883 1.421783 15014169
-6.879225 4.347394 1.175364 15014169
-7.028362 4.359338 0.926291 15014169
-6.783538 4.182897 1.575076 15014169
-7.026935 4.235009 0.695283 15014169
-6.355686 4.002455 0.942734 15014169
-6.798819 4.488951 1.277659 15014169
-6.563097 4.613708 1.630359 15014169
-6.998111 4.064776 0.361835 15014169
-6.387842 4.688878 0.813007 15014169
-6.977418 4.083331 1.518205 15014169
-6.717453 4.104622 1.179980 15014169
-6.498302 4.313573 0.355399 15014169
-6.762929 4.595574 0.449005 15014169
-6.946219 4.548500 0.482769 15014169
-6.951832 4.157445 0.728083 15014169
-6.783108 4.544954 0.641781 15014169
-6.944831 4.099107 0.817345 15014169
-6.841048 4.555465 1.144017 15014169
-6.824069 4.695321 0.885999 15014169
-6.387979 4.199108 0.743254 15014169
-6.361893 4.053933 1.543719 15014169
-6.364820 4.241018 1.582976 15014169
-6.400801 4.687574 0.482021 15014169
-6.605626 4.528555 1.325113 15014169
-6.443434 4.014003 1.639245 15014169
-6.913263 4.001295 1.658723 15014169
-6.902748 4.586607 0.328074 15014169
-6.984855 4.034050 1.185442 15014169
-6.856251 4.275383 1.653749 15014169
-6.897539 4.173649 0.994065 15014169
-6.843760 4.366633 0.921016 15014169
-6.795629 3.986972 1.359275 15014169
-6.418905 4.240609 0.964826 15014169
-6.973700 4.504086 0.637313 15014169
-6.939867 4.081769 0.579992 15014169
-6.503850 4.302653 1.272516 15014169
-6.937697 4.134276 1.460021 15014169
-7.033640 4.144630 1.487208 15014169
-6.540958 4.188560 1.465525 15014169
-6.899311 4.370028 1.146565 15014169
-6.345268 4.471225 0.791813 15014169
-6.668674 4.166748 1.688041 15014169
-6.733012 4.051477 1.668360 15014169
-6.397550 4.377715 0.348866 15014169
-6.434196 4.620962 1.170332 15014169
-6.833972 4.643997 0.321881 15014169
-6.805801 4.236457 1.498463 15014169
-7.025899 4.460271 1.082804 15014169
-6.800429 4.047585 0.502108 15014169
-6.565478 4.031976 0.370354 15014169
-6.698954 4.348515 0.339019 15014169
-6.650860 4.061315 0.465872 15014169
-6.553407 4.209839 1.400919 15014169
0.958992 -10.619529 0.606090 1690649
0.718663 -11.031155 0.776162 1690649
0.942803 -10.985446 0.712094 1690649
0.363856 -11.065214 1.330696 1690649
1.023627 -10.886484 0.487664 1690649
0.742969 -10.820160 0.590616 1690649
0.959857 -10.891281 1.018270 1690649
0.707511 -10.980570 1.095752 1690649
1.205525 -10.981696 1.313568 1690649
0.543742 -10.922969 0.957287 1690649
1.160037 -10.796771 0.518142 1690649
0.861685 -11.056263 1.754941 1690649
0.755978 -11.258465 0.180000 1690649
0.460549 -10.704768 1.081864 1690649
0.859095 -10.599095 1.044957 1690649
1.001695 -11.234604 1.164993 1690649
1.192246 -11.028309 1.018173 1690649
0.615840 -11.087411 0.579300 1690649
0.940007 -10.786179 1.382215 1690649
0.876736 -10.970461 1.119313 1690649
0.869943 -10.522817 1.737954 1690649
0.884325 -11.304711 1.163001 1690649
0.378425 -11.106214 0.873823 1690649
0.338710 -11.092197 0.895766 1690649
0.514287 -10.532900 1.528074 1690649
0.936616 -11.005781 1.852716 1690649
0.452433 -11.022410 1.399197 1690649
0.960648 -10.597356 1.828718 1690649
0.775561 -11.231617 0.634098 1690649
1.023222 -10.685416 1.251991 1690649
0.607747 -10.587426 1.415141 1690649
0.619407 -10.768845 1.593870 1690649
1.152223 -11.099338 0.974414 1690649
0.595224 -10.815603 0.773022 1690649
0.774968 -11.027925 1.061892 1690649
1.075975 -10.553318 1.122167 1690649
0.348281 -10.873606 0.552850 1690649
0.850341 -10.715938 0.630452 1690649
0.489587 -11.019635 1.281578 1690649
0.825676 -10.636028 1.864900 1690649
0.944620 -10.743893 1.077055 1690649
0.636780 -11.193758 0.338231 1690649
0.943509 -10.758183 1.891182 1690649
0.779507 -11.203777 0.995661 1690649
0.512628 -10.593672 1.892605 1690649
0.984806 -11.083339 1.128110 1690649
0.823357 -11.217228 1.443563 1690649
0.720499 -10.731903 0.995437 1690649
0.607678 -10.514948 1.046022 1690649
0.743346 -10.576816 1.364403 1690649
0.604943 -10.758299 1.212089 1690649
0.947395 -10.477219 0.415327 1690649
1.149164 -10.780732 1.507322 1690649
0.554489 -10.692107 1.019870 1690649
0.391355 -11.100761 1.855777 1690649
0.726830 -11.255820 1.706985 1690649
0.594271 -10.996709 0.782760 1690649
0.603611 -10.749947 0.576669 1690649
1.113443 -11.164771 0.912966 1690649
0.738626 -10.929795 1.464116 1690649
0.416010 -10.935606 0.922899 1690649
0.920788 -10.886585 0.128960 1690649
0.543903 -10.731097 0.190686 1690649
0.798725 -11.286532 0.192371 1690649
0.762994 -10.646418 0.991802 1690649
0.884566 -11.102457 1.747548 1690649
0.601467 -11.172764 1.663556 1690649
0.803791 -11.355124 1.786785 1690649
0.572227 -10.722262 0.216170 1690649
0.442848 -11.048017 0.338917 1690649
0.591521 -10.800948 1.337220 1690649
0.922422 -11.029024 0.659226 1690649
0.604623 -11.155164 1.623439 1690649
1.136514 -10.955409 1.147293 1690649
0.922096 -10.914675 0.105138 1690649
0.750007 -10.549424 1.220565 1690649
0.820958 -10.751119 0.214428 1690649
0.751509 -11.265643 1.107781 1690649
1.100198 -10.911740 0.730265 1690649
0.943077 -10.632950 1.178890 1690649
0.708394 -10.468344 0.244979 1690649
0.761818 -11.096558 0.474548 1690649
0.851318 -10.716505 0.892439 1690649
0.631226 -10.866045 1.777544 1690649
0.430833 -10.799031 0.693615 1690649
0.880179 -11.245109 0.190549 1690649
0.730360 -11.263685 1.458376 1690649
0.590091 -11.177011 0.161272 1690649
0.987167 -10.727528 1.496310 1690649
1.043984 -11.097551 1.269925 1690649
0.781377 -10.598053 1.670247 1690649
0.745631 -10.571144 1.140402 1690649
0.985345 -10.598549 0.778069 1690649
0.552706 -11.006874 0.160633 1690649
0.558457 -10.578580 1.275461 1690649
1.056265 -11.174475 0.566916 1690649
0.556352 -10.784721 1.674924 1690649
0.722353 -10.853795 1.901645 1690649
1.067288 -10.721848 0.478620 1690649
0.662411 -11.123271 1.610698 1690649
0.419671 -11.124909 0.967450 1690649
0.668771 -10.604824 1.720069 1690649
0.634831 -11.172314 1.455057 1690649
0.482451 -10.672365 0.620156 1690649
0.553914 -10.695077 0.165669 1690649
0.479356 -11.195675 1.117399 1690649
0.529001 -10.690746 0.613434 1690649
0.580580 -10.684218 1.064557 1690649
0.428012 -11.107648 0.793239 1690649
0.562751 -11.040580 1.263275 1690649
1.113711 -11.184482 0.131346 1690649
0.784230 -10.478036 1.881115 1690649
1.177771 -10.823753 0.970172 1690649
0.959178 -11.274626 1.818939 1690649
1.161154 -10.821138 1.433854 1690649
0.920606 -11.178027 1.057352 1690649
1.038039 -10.711318 1.348976 1690649
0.792843 -11.251352 1.163915 1690649
0.721637 -10.562461 0.774104 1690649
0.809607 -11.296364 0.157869 1690649
0.393385 -10.943059 0.954431 1690649
0.469858 -10.619130 0.283721 1690649
1.064504 -10.779490 1.313185 1690649
1.007307 -11.187383 0.104562 1690649
0.553341 -10.909910 1.066973 1690649
0.836079 -11.120577 0.263401 1690649
0.409262 -10.927929 0.947739 1690649
0.758726 -11.184629 0.466862 1690649
1.143089 -10.713898 0.695951 1690649
0.469002 -10.811099 1.865501 1690649
0.677351 -10.785881 0.224996 1690649
0.906731 -10.930939 0.477220 1690649
1.107070 -11.220211 0.893064 1690649
0.353873 -10.732285 1.414384 1690649
0.529941 -10.829343 1.515902 1690649
0.590916 -10.915605 0.332802 1690649
0.973780 -11.210746 1.461047 1690649
0.681841 -10.957746 0.509480 1690649
0.995074 -11.063512 1.341730 1690649
0.891876 -10.683619 0.187405 1690649
0.409917 -10.930366 0.650212 1690649
1.168224 -11.006653 0.755677 1690649
1.078768 -10.776964 1.278353 1690649
0.672754 -10.811915 0.910034 1690649
0.478607 -10.916711 0.636862 1690649
1.177749 -10.744152 1.213614 1690649
0.834875 -11.029479 1.299569 1690649
0.600302 -10.789038 1.666680 1690649
0.802040 -10.488984 1.197855 1690649
1.172903 -10.878775 1.267213 1690649
0.975057 -11.109087 0.508381 1690649
0.555676 -10.901979 1.007455 1690649
0.838940 -10.882827 1.195150 1690649
0.935177 -11.008919 0.706994 1690649
-4.373881 7.187426 0.473131 10053171
-5.963367 7.080642 0.420284 10053171
-4.435570 6.979810 2.349797 10053171
-5.162385 7.159036 2.903410 10053171
-3.849303 7.004418 0.285210 10053171
-6.695611 6.760016 2.475688 10053171
-4.113381 7.161536 2.561662 10053171
-3.166337 6.954750 1.347612 10053171
-4.387048 6.985443 0.507487 10053171
-3.499320 7.196088 2.570983 10053171
-3.695247 7.188324 2.495365 10053171
-3.253206 6.972279 0.843866 10053171
-4.009467 7.057033 0.166801 10053171
-4.971169 6.819057 1.158643 10053171
-6.819618 6.965419 0.184461 10053171
-4.596993 7.116595 2.181315 10053171
-6.429897 6.997005 1.209290 10053171
-4.650222 6.949479 0.438576 10053171
-6.900251 6.759366 2.811720 10053171
-6.317474 7.213323 2.882619 10053171
-6.073852 7.048633 0.744474 10053171
-6.143493 6.787254 2.813325 10053171
-3.733436 6.851677 2.231142 10053171
-4.816686 7.059752 2.499236 10053171
-6.589697 7.006144 2.651401 10053171
-6.061126 7.143505 1.112114 10053171
-3.401392 7.153224 1.454921 10053171
-4.610427 6.965569 1.352815 10053171
-6.011348 7.233171 2.388514 10053171
-6.650933 7.023087 2.941282 10053171
-6.858145 7.068729 1.135404 10053171
-5.987937 6.757983 0.159772 10053171
-6.140924 7.042648 1.957377 10053171
-3.871236 6.956594 0.593585 10053171
-4.707407 7.147380 0.114519 10053171
-5.892319 7.164589 2.074573 10053171
-4.816240 6.963908 1.402459 10053171
-5.494380 7.211633 2.741147 10053171
-5.058939 6.757815 1.316639 10053171
-6.157350 6.944303 2.558412 10053171
-4.470842 6.926069 2.109606 10053171
-4.119401 7.116063 1.117341 10053171
-3.863219 6.757986 0.894715 10053171
-4.714337 6.939768 2.251995 10053171
-5.543808 6.943415 0.641417 10053171
-3.813932 7.048592 1.152331 10053171
-3.480610 7.064467 2.124592 10053171
-4.291251 7.192707 0.696257 10053171
-4.125576 7.234116 2.543108 10053171
-5.285807 6.970655 1.625625 10053171
-6.773330 7.052715 2.618322 10053171
-5.667908 6.977120 1.188841 10053171
-5.754670 6.859046 2.771684 10053171
-3.549596 6.863165 2.685826 10053171
-3.062328 6.889617 0.625032 10053171
-5.047828 7.032948 2.151717 10053171
-3.494924 7.077928 0.795214 10053171
-5.444163 7.046452 1.631383 10053171
-3.342551 7.074681 2.177443 10053171
-6.459982 7.168454 0.020214 10053171
-6.376222 6.762346 2.576480 10053171
-4.380517 6.958089 2.938805 10053171
-6.327067 6.949104 0.884735 10053171
-3.772076 7.181482 1.054802 10053171
-3.561399 7.057507 2.656963 10053171
-4.170142 6.929152 2.116320 10053171
-6.336007 6.811048 1.064990 10053171
-3.773414 7.019688 1.919529 10053171
-3.902838 7.059820 1.216499 10053171
-5.451370 7.201786 0.713471 10053171
-5.916677 6.957582 2.508556 10053171
-3.289438 6.910518 1.515110 10053171
-6.812515 6.757304 2.293418 10053171
-3.716653 6.994873 0.999927 10053171
-6.508257 7.212471 1.585780 10053171
-5.284810 6.989455 0.867776 10053171
-6.501519 6.891249 0.451785 10053171
-4.534225 7.093887 2.296720 10053171
-6.741226 7.178944 1.138486 10053171
-4.027054 6.884698 0.260961 10053171
-5.781507 7.222473 0.706822 10053171
-6.952871 7.070721 2.928633 10053171
-3.130412 7.084409 2.165620 10053171
-4.140195 7.098407 0.042042 10053171
-4.438351 7.171000 1.346674 10053171
-6.602151 7.227059 0.416375 10053171
-5.839400 6.881311 0.160267 10053171
-3.244648 6.868936 0.157744 10053171
-6.531217 6.934240 1.329970 10053171
-5.963451 6.846790 0.010204 10053171
-5.447151 7.037955 1.776713 10053171
-6.384960 6.998358 2.956295 10053171
-6.076395 6.846176 2.942568 10053171
-4.220051 7.206061 1.416542 10053171
-4.290762 7.109848 2.204160 10053171
-3.907918 7.189669 2.378538 10053171
-5.690480 7.208866 0.386945 10053171
-5.342179 6.906842 0.470792 10053171
-3.332542 6.966742 0.979913 10053171
-6.883604 6.956182 0.247045 10053171
-4.487236 6.806537 1.766095 10053171
-6.246254 7.211349 1.537549 10053171
-3.841279 7.192584 0.863202 10053171
-3.792312 6.966279 2.097796 10053171
-4.806620 7.133389 1.235028 10053171
-5.650459 7.246569 1.581143 10053171
-4.215373 6.983202 0.418562 10053171
-5.516495 7.218164 0.318246 10053171
-3.277382 7.079926 0.146669 10053171
-5.104632 6.787538 1.794190 10053171
-5.620296 7.049262 2.630136 10053171
-5.441760 6.882011 2.389616 10053171
-4.467822 6.919917 0.682422 10053171
-4.784822 6.944153 2.332291 10053171
-6.486328 6.966890 1.184454 10053171
-5.732883 6.778126 1.371211 10053171
-4.572753 6.923323 1.787238 10053171
-4.041275 7.067850 2.551218 10053171
-3.326011 7.017992 0.197769 10053171
-4.648958 6.750659 1.417997 10053171
-3.788413 7.209943 0.843969 10053171
-5.189279 6.840308 0.220413 10053171
-6.429931 6.756507 0.309380 10053171
-5.588315 7.008991 0.818620 10053171
-3.138677 7.169556 1.560779 10053171
-5.374754 7.059547 2.732371 10053171
-5.317550 6.924814 2.704851 10053171
-4.389161 6.905014 0.754787 10053171
-6.979545 7.115533 2.667983 10053171
-4.284921 7.039420 2.894144 10053171
-4.853654 6.982466 0.239944 10053171
-6.469012 6.902503 2.238871 10053171
-5.347423 6.906218 1.744361 10053171
-5.244287 7.049711 1.639322 10053171
-4.652095 6.825746 0.829309 10053171
-3.267230 6.835876 0.436061 10053171
-4.002352 6.963996 1.212259 10053171
-3.770711 7.226707 0.768374 10053171
-5.098249 7.044441 2.758995 10053171
-4.754331 7.183430 1.083594 10053171
-5.655390 6.785137 2.561859 10053171
-5.415005 7.173049 2.286005 10053171
-6.060438 7.003953 2.980620 10053171
-3.695809 6.931312 1.088501 10053171
-4.234526 7.096732 2.739242 10053171
-5.922151 7.054924 0.644683 10053171
-4.950593 6.813816 2.307848 10053171
-3.937464 6.821031 1.371293 10053171
-5.999652 7.221297 1.730920 10053171
-3.618001 7.204277 0.398472 10053171
-5.877929 6.941435 2.274194 10053171
-6.563430 6.889947 1.766615 10053171
-4.770672 6.798487 2.785003 10053171
-6.490472 7.171337 1.207886 10053171
-3.580662 7.002101 1.079127 10053171
-6.252346 6.836843 1.530251 10053171
-3.041908 6.860803 1.551125 10053171
-6.408544 7.231091 0.950654 10053171
-4.770164 6.986329 1.227528 10053171
-6.393298 7.081491 0.924948 10053171
-6.878547 6.878244 2.254865 10053171
-3.711445 7.220386 1.814698 10053171
-4.202025 7.164329 0.808991 10053171
-6.322221 6.780139 2.934294 10053171
-3.044172 6.753977 2.272614 10053171
-6.438124 6.921597 1.499090 10053171
-6.297272 7.004358 0.987462 10053171
-5.134360 6.775643 1.208024 10053171
-3.955269 7.171225 0.932481 10053171
-6.421033 7.066479 0.841260 10053171
-6.239528 6.757606 2.099002 10053171
-3.514406 7.044008 0.962834 10053171
-5.314797 6.981100 2.291527 10053171
-4.502328 6.767282 0.623260 10053171
-5.574843 7.226008 0.170931 10053171
-3.600270 6.917825 1.843560 10053171
-6.997741 7.176018 2.108929 10053171
-6.178513 7.173190 1.951943 10053171
-4.699494 6.903776 0.448161 10053171
-5.556783 6.951647 1.745228 10053171
-6.751029 6.779923 1.263701 10053171
-5.555299 6.811363 1.492649 10053171
-6.415543 6.882348 2.038433 10053171
-5.989812 6.779974 1.061209 10053171
-5.760023 6.773766 2.058196 10053171
-5.564087 6.808832 1.558607 10053171
-3.383084 7.061467 2.640353 10053171
-5.054731 7.036956 0.377335 10053171
-4.210745 7.162410 0.546973 10053171
-5.057415 7.138081 0.835842 10053171
-6.399091 6.896193 2.847533 10053171
-6.862475 6.828727 2.547594 10053171
-6.708498 6.752824 0.424202 10053171
-3.228373 7.092174 1.581535 10053171
-6.026156 6.754232 2.589275 10053171
-4.058147 6.924637 1.552401 10053171
-6.709699 7.217476 0.620360 10053171
-6.911695 6.948103 2.971160 10053171
-4.464156 6.919969 1.936794 10053171
-4.892625 7.078628 2.528323 10053171
-3.969532 7.103652 0.806650 10053171
-4.129621 7.232467 0.502222 10053171
-3.923161 6.792266 1.127633 10053171
-3.473400 7.216412 2.484063 10053171
-3.386095 7.190801 0.189548 10053171
-3.163199 6.789179 0.468395 10053171
-4.787201 7.197411 1.088961 10053171
-6.914472 7.107607 0.564882 10053171
-6.267631 6.753398 1.890602 10053171
-6.638765 6.947590 0.597097 10053171
-6.360726 7.165223 1.733719 10053171
-6.415834 6.826223 1.135471 10053171
-4.970088 6.845328 0.309121 10053171
-5.305183 7.046772 1.113215 10053171
-6.023895 7.075265 1.276794 10053171
-3.184721 7.014321 2.074804 10053171
-4.514638 6.916125 0.166371 10053171
-6.041543 6.835513 0.168625 10053171
-3.644934 7.151860 0.319719 10053171
-3.330339 7.194164 2.598790 10053171
-4.032029 6.918875 2.678441 10053171
-4.123072 6.847316 2.985968 10053171
-5.531598 7.108868 1.935433 10053171
-4.350353 7.166719 0.751985 10053171
-4.261623 6.945514 0.592968 10053171
-3.625062 7.155303 0.621920 10053171
-3.744812 6.945951 0.915113 10053171
-4.650622 7.019840 0.610291 10053171
-4.192834 6.917523 0.208820 10053171
-6.550856 6.793290 2.355339 10053171
-4.728609 7.171510 0.509587 10053171
-5.160555 6.978265 1.464155 10053171
-6.445961 7.245052 1.336325 10053171
-6.974113 7.010451 2.102349 10053171
-6.599594 7.237422 1.466767 10053171
-5.022839 7.137227 2.898601 10053171
-4.731213 6.845665 0.737520 10053171
-4.304822 6.923060 1.314085 10053171
-5.447572 6.792334 2.063878 10053171
-3.996500 6.758395 2.816380 10053171
-5.955447 7.024347 1.395623 10053171
-6.753994 6.764599 0.269573 10053171
-3.282511 7.154074 2.705565 10053171
-5.096746 7.064526 1.751310 10053171
-5.857569 7.168488 0.522938 10053171
-6.229930 6.884386 1.051420 10053171
-6.957743 7.070843 1.646429 10053171
-5.760172 7.217379 2.555399 10053171
-6.219075 6.933189 2.037634 10053171
-3.776332 6.958438 1.354931 10053171
-5.701292 7.167128 0.873787 10053171
-3.110972 6.808718 0.986428 10053171
-3.913406 6.843682 1.116635 10053171
-5.342477 7.183363 1.632518 10053171
-3.505928 6.769856 0.861583 10053171
-4.679540 7.234515 1.557407 10053171
-3.654812 7.005530 2.201797 10053171
-4.589133 7.122721 2.689226 10053171
-4.915738 7.100668 2.094729 10053171
-6.918602 6.798251 2.390758 10053171
-3.427204 7.124772 0.850515 10053171
-5.527649 7.074689 2.918405 10053171
-4.827098 6.932835 0.674588 10053171
-4.590621 7.003525 2.165562 10053171
-6.923165 7.039506 2.214209 10053171
-3.664153 6.867548 1.228732 10053171
-4.328762 6.911461 0.853950 10053171
-6.435787 6.774530 2.062490 10053171
-6.032781 6.780599 2.067698 10053171
-4.837591 6.761511 0.941962 10053171
-3.722547 6.845201 0.009849 10053171
-4.865015 7.122635 2.494118 10053171
-3.744836 7.018664 2.480472 10053171
-5.185310 7.085894 1.526208 10053171
-6.234535 6.850903 1.582080 10053171
-6.660875 7.177006 2.917079 10053171
-3.947237 6.924088 0.928237 10053171
-6.230981 7.040712 0.949074 10053171
-4.901736 7.172766 1.518993 10053171
-3.280651 7.207544 0.919588 10053171
-6.353498 7.083300 1.850626 10053171
-5.682496 6.805417 1.329239 10053171
-3.571338 6.912592 0.429995 10053171
-5.632493 6.791584 2.112082 10053171
-4.279476 7.249742 0.442576 10053171
-3.215074 7.006934 1.428057 10053171
-3.104514 6.946654 1.830198 10053171
-4.072115 6.748264 0.922729 10053171
-4.289114 7.193836 1.329268 10053171
-3.079347 6.864927 0.305838 10053171
-4.010003 7.116173 1.437460 10053171
-5.430911 6.908652 1.075802 10053171
-3.986218 6.956887 0.361467 10053171
-3.795762 6.941890 0.155365 10053171
-5.721217 7.244475 1.848282 10053171
-5.667519 7.195193 1.787390 10053171
-6.052337 6.766163 2.366522 10053171
-3.610574 6.945383 0.809211 10053171
-5.218371 7.121993 1.181301 10053171
-5.129221 6.835826 2.483425 10053171
-4.294127 7.199468 0.639744 10053171
-6.970837 7.202841 0.063225 10053171
-4.023736 6.781527 1.105274 10053171
-4.055363 6.807431 1.837522 10053171
-5.425808 6.861474 2.735303 10053171
-3.289100 7.033017 1.533913 10053171
-3.317129 7.211205 -0.003674 10053171
-3.211502 6.821544 1.510041 10053171
-4.647096 6.965281 1.532200 10053171
-4.954558 6.838802 0.154006 10053171
-6.802331 6.851845 1.579883 10053171
-5.544894 6.914242 0.131357 10053171
-6.916960 6.928713 1.428371 10053171
-4.180140 6.770099 1.306401 10053171
-6.393809 6.898457 0.240191 10053171
-3.363241 6.743815 2.827278 10053171
-4.101992 6.776758 1.415940 10053171
-4.733850 6.835936 1.920831 10053171
-6.161504 6.775752 0.133077 10053171
-5.190726 7.136864 1.850370 10053171
-6.274638 7.111991 2.239067 10053171
-5.142001 7.084353 1.389801 10053171
-6.463900 6.930052 1.303564 10053171
-5.470472 7.077743 0.272371 10053171
-4.933846 7.177155 1.798612 10053171
-3.862858 6.977458 1.637721 10053171
-5.416783 7.088489 2.722492 10053171
-5.731460 7.058815 2.968257 10053171
-6.835237 7.138357 0.783003 10053171
-4.898937 7.166280 1.126559 10053171
-6.976837 6.943948 0.278060 10053171
-6.749394 6.968602 1.046243 10053171
-4.318077 6.783472 1.931260 10053171
-4.010571 7.155167 0.078672 10053171
-3.124190 7.050457 1.329720 10053171
-3.871312 7.021624 0.413989 10053171
-3.110307 6.766816 1.710801 10053171
-3.477675 6.839859 0.322950 10053171
-6.636164 7.087340 1.218300 10053171
-4.078518 7.110058 0.738054 10053171
-3.789561 7.007978 2.073350 10053171
-3.786238 7.020307 1.237438 10053171
-4.628393 7.128009 2.684708 10053171
-4.600732 7.229882 2.336488 10053171
-6.241752 7.144533 0.868572 10053171
-3.119924 6.910301 0.030027 10053171
-4.389786 6.748484 0.504917 10053171
-5.180048 7.018943 2.841336 10053171
-5.313627 7.003587 2.505512 10053171
-3.662355 7.228666 1.062586 10053171
-4.830173 6.788534 0.070719 10053171
-4.733743 7.124619 0.920777 10053171
-4.090391 6.857269 1.519865 10053171
-3.559163 6.969454 0.961683 10053171
-6.969846 7.109866 0.910442 10053171
-3.895546 6.925491 1.358518 10053171
-3.579367 6.932230 2.728019 10053171
-5.500638 6.824483 2.597166 10053171
-5.421561 6.797902 2.405946 10053171
-3.026927 6.815042 2.933621 10053171
-6.136510 6.829692 2.046617 10053171
-4.426535 7.138860 0.787239 10053171
-4.520782 7.006758 0.705125 10053171
-3.191106 7.222078 2.717990 10053171
-5.892485 7.188188 2.538548 10053171
-4.221942 6.909084 2.129837 10053171
-3.187579 6.931248 0.501399 10053171
-5.004500 6.830876 1.835831 10053171
-3.734380 6.969808 0.099787 10053171
-4.326784 7.199747 0.535557 10053171
-6.194862 6.869761 1.539138 10053171
-3.882277 7.210648 0.578919 10053171
-5.457529 6.779922 1.455537 10053171
-3.217402 6.821462 2.203851 10053171
-3.471170 6.972666 0.312099 10053171
-3.936475 7.250650 2.051574 10053171
-6.184208 7.195967 0.249863 10053171
-6.557643 6.904711 0.516047 10053171
-4.622631 6.882172 1.229077 10053171
-5.121850 6.796246 -0.006107 10053171
-5.448155 6.812136 0.536919 10053171
-3.773744 6.802742 0.408800 10053171
-5.357134 7.223633 0.691958 10053171
-3.180605 7.186052 1.379574 10053171
-4.947101 6.753161 2.558395 10053171
-6.731671 7.136275 1.638793 10053171
-4.802366 6.776268 1.172618 10053171
-4.078714 7.031623 1.648351 10053171
-4.053533 7.019659 1.613811 10053171
-3.509156 6.906803 2.928590 10053171
-4.080551 7.145746 2.897127 10053171
-6.604346 6.908954 1.740456 10053171
-5.197318 7.064266 1.684637 10053171
-5.102449 7.166964 2.162417 10053171
-4.512441 6.866454 0.026501 10053171
-5.342582 6.742739 2.590266 10053171
-5.161617 6.765969 1.352599 10053171
-4.087970 6.908191 0.712367 10053171
-4.403312 7.042351 1.037996 10053171
-5.210887 7.116510 0.701456 10053171
-3.745322 6.764997 1.904420 10053171
-3.655302 7.238334 2.738487 10053171
-3.366828 7.146862 0.994542 10053171
-4.067510 7.204919 2.651574 10053171
-3.090647 7.164101 2.857465 10053171
-3.578333 7.064954 1.650120 10053171
-5.322373 7.121603 0.106331 10053171
-3.910526 6.930365 2.291913 10053171
-6.411709 7.035620 2.553065 10053171
-3.131350 7.086948 2.786955 10053171
-4.855845 7.162741 0.128692 10053171
-5.910795 6.886528 0.157952 10053171
-4.274237 7.046606 0.582820 10053171
-4.624278 7.138484 0.001083 10053171
-6.605259 7.214446 1.375488 10053171
-6.053614 6.917460 0.101609 10053171
-5.834489 6.759733 2.904512 10053171
-4.487641 7.049630 2.818120 10053171
-5.620621 7.198876 2.517761 10053171
-3.104450 6.967363 0.616744 10053171
-5.752879 6.943782 0.610000 10053171
-4.088183 7.112099 1.541294 10053171
-4.700561 6.766234 1.639434 10053171
-4.984572 7.139834 1.227032 10053171
-4.441414 6.956225 0.501894 10053171
-5.285092 7.238750 0.320319 10053171
-3.890454 6.948438 0.843874 10053171
-4.244118 6.934705 2.647988 10053171
-5.251827 7.119447 1.715198 10053171
-3.022148 6.971425 0.265997 10053171
-5.426150 6.847393 1.052507 10053171
-6.581013 7.074740 2.707719 10053171
-5.105905 6.808202 1.643174 10053171
-3.040028 6.905370 0.755781 10053171
-6.582536 6.961253 1.178917 10053171
-3.055872 7.005619 0.169912 10053171
-6.267366 7.247942 1.888463 10053171
-3.688474 6.919156 1.367387 10053171
-4.176143 7.095048 0.203645 10053171
-3.843321 7.149167 1.817851 10053171
-4.173108 7.008378 1.345221 10053171
-3.093474 6.816178 0.734455 10053171
-5.604537 7.220195 0.122416 10053171
-5.667458 6.999494 2.788032 10053171
-4.791851 6.964494 1.816592 10053171
-5.944452 7.180283 2.029093 10053171
-3.332493 7.110060 0.972605 10053171
-6.493811 6.808680 0.742560 10053171
-6.581124 7.060228 1.921826 10053171
-3.718036 6.859331 0.026366 10053171
-4.634211 7.140962 2.044512 10053171
-5.590720 6.771704 2.668773 10053171
-3.978661 7.092244 0.434312 10053171
-3.912821 6.789015 1.636710 10053171
-5.380791 7.016898 0.796142 10053171
-4.844929 6.817419 1.734213 10053171
-5.781131 6.921359 1.087057 10053171
-6.613377 6.854181 0.177950 10053171
-4.510360 6.972434 1.704599 10053171
-3.714808 7.122198 2.794570 10053171
-5.701873 6.865570 0.072225 10053171
-5.668960 7.045361 0.390009 10053171
-4.252437 6.841184 0.857654 10053171
-5.868107 6.849944 2.074178 10053171
-4.910257 6.842097 2.895423 10053171
-3.198790 6.992437 2.014732 10053171
-3.629047 6.901095 1.083927 10053171
-4.782456 7.156901 2.854341 10053171
-4.509748 7.156909 1.472515 10053171
-3.451557 7.089149 1.059229 10053171
-3.140043 7.166440 0.490722 10053171
-5.425814 7.098289 0.819960 10053171
-6.676846 6.983603 2.571756 10053171
-3.292693 6.883294 2.374608 10053171
-5.850120 7.131266 2.069309 10053171
-4.681426 6.929957 1.460710 10053171
-4.299135 6.847819 2.098297 10053171
-3.015141 6.764915 2.457844 10053171
-3.038574 6.990578 1.088330 10053171
-4.371439 7.197128 0.312783 10053171
-5.493733 7.240185 2.292808 10053171
-5.598382 7.109120 1.127310 10053171
-3.862957 6.892962 1.856731 10053171
-4.682231 7.083952 2.927040 10053171
-4.733279 7.171856 2.685216 10053171
-6.276036 7.040870 1.600161 10053171
-3.124304 7.200893 0.321753 10053171
-4.512688 6.871490 2.787705 10053171
-3.046283 6.939209 1.095970 10053171
-4.451394 7.260108 2.841488 10053171
-5.009667 6.905447 2.691527 10053171
-3.225023 6.976720 0.522525 10053171
-5.973551 6.804751 0.803812 10053171
-4.697991 7.151192 0.307570 10053171
-3.015410 7.030440 0.548175 10053171
-5.445349 6.909090 1.100869 10053171
-3.922616 6.795440 0.618504 10053171
-6.066171 6.994614 2.737535 10053171
-3.320820 6.927138 0.548746 10053171
-5.713814 6.767496 2.834514 10053171
-4.198423 6.848829 0.622408 10053171
-6.603650 6.978903 2.948776 10053171
-6.933564 7.232974 2.526429 10053171
-6.920477 7.208306 0.735881 10053171
-5.293267 6.986984 2.456264 10053171
-5.208159 6.940361 1.254527 10053171
-3.151443 7.168679 1.918940 10053171
-6.408662 6.941432 1.721967 10053171
-4.080878 6.859139 0.143065 10053171
-3.497561 6.883546 0.007376 10053171
-6.097473 6.886779 1.886170 10053171
-3.112671 7.082067 0.767558 10053171
-3.560635 7.034385 2.709723 10053171
-4.243063 7.053263 2.642482 10053171
-3.432343 6.898110 2.412902 10053171
-5.107729 6.893983 2.880255 10053171
-4.447794 7.131528 1.067763 10053171
-6.591250 6.824337 2.035554 10053171
-3.848356 6.874049 2.285566 10053171
-3.568965 6.999704 1.061505 10053171
-4.290553 6.775071 0.882328 10053171
-3.860605 7.005524 0.998402 10053171
-5.351576 6.982322 2.067586 10053171
-3.231672 6.848798 0.494916 10053171
-3.415027 7.261991 0.667914 10053171
-6.367497 6.769830 1.200561 10053171
-5.798122 7.250304 1.573758 10053171
-3.806827 6.902165 0.810748 10053171
-6.563790 6.870872 1.601851 10053171
-4.371423 6.793682 0.979376 10053171
-5.666452 6.920886 0.065545 10053171
-4.400170 7.008856 1.198030 10053171
-4.181122 6.901940 2.124419 10053171
-3.269663 7.163339 1.296601 10053171
-3.735329 7.226417 2.663082 10053171
-5.908405 6.816710 0.048998 10053171
-5.678325 6.802246 1.545334 10053171
-4.952364 6.965598 2.460726 10053171
-6.076043 7.049952 1.114619 10053171
-6.764850 7.248756 2.109998 10053171
-5.457249 6.867141 1.241009 10053171
-6.203442 6.923693 2.925231 10053171
-5.538140 6.790939 2.396612 10053171
-4.515216 7.182760 1.537745 10053171
-5.310417 6.890523 0.628644 10053171
-6.025417 7.231648 1.486604 10053171
-3.525699 6.851461 2.527295 10053171
-5.664784 6.956075 2.275532 10053171
-6.065598 6.962822 1.443185 10053171
-6.571520 6.886621 1.231582 10053171
-6.776331 7.058693 2.630785 10053171
-6.569270 6.874043 1.836988 10053171
-6.067825 6.987791 2.774545 10053171
-4.203957 7.181546 2.778445 10053171
-4.914069 7.062170 2.180507 10053171
-4.856505 7.130532 0.057695 10053171
-4.079587 6.871600 1.585125 10053171
-6.985483 7.244533 0.317136 10053171
-5.492827 7.143009 0.027959 10053171
-3.521088 6.803248 0.726258 10053171
-6.087357 6.800939 0.899452 10053171
-3.535222 6.831093 2.844329 10053171
-3.538970 7.179238 0.912350 10053171
-5.202071 6.825746 2.952301 10053171
-6.949181 6.868441 2.325992 10053171
-4.338428 6.853940 0.573943 10053171
-4.561563 6.875267 0.868796 10053171
-3.481364 6.856947 0.307790 10053171
-6.432233 6.989757 1.126682 10053171
-5.283859 7.223819 1.664896 10053171
-4.218924 7.174927 1.717419 10053171
-5.741092 7.133657 0.956152 10053171
-4.624031 6.947841 2.949440 10053171
-5.826744 7.042827 1.041401 10053171
-5.206578 7.138094 0.285160 10053171
-4.814493 6.843905 2.737037 10053171
-3.332516 7.001294 0.797191 10053171
-3.882905 7.029206 1.819188 10053171
-5.784276 7.000586 1.276035 10053171
-3.322929 6.946550 1.644316 10053171
-2.999250 7.232079 0.802543 10053171
-3.201609 7.220791 2.804656 10053171
-3.181474 7.185630 2.302107 10053171
-6.076488 6.922742 2.247808 10053171
-6.832779 7.047386 2.068888 10053171
-4.067439 6.769952 1.131945 10053171
-3.187766 7.218135 1.695006 10053171
-6.935970 7.166146 1.470905 10053171
-4.309792 6.870172 1.117810 10053171
-5.303769 7.033985 0.100649 10053171
-6.788439 7.144002 2.883643 10053171
-4.218842 6.829160 2.436744 10053171
-3.464970 7.031754 2.672676 10053171
-3.094397 6.763997 1.135935 10053171
-3.505000 7.177101 0.553771 10053171
-3.447371 6.937417 2.315310 10053171
-4.125266 7.078311 2.706450 10053171
-3.752352 7.055961 2.904346 10053171
-5.765162 6.933636 0.480526 10053171
-4.743256 7.128268 1.558632 10053171
5.882998 -5.988972 1.146707 8342706
6.119638 -5.726440 1.806730 8342706
5.438231 -6.091079 3.640434 8342706
6.171237 -6.469888 0.562124 8342706
5.456265 -6.213537 3.025377 8342706
6.173950 -6.455293 4.076644 8342706
6.381065 -6.032582 4.898003 8342706
6.198137 -5.615736 0.331049 8342706
6.013325 -6.176068 3.997201 8342706
6.183441 -5.983163 0.475320 8342706
5.580542 -5.670809 2.012405 8342706
6.168484 -6.420365 3.314365 8342706
6.525984 -5.789619 4.828804 8342706
6.064803 -5.627393 2.406501 8342706
6.459024 -5.983833 1.325345 8342706
6.084637 -6.226728 2.950186 8342706
6.521166 -5.880351 0.278419 8342706
6.355158 -6.437121 2.968064 8342706
6.300727 -5.517909 2.216063 8342706
6.456885 -6.366916 2.661387 8342706
6.193756 -6.103976 2.967435 8342706
6.274200 -5.576777 2.039568 8342706
5.636496 -6.293863 3.502692 8342706
5.786192 -5.578678 0.188831 8342706
5.666526 -5.768153 0.532116 8342706
6.505007 -5.791597 1.404139 8342706
6.048025 -5.425524 0.764827 8342706
6.200324 -6.320377 1.490008 8342706
6.429789 -6.159624 1.584545 8342706
6.540274 -6.049794 3.476714 8342706
5.617787 -6.194737 3.374058 8342706
5.852075 -6.202025 4.704265 8342706
5.792040 -5.535096 2.038647 8342706
6.322314 -5.773149 2.901648 8342706
6.275707 -5.923157 3.519466 8342706
5.439542 -6.099547 0.550734 8342706
6.413706 -5.819769 1.994190 8342706
5.909420 -5.792950 1.716625 8342706
5.734311 -5.851345 3.131435 8342706
5.637694 -6.179278 1.853792 8342706
5.798640 -5.532336 0.763698 8342706
6.473333 -6.083407 0.412451 8342706
5.996561 -6.119360 4.296814 8342706
5.590783 -6.197072 4.557882 8342706
5.748281 -5.765225 4.162092 8342706
5.731652 -5.906392 3.110844 8342706
6.033391 -5.972481 1.441897 8342706
6.405566 -6.279368 1.993903 8342706
5.664612 -5.725187 3.089256 8342706
6.279996 -6.089207 3.905601 8342706
5.406558 -6.003154 4.548457 8342706
5.960682 -5.468522 4.500956 8342706
5.493155 -5.967414 3.219409 8342706
6.418005 -5.958037 1.944398 8342706
6.167771 -6.483547 4.294731 8342706
6.391182 -5.860497 1.200319 8342706
5.421167 -5.941228 2.370343 8342706
5.507568 -5.759813 4.323895 8342706
6.422440 -5.990404 2.980160 8342706
6.118400 -5.670837 4.838216 8342706
6.288206 -5.860240 2.119506 8342706
5.803574 -5.454416 2.064848 8342706
5.885369 -6.323672 3.545216 8342706
5.990227 -5.504962 3.491752 8342706
5.764083 -6.035233 4.515459 8342706
5.838844 -6.068940 1.741556 8342706
6.187888 -5.747952 2.009570 8342706
6.169150 -6.284608 1.961426 8342706
5.784202 -6.222964 1.515228 8342706
5.610546 -6.254908 1.055787 8342706
5.845894 -6.372248 1.263734 8342706
5.969533 -5.949093 3.034341 8342706
6.062628 -6.111016 4.766536 8342706
5.805800 -5.797040 0.615542 8342706
5.744392 -6.082232 2.502947 8342706
5.935345 -5.992142 3.140537 8342706
5.484146 -6.200449 1.938657 8342706
6.091374 -5.606001 0.157774 8342706
6.444124 -5.931438 1.233922 8342706
6.565554 -6.066259 3.871229 8342706
6.034189 -6.226422 3.272583 8342706
5.572457 -5.641241 1.966660 8342706
6.094893 -6.308070 4.439786 8342706
6.103196 -5.608324 4.638618 8342706
6.412686 -5.674332 0.216816 8342706
5.970035 -6.162295 2.705313 8342706
6.235946 -5.954032 2.414999 8342706
5.501842 -6.159136 3.681796 8342706
6.032796 -6.320867 2.002795 8342706
5.883594 -6.325106 1.004064 8342706
6.177949 -6.408460 4.435666 8342706
5.552979 -5.917188 3.872304 8342706
5.695649 -6.388400 2.534008 8342706
6.118599 -6.497858 1.408872 8342706
5.840161 -5.878306 4.533765 8342706
5.601537 -5.780400 2.330895 8342706
6.464217 -5.836898 2.617611 8342706
6.110561 -6.424758 0.581784 8342706
5.560731 -6.130619 1.889379 8342706
6.317153 -6.026546 1.867805 8342706
6.570802 -6.060667 3.647853 8342706
5.669525 -6.381436 0.608266 8342706
5.670804 -6.453286 0.799880 8342706
6.238149 -6.010268 2.571196 8342706
5.646949 -6.022900 3.299508 8342706
5.762615 -5.577832 4.708939 8342706
5.761386 -6.228150 4.013027 8342706
5.658703 -5.848459 1.219290 8342706
6.405144 -5.976087 4.433498 8342706
5.830498 -5.626872 3.515762 8342706
6.022434 -5.795635 0.939505 8342706
6.178618 -6.366555 1.762706 8342706
6.151704 -5.784565 1.596798 8342706
5.976494 -5.759008 4.091244 8342706
6.031024 -6.189441 4.585108 8342706
5.789917 -6.147706 0.226342 8342706
5.893395 -5.642539 1.661171 8342706
6.216583 -5.640933 3.845508 8342706
5.717966 -5.965269 3.117114 8342706
5.809298 -6.202609 2.605915 8342706
5.666581 -5.852985 2.899114 8342706
5.617447 -6.227028 3.723484 8342706
5.911318 -6.597269 1.063997 8342706
6.100895 -5.811463 1.669559 8342706
6.282345 -6.329119 0.538312 8342706
6.357363 -5.687924 2.296233 8342706
6.145978 -5.594460 3.086497 8342706
5.666547 -5.689106 1.214085 8342706
6.000567 -5.716854 3.700274 8342706
6.200351 -6.032108 4.391451 8342706
6.503359 -6.116147 2.696413 8342706
6.355969 -6.132800 3.358494 8342706
5.672156 -6.305706 4.686681 8342706
6.280972 -5.525002 4.651136 8342706
5.982734 -6.203096 3.538318 8342706
5.758861 -5.656283 2.599710 8342706
6.054924 -6.568880 4.492765 8342706
5.539033 -5.768795 4.268231 8342706
5.545417 -6.133270 2.897518 8342706
6.131231 -5.635295 2.490520 8342706
5.680831 -5.878346 4.038272 8342706
5.874989 -5.438541 3.061705 8342706
6.490479 -5.816044 0.123034 8342706
6.058512 -5.433889 0.378097 8342706
6.400209 -5.723001 0.077744 8342706
6.030267 -5.764704 0.511423 8342706
5.650862 -5.705452 3.092594 8342706
6.337816 -6.209965 1.506956 8342706
6.136505 -5.813074 2.471139 8342706
5.776149 -6.159659 1.610194 8342706
5.992914 -6.198878 0.130268 8342706
5.852586 -6.035260 3.742931 8342706
5.741142 -6.139495 3.385702 8342706
6.297094 -6.246295 4.575479 8342706
6.334644 -6.452918 3.383337 8342706
6.041971 -6.549957 4.144767 8342706
6.017109 -5.678142 4.227330 8342706
5.694866 -5.634333 4.228751 8342706
6.203592 -5.881325 1.890999 8342706
5.503338 -6.228064 4.657217 8342706
5.910646 -6.333504 4.711665 8342706
6.050211 -6.446335 1.297488 8342706
6.119724 -5.608171 2.038794 8342706
5.951971 -6.202746 1.694727 8342706
6.014803 -6.020647 4.543180 8342706
6.097186 -5.639942 1.132859 8342706
6.120325 -6.304153 1.556274 8342706
5.735124 -5.744278 0.115273 8342706
6.349967 -6.177253 3.025579 8342706
6.108183 -5.582424 2.640406 8342706
6.270131 -5.863517 1.009596 8342706
5.639532 -6.088064 1.920653 8342706
5.718745 -5.678270 2.245870 8342706
5.806004 -5.646404 2.602421 8342706
5.526795 -5.934900 3.591621 8342706
6.018531 -5.843043 1.886384 8342706
5.691992 -5.886005 1.472835 8342706
5.742412 -6.273277 2.819029 8342706
6.008586 -6.297307 4.884170 8342706
5.963607 -6.449350 4.836099 8342706
6.096875 -5.595593 3.848871 8342706
5.631494 -5.564374 1.998240 8342706
6.524015 -6.035484 4.245606 8342706
5.665080 -5.589931 1.925913 8342706
6.095879 -6.453322 1.661009 8342706
5.594138 -6.224354 1.852662 8342706
6.333808 -5.906526 3.487744 8342706
6.471928 -5.831646 3.819986 8342706
6.460261 -6.110627 3.861292 8342706
6.133500 -5.856344 3.355121 8342706
6.140450 -6.406471 1.011256 8342706
5.671591 -6.137515 3.338612 8342706
6.506350 -6.305436 0.143678 8342706
6.398019 -6.086594 4.934506 8342706
5.436066 -5.894286 3.789900 8342706
6.487536 -6.033033 0.223240 8342706
6.246797 -5.652348 3.726438 8342706
6.112121 -6.011226 2.477785 8342706
6.268785 -5.978530 0.681194 8342706
6.429657 -5.965607 2.429096 8342706
6.081295 -6.519312 2.799405 8342706
6.412410 -6.087239 1.385999 8342706
6.211035 -5.650730 1.092907 8342706
6.248881 -5.581231 4.325236 8342706
6.168871 -6.458282 0.722055 8342706
5.638639 -6.062876 3.168129 8342706
6.533474 -5.814462 1.097224 8342706
6.159061 -5.774477 2.588613 8342706
5.988562 -6.087029 2.549842 8342706
6.369087 -5.681474 1.830655 8342706
5.968771 -6.105779 3.868043 8342706
6.500209 -6.007139 1.569231 8342706
5.496897 -6.280774 0.723205 8342706
5.797037 -6.348832 4.994962 8342706
6.473239 -5.767065 3.970606 8342706
6.225506 -6.030441 0.120948 8342706
6.271965 -5.832570 3.588379 8342706
6.471201 -6.081221 4.557769 8342706
5.913756 -6.057248 3.125047 8342706
6.378005 -6.255650 1.756589 8342706
6.040992 -5.450047 1.997041 8342706
5.405617 -5.960239 4.240629 8342706
6.081573 -6.075084 2.972293 8342706
6.270724 -5.942713 3.254003 8342706
5.656914 -6.178131 3.361518 8342706
6.143083 -6.363535 4.415284 8342706
6.096301 -5.514469 4.121067 8342706
5.907474 -5.846357 2.930065 8342706
5.427461 -6.110769 2.054563 8342706
6.299764 -6.419555 4.884756 8342706
5.650684 -6.386283 2.923171 8342706
6.316743 -6.346825 2.366753 8342706
6.428199 -5.808745 1.048281 8342706
6.460147 -5.876776 2.265785 8342706
5.980123 -5.523243 2.065082 8342706
6.235203 -5.760817 0.475270 8342706
5.888397 -6.273637 1.558884 8342706
6.387533 -5.760773 2.439595 8342706
6.375121 -5.535996 4.089741 8342706
6.480355 -6.176702 1.488019 8342706
6.159135 -5.816713 3.257759 8342706
5.713324 -6.406018 3.096518 8342706
6.281985 -5.523138 4.484882 8342706
6.029725 -5.900318 0.782338 8342706
5.597082 -6.368671 4.415367 8342706
5.605614 -5.739859 4.281538 8342706
6.211033 -5.825939 1.387737 8342706
5.752700 -5.792372 1.070816 8342706
5.874615 -6.088147 0.609826 8342706
6.172919 -5.451061 1.194202 8342706
6.272441 -5.533969 1.148453 8342706
5.653137 -6.264094 4.274397 8342706
5.926925 -6.047844 4.937803 8342706
6.209718 -5.563307 3.764388 8342706
5.673882 -6.045332 4.265689 8342706
6.091486 -6.567599 4.272398 8342706
5.714422 -5.713072 3.969627 8342706
5.555573 -6.098818 3.765100 8342706
6.216610 -6.404614 1.020772 8342706
6.561447 -5.971053 0.481337 8342706
6.011941 -5.535426 2.919313 8342706
6.206139 -6.400661 1.639957 8342706
5.503290 -6.227136 3.917870 8342706
5.617260 -6.448311 2.808949 8342706
5.776303 -5.472568 2.247657 8342706
6.517159 -6.233062 2.085469 8342706
6.059906 -6.369767 0.536164 8342706
5.440843 -5.865039 2.592294 8342706
5.830519 -5.663201 2.537011 8342706
6.298944 -6.073559 0.231156 8342706
6.062627 -5.618730 4.371498 8342706
6.511366 -6.290262 4.415789 8342706
5.799146 -6.379346 4.415136 8342706
5.458520 -5.797024 4.319688 8342706
5.944873 -5.497884 1.520886 8342706
6.541876 -6.213851 4.014671 8342706
6.390758 -6.175258 1.413790 8342706
5.828032 -6.167886 3.754257 8342706
6.085927 -6.345443 1.918924 8342706
5.546013 -5.629304 3.369831 8342706
5.800744 -6.461976 3.539505 8342706
5.515532 -5.683231 3.913926 8342706
6.154514 -5.564604 0.033294 8342706
6.349622 -5.973674 2.629874 8342706
6.393331 -6.091328 1.751917 8342706
5.786848 -5.791318 3.219841 8342706
6.018604 -5.827754 3.165367 8342706
6.305298 -6.067215 2.025421 8342706
6.370625 -5.822494 2.204829 8342706
6.053316 -5.815032 0.096439 8342706
5.815726 -6.079685 0.098129 8342706
6.201025 -6.462828 0.874977 8342706
6.314442 -6.466722 0.731765 8342706
6.156750 -6.346103 4.232042 8342706
5.870787 -6.511902 1.796775 8342706
5.653141 -5.911218 0.986660 8342706
5.778110 -5.685207 2.704940 8342706
6.201808 -5.741466 0.408678 8342706
6.088991 -5.424779 2.091378 8342706
5.999733 -6.513692 1.087270 8342706
6.259233 -5.553655 1.283418 8342706
6.453001 -5.666334 3.607804 8342706
6.478367 -6.251819 0.328238 8342706
5.768137 -5.913407 4.014661 8342706
6.165016 -6.104633 1.745076 8342706
6.110310 -6.222563 3.227675 8342706
5.595614 -6.257071 3.713424 8342706
6.534474 -6.136757 1.849568 8342706
6.273418 -6.214375 1.703640 8342706
5.556637 -5.797458 2.471894 8342706
6.372983 -6.384205 2.028111 8342706
6.123522 -6.212725 3.577858 8342706
6.161837 -6.554245 4.300353 8342706
6.432949 -6.394300 3.697755 8342706
6.125111 -5.546473 2.033527 8342706
6.095619 -5.470027 0.900540 8342706
6.156423 -6.426409 1.143368 8342706
5.664715 -6.074421 0.138386 8342706
5.856596 -5.600590 2.631935 8342706
5.808313 -6.393240 2.634614 8342706
6.091012 -5.470411 3.488193 8342706
5.759285 -6.277572 3.379773 8342706
6.306458 -6.324923 1.092343 8342706
5.813194 -6.542038 4.753440 8342706
6.250950 -5.657027 4.912416 8342706
5.994694 -6.459397 1.858967 8342706
5.664942 -5.786674 0.296923 8342706
6.293900 -5.537035 4.302227 8342706
5.610672 -5.845892 4.361869 8342706
6.207063 -5.584199 0.490128 8342706
6.277623 -6.369526 4.029181 8342706
6.194031 -6.543964 0.568975 8342706
6.192783 -5.835284 1.025035 8342706
6.435860 -6.151597 2.775618 8342706
6.037725 -6.414822 3.746501 8342706
5.997746 -5.518541 2.056880 8342706
6.453417 -6.180995 3.316254 8342706
6.103905 -5.437471 0.235888 8342706
5.485330 -5.707568 4.404218 8342706
6.171797 -6.341073 1.654037 8342706
6.425725 -5.594306 1.846438 8342706
5.851482 -6.100660 0.909236 8342706
6.349837 -5.603009 3.698558 8342706
5.627496 -6.149417 3.739106 8342706
6.517736 -5.899645 1.183408 8342706
5.714977 -6.024626 2.429759 8342706
6.242796 -6.346109 2.947699 8342706
5.702983 -6.376180 4.098608 8342706
6.044419 -6.280320 3.876511 8342706
6.388641 -5.540520 4.942782 8342706
6.523348 -6.267134 4.662146 8342706
6.018766 -5.948863 3.886975 8342706
6.170712 -6.370305 4.344224 8342706
5.727491 -6.197160 2.011429 8342706
6.456770 -5.872240 2.121561 8342706
6.445296 -5.983052 2.200267 8342706
5.861379 -5.431108 1.047254 8342706
6.483396 -5.786636 0.287843 8342706
5.853948 -5.462362 1.377456 8342706
6.219187 -5.692968 4.852252 8342706
5.960131 -5.636447 1.252043 8342706
6.490171 -5.807484 2.265481 8342706
5.786962 -6.217733 3.684611 8342706
6.272188 -6.196760 1.520895 8342706
5.962417 -6.399140 3.974021 8342706
6.006881 -5.821307 2.289434 8342706
6.168476 -6.041732 4.118425 8342706
6.155496 -6.401993 4.339025 8342706
6.285030 -5.586267 4.767585 8342706
6.347533 -5.830966 3.604290 8342706
5.991496 -5.811503 3.153514 8342706
6.531974 -5.878617 3.054412 8342706
6.268691 -5.864841 2.833810 8342706
6.307204 -6.328907 1.988547 8342706
5.750683 -5.708854 3.635474 8342706
5.714337 -5.705672 3.097460 8342706
6.278280 -5.955764 1.449511 8342706
6.394527 -6.202966 1.089332 8342706
5.840588 -5.605719 2.976087 8342706
5.503398 -5.907036 0.116307 8342706
5.635616 -5.654599 0.451384 8342706
5.605146 -5.600841 2.870412 8342706
5.988607 -5.519869 2.130680 8342706
5.540639 -6.102488 1.876722 8342706
6.133469 -5.500749 3.489001 8342706
5.411850 -5.931413 4.590160 8342706
5.451094 -5.802591 2.919339 8342706
6.185699 -6.317298 1.855198 8342706
5.559146 -6.382747 0.869073 8342706
5.894690 -6.526286 1.610597 8342706
6.100356 -6.352373 3.424685 8342706
5.964261 -6.497445 4.605515 8342706
6.333268 -6.179571 0.808421 8342706
6.489823 -6.325779 1.448461 8342706
6.551857 -5.926530 3.412625 8342706
5.571756 -6.078603 1.081566 8342706
6.277442 -6.293906 1.946199 8342706
6.149454 -6.298739 2.947341 8342706
6.061494 -6.521758 4.964728 8342706
5.990484 -6.445287 0.619558 8342706
6.295945 -5.774193 1.753491 8342706
6.393387 -5.951632 1.320759 8342706
6.234698 -6.406292 0.469928 8342706
6.278728 -6.129154 2.892317 8342706
6.472394 -6.137383 0.074082 8342706
6.089557 -5.655807 1.230137 8342706
6.473420 -6.275367 4.294978 8342706
6.436697 -5.653856 4.796744 8342706
6.483415 -6.176112 3.634992 8342706
6.335820 -6.330038 1.593490 8342706
5.770667 -6.290848 0.414381 8342706
6.175628 -5.592269 2.702549 8342706
6.207801 -6.032356 3.872548 8342706
6.336568 -5.839130 0.403496 8342706
6.193810 -5.858102 3.966545 8342706
5.784019 -6.410344 3.289585 8342706
6.391714 -6.199752 0.009465 8342706
6.354796 -5.741016 1.366724 8342706
6.264298 -6.014499 4.225160 8342706
6.353246 -6.057574 2.043531 8342706
5.757975 -5.575593 4.376312 8342706
5.823943 -6.015022 0.856622 8342706
6.033457 -5.720281 4.178720 8342706
5.499569 -5.717748 3.978171 8342706
6.459937 -6.121264 1.760771 8342706
6.282742 -6.440455 1.710537 8342706
6.265121 -6.216124 4.642615 8342706
5.544126 -6.323340 1.251182 8342706
6.011447 -6.225548 3.471881 8342706
6.239783 -5.570127 3.790508 8342706
6.037614 -6.579927 3.672700 8342706
5.946153 -6.024017 1.747711 8342706
5.795526 -5.648860 2.737341 8342706
6.183669 -6.320530 0.921339 8342706
6.172696 -5.982144 3.885804 8342706
6.126063 -6.314683 1.963814 8342706
5.738684 -6.148101 1.028529 8342706
6.565840 -6.010160 1.746032 8342706
5.730390 -6.110184 4.323486 8342706
6.468127 -5.787521 1.039228 8342706
5.566296 -5.877257 0.793752 8342706
6.314594 -6.018348 4.996838 8342706
6.188073 -6.560770 4.109566 8342706
6.093776 -6.408597 4.704719 8342706
6.010118 -5.817704 1.380748 8342706
6.507993 -6.170201 4.994921 8342706
6.148777 -6.066983 1.681570 8342706
5.823006 -5.965447 2.081513 8342706
5.719540 -5.954164 3.030229 8342706
6.507115 -6.261907 4.107283 8342706
5.489718 -5.867553 3.599696 8342706
6.163287 -6.062500 0.973907 8342706
5.878401 -6.276507 1.906134 8342706
5.955172 -5.644983 2.398654 8342706
6.325499 -6.272766 0.098087 8342706
5.815450 -5.583158 4.561920 8342706
5.995193 -5.482974 4.049871 8342706
5.793149 -5.437745 3.549495 8342706
6.391920 -6.339592 1.551713 8342706
5.498031 -6.024005 4.733418 8342706
6.054987 -6.520923 0.109903 8342706
6.532264 -5.958285 1.496116 8342706
6.352185 -5.564353 3.366587 8342706
5.781433 -5.893838 0.826803 8342706
5.987058 -5.985165 0.876542 8342706
5.626620 -5.924771 2.208481 8342706
5.724535 -5.636029 2.278084 8342706
5.792366 -6.102962 3.511164 8342706
6.339661 -5.480649 1.112885 8342706
5.643890 -5.777164 4.820525 8342706
5.889317 -5.799522 0.091430 8342706
5.661521 -6.463327 2.449936 8342706
5.860300 -6.457645 3.625974 8342706
6.021561 -6.591834 0.571768 8342706
6.054986 -5.719292 1.740882 8342706
6.091283 -5.889349 1.778877 8342706
6.169184 -5.787327 4.156283 8342706
5.476982 -6.245111 4.958563 8342706
6.561070 -5.864203 2.153450 8342706
6.234423 -6.466568 3.895369 8342706
6.238780 -5.718237 2.521994 8342706
6.211570 -6.387283 2.394624 8342706
6.076732 -5.653903 4.501883 8342706
5.626649 -6.294993 3.473938 8342706
6.006734 -6.463868 2.715758 8342706
6.574824 -6.113376 0.443357 8342706
5.708693 -5.654363 4.814391 8342706
