# .PCD v0.7 - Point Cloud Data file format
VERSION 0.7
FIELDS x y z rgb
SIZE 4 4 4 4
TYPE F F F U
COUNT 1 1 1 1
WIDTH 1304
HEIGHT 1
VIEWPOINT 0 0 0 1 0 0 0
POINTS 1304
DATA ascii
-6.132876 4.486081 1.623306 15014169
-6.252095 5.041253 0.582277 15014169
-6.558485 4.670488 0.639749 15014169
-6.009486 4.568582 1.318097 15014169
-6.322673 4.544323 1.348263 15014169
-6.543314 5.026129 1.605526 15014169
-5.937906 4.711516 0.340723 15014169
-5.884868 4.652613 1.293642 15014169
-6.340573 4.419996 1.495965 15014169
-6.132200 4.969748 1.049401 15014169
-5.975346 5.044761 0.313101 15014169
-6.535046 4.592608 0.490854 15014169
-6.098040 4.707180 1.514785 15014169
-6.465724 4.715145 0.313535 15014169
-6.104400 4.735992 0.499725 15014169
-5.967459 5.053089 0.396687 15014169
-6.573403 4.719779 1.131217 15014169
-6.377935 4.889782 0.600551 15014169
-6.239441 4.793669 0.926155 15014169
-6.489981 4.568602 0.459176 15014169
-6.359155 4.554497 1.040541 15014169
-6.190240 4.704438 0.768205 15014169
-6.182841 5.015089 1.490899 15014169
-6.524918 4.635998 0.874024 15014169
-6.116052 4.904499 0.922904 15014169
-6.294014 4.980254 1.063773 15014169
-5.944745 4.471519 0.816834 15014169
-5.913484 4.906895 1.548617 15014169
-6.416022 4.922683 0.576484 15014169
-6.223475 4.597291 0.914757 15014169
-6.024494 4.628855 1.175330 15014169
-6.288758 5.053599 1.234784 15014169
-6.125664 4.641080 1.023039 15014169
-6.561633 4.489039 1.579431 15014169
-6.540980 5.060240 1.305707 15014169
-6.150790 4.943035 0.484344 15014169
-6.028898 4.927378 1.069982 15014169
-6.253088 4.740641 0.933509 15014169
-6.020252 4.617619 0.376989 15014169
-5.893788 4.720615 1.375157 15014169
-6.105113 4.798804 0.490844 15014169
-6.413155 4.705963 1.071814 15014169
-6.008076 4.633412 0.865055 15014169
-5.973290 4.988113 0.453340 15014169
-6.482357 4.871800 1.087292 15014169
-5.895684 4.944884 1.420858 15014169
-6.418341 4.768312 1.183460 15014169
-6.589755 4.756860 0.934675 15014169
-6.347449 4.593221 1.553773 15014169
-6.563211 4.646554 0.697384 15014169
-5.929618 4.438448 0.936667 15014169
-6.368711 4.895639 1.278471 15014169
-6.118548 5.013084 1.629022 15014169
-6.530882 4.492907 0.352198 15014169
-5.939380 5.113886 0.830586 15014169
-6.520805 4.496676 1.519248 15014169
-6.273062 4.549254 1.189853 15014169
-6.041487 4.733810 0.353350 15014169
-6.323135 5.038002 0.451197 15014169
-6.523444 4.976388 0.510782 15014169
-6.503819 4.589381 0.705584 15014169
-6.344417 4.979342 0.627131 15014169
-6.536323 4.497804 0.795055 15014169
-6.442616 4.995549 1.166632 15014169
-6.375004 5.103939 0.886919 15014169
-5.961047 4.624718 0.757125 15014169
-5.905368 4.455495 1.540971 15014169
-5.905464 4.644151 1.588668 15014169
-5.962558 5.100921 0.467904 15014169
-6.180299 4.963561 1.314271 15014169
-6.012289 4.427811 1.606664 15014169
-6.478831 4.436875 1.664092 15014169
-6.470877 5.003612 0.320628 15014169
-6.574033 4.460515 1.167554 15014169
-6.429307 4.709279 1.641710 15014169
-6.428998 4.572110 0.998296 15014169
-6.395926 4.771463 0.931491 15014169
-6.375921 4.415205 1.359497 15014169
-5.951408 4.673108 0.941583 15014169
-6.543288 4.935600 0.637585 15014169
-6.506099 4.522892 0.582300 15014169
-6.083874 4.729357 1.284827 15014169
-6.480617 4.574423 1.452567 15014169
-6.586804 4.564106 1.474459 15014169
-6.113585 4.618499 1.450615 15014169
-6.477479 4.792575 1.142479 15014169
-5.922345 4.898487 0.783674 15014169
-6.227675 4.602972 1.676055 15014169
-6.312594 4.478287 1.670184 15014169
-5.982206 4.770166 0.345577 15014169
-6.008752 5.051234 1.191875 15014169
-6.391774 5.059848 0.332135 15014169
-6.366508 4.641284 1.483584 15014169
-6.591909 4.866715 1.077435 15014169
-6.362304 4.467454 0.501490 15014169
-6.143023 4.440467 0.392983 15014169
-6.271982 4.786178 0.322985 15014169
-6.215864 4.494941 0.472337 15014169
-6.121848 4.632371 1.394696 15014169
1.278313 -10.266459 0.607489 1690649
1.006991 -10.692209 0.794440 1690649
1.233079 -10.634654 0.734541 1690649
0.670833 -10.733142 1.304173 1690649
1.326972 -10.537170 0.499215 1690649
1.050591 -10.463125 0.587072 1690649
1.265633 -10.549776 1.021218 1690649
1.006924 -10.626415 1.077836 1690649
1.524703 -10.625961 1.302713 1690649
0.845138 -10.574193 0.953673 1690649
1.482381 -10.459133 0.531460 1690649
1.152575 -10.703282 1.773557 1690649
1.070218 -10.939488 0.198376 1690649
0.778291 -10.377415 1.067212 1690649
1.178321 -10.245955 1.026106 1690649
1.289650 -10.894711 1.156150 1690649
1.485111 -10.686082 1.035711 1690649
0.920951 -10.725763 0.572161 1690649
1.250756 -10.459576 1.415632 1690649
1.180489 -10.628876 1.128106 1690649
1.173435 -10.199688 1.720944 1690649
1.177589 -10.944603 1.156347 1690649
0.674437 -10.746700 0.843400 1690649
0.660627 -10.749322 0.888341 1690649
0.812917 -10.203590 1.529220 1690649
1.232660 -10.684006 1.847917 1690649
0.758303 -10.669110 1.420750 1690649
1.250345 -10.257503 1.830304 1690649
1.095864 -10.874467 0.619142 1690649
1.319861 -10.331364 1.234182 1690649
0.908265 -10.224296 1.430174 1690649
0.921348 -10.459209 1.611788 1690649
1.452713 -10.761602 0.970407 1690649
0.904970 -10.455450 0.771247 1690649
1.105740 -10.673367 1.065698 1690649
1.368416 -10.207694 1.077959 1690649
0.674506 -10.548190 0.535491 1690649
1.140942 -10.374994 0.603451 1690649
0.784610 -10.697966 1.259426 1690649
1.115565 -10.310952 1.875854 1690649
1.240386 -10.432714 1.070763 1690649
0.928188 -10.857060 0.342195 1690649
1.205203 -10.399840 1.894058 1690649
1.068564 -10.854074 0.993755 1690649
0.812775 -10.247627 1.897799 1690649
1.299332 -10.727022 1.138251 1690649
1.110625 -10.892144 1.411389 1690649
1.052317 -10.407474 0.994366 1690649
0.952526 -10.160317 1.020812 1690649
1.043745 -10.214820 1.368931 1690649
0.903259 -10.417098 1.233306 1690649
1.250928 -10.133889 0.423396 1690649
1.457037 -10.432920 1.517130 1690649
0.864926 -10.358830 1.036682 1690649
0.686955 -10.712174 1.832944 1690649
1.033237 -10.890512 1.698856 1690649
0.903592 -10.668235 0.817650 1690649
0.928579 -10.403660 0.581200 1690649
1.430233 -10.801185 0.918480 1690649
1.054120 -10.583972 1.448840 1690649
0.717632 -10.571810 0.933463 1690649
1.224616 -10.546848 0.123901 1690649
0.863283 -10.418716 0.198039 1690649
1.120520 -10.929116 0.205167 1690649
1.069591 -10.290538 0.984049 1690649
1.187302 -10.787755 1.737084 1690649
0.903612 -10.833117 1.672066 1690649
1.123359 -11.016076 1.794847 1690649
0.862474 -10.391407 0.225244 1690649
0.774315 -10.700541 0.337693 1690649
0.874317 -10.457427 1.330404 1690649
1.211328 -10.683054 0.636529 1690649
0.915810 -10.802359 1.641585 1690649
1.452763 -10.601304 1.154628 1690649
1.219445 -10.591961 0.096055 1690649
1.066654 -10.193638 1.215796 1690649
1.104794 -10.384604 0.233315 1690649
1.065252 -10.897495 1.111957 1690649
1.402524 -10.583518 0.713654 1690649
1.260341 -10.280850 1.197744 1690649
1.025495 -10.124867 0.225621 1690649
1.046677 -10.766740 0.470211 1690649
1.157511 -10.402134 0.887116 1690649
0.921862 -10.513669 1.769274 1690649
0.738613 -10.440251 0.684273 1690649
1.189697 -10.894547 0.212862 1690649
1.026367 -10.923090 1.473602 1690649
0.883405 -10.834837 0.138937 1690649
1.296606 -10.373478 1.507416 1690649
1.379534 -10.772370 1.255487 1690649
1.097460 -10.259110 1.679856 1690649
1.017458 -10.245574 1.138011 1690649
1.297120 -10.264555 0.747655 1690649
0.873581 -10.636156 0.168490 1690649
0.868998 -10.230906 1.288570 1690649
1.353526 -10.814754 0.582841 1690649
0.879241 -10.430814 1.650690 1690649
0.998186 -10.520085 1.892540 1690649
1.350787 -10.381074 0.497893 1690649
0.962171 -10.767293 1.641870 1690649
0.741308 -10.767722 0.957532 1690649
0.955697 -10.272882 1.718411 1690649
0.950981 -10.807588 1.484330 1690649
0.768784 -10.347394 0.609745 1690649
0.860985 -10.341380 0.133206 1690649
0.762724 -10.881021 1.132263 1690649
0.844514 -10.314259 0.598642 1690649
0.884126 -10.316841 1.053455 1690649
0.727994 -10.774357 0.754545 1690649
0.876473 -10.691825 1.273384 1690649
1.415556 -10.856571 0.141598 1690649
1.089929 -10.134606 1.883278 1690649
1.484568 -10.464164 0.961220 1690649
1.276870 -10.924669 1.817110 1690649
1.450531 -10.466832 1.454189 1690649
1.218324 -10.835861 1.052613 1690649
1.336729 -10.374322 1.369471 1690649
1.110676 -10.875052 1.154749 1690649
1.033874 -10.222180 0.743000 1690649
1.149908 -10.962390 0.140893 1690649
0.691762 -10.623655 0.985570 1690649
0.803489 -10.296969 0.291682 1690649
1.364188 -10.437495 1.330039 1690649
1.318959 -10.864713 0.108221 1690649
0.867307 -10.563840 1.081456 1690649
1.119988 -10.767834 0.246929 1690649
0.710726 -10.612103 0.954902 1690649
1.070734 -10.860322 0.460110 1690649
1.456799 -10.380446 0.698038 1690649
0.784406 -10.437302 1.873633 1690649
0.960495 -10.443928 0.233592 1690649
1.196239 -10.591723 0.448638 1690649
1.396129 -10.861053 0.879795 1690649
0.662053 -10.409733 1.413169 1690649
0.848443 -10.462516 1.512490 1690649
0.906812 -10.550098 0.313558 1690649
1.278704 -10.856337 1.459790 1690649
0.985603 -10.616450 0.513891 1690649
1.286545 -10.695752 1.361764 1690649
1.217317 -10.339776 0.213720 1690649
0.714004 -10.601521 0.665570 1690649
1.488623 -10.684871 0.759464 1690649
1.387687 -10.447769 1.302546 1690649
0.970661 -10.480845 0.907564 1690649
0.780091 -10.584095 0.653591 1690649
1.485731 -10.409055 1.183185 1690649
1.125960 -10.697016 1.303150 1690649
0.918887 -10.464986 1.670814 1690649
1.113202 -10.160493 1.196340 1690649
1.491107 -10.553866 1.258314 1690649
1.301064 -10.763548 0.496530 1690649
0.839899 -10.574429 1.009110 1690649
1.180499 -10.547841 1.223144 1690649
1.257714 -10.659061 0.693001 1690649
-4.361068 7.171465 0.481393 10053171
-5.973754 7.117676 0.418927 10053171
-4.430734 6.980247 2.349000 10053171
-5.181621 7.164253 2.892475 10053171
-3.851775 6.992428 0.299726 10053171
-6.694131 6.758181 2.505149 10053171
-4.113965 7.154525 2.563446 10053171
-3.154991 6.957425 1.339399 10053171
-4.375761 6.982268 0.515859 10053171
-3.508016 7.184826 2.559653 10053171
-3.658920 7.196094 2.489263 10053171
-3.278641 6.970415 0.828328 10053171
-4.003485 7.081412 0.143675 10053171
-4.976664 6.825729 1.166252 10053171
-6.820343 6.982236 0.185852 10053171
-4.594072 7.113359 2.200839 10053171
-6.444282 6.982977 1.206696 10053171
-4.672698 6.935941 0.450324 10053171
-6.896086 6.767187 2.821875 10053171
-6.315444 7.244903 2.884475 10053171
-6.062318 7.064572 0.765587 10053171
-6.153573 6.813784 2.811075 10053171
-3.738698 6.831650 2.255176 10053171
-4.815079 7.054787 2.525760 10053171
-6.574501 6.995451 2.652477 10053171
-6.066378 7.169883 1.107950 10053171
-3.409248 7.142177 1.469930 10053171
-4.597241 6.970563 1.362334 10053171
-6.018647 7.226146 2.385351 10053171
-6.673787 7.017896 2.961102 10053171
-6.879773 7.054436 1.122905 10053171
-5.960450 6.751141 0.138269 10053171
-6.135596 7.037956 1.965124 10053171
-3.869642 6.976023 0.582620 10053171
-4.699947 7.151076 0.126594 10053171
-5.866123 7.163268 2.081764 10053171
-4.856704 6.959309 1.405435 10053171
-5.510975 7.221935 2.732629 10053171
-5.063365 6.773089 1.304859 10053171
-6.171780 6.955268 2.534722 10053171
-4.481483 6.929148 2.118171 10053171
-4.104332 7.092690 1.127780 10053171
-3.875495 6.767316 0.878708 10053171
-4.716556 6.933252 2.235039 10053171
-5.549298 6.947888 0.629871 10053171
-3.802127 7.076440 1.168217 10053171
-3.477731 7.067468 2.125052 10053171
-4.292941 7.171497 0.708856 10053171
-4.133193 7.237691 2.555309 10053171
-5.287158 6.965460 1.633448 10053171
-6.749972 7.071588 2.606632 10053171
-5.661382 6.992556 1.207813 10053171
-5.773589 6.848411 2.794704 10053171
-3.541751 6.849911 2.712539 10053171
-3.076550 6.882924 0.622061 10053171
-5.043042 7.048367 2.164884 10053171
-3.516342 7.052092 0.817765 10053171
-5.449094 7.064608 1.643019 10053171
-3.360911 7.074962 2.185960 10053171
-6.460179 7.193748 0.030386 10053171
-6.385668 6.745780 2.603149 10053171
-4.398155 6.947717 2.937111 10053171
-6.324377 6.950505 0.872609 10053171
-3.758085 7.161211 1.019022 10053171
-3.557587 7.061610 2.688184 10053171
-4.161309 6.935843 2.138785 10053171
-6.350563 6.823129 1.084162 10053171
-3.767410 7.024387 1.929958 10053171
-3.873897 7.068252 1.233389 10053171
-5.420230 7.218164 0.706541 10053171
-5.924173 6.936220 2.522572 10053171
-3.279387 6.940185 1.511695 10053171
-6.794523 6.749982 2.283876 10053171
-3.723312 6.992159 1.007885 10053171
-6.524287 7.217155 1.579546 10053171
-5.283294 7.001271 0.871670 10053171
-6.487445 6.899920 0.460631 10053171
-4.514513 7.080215 2.274282 10053171
-6.738127 7.156208 1.142464 10053171
-4.028689 6.880961 0.250448 10053171
-5.771863 7.217882 0.698222 10053171
-6.956131 7.065232 2.915791 10053171
-3.115994 7.083421 2.189234 10053171
-4.134720 7.086012 0.047996 10053171
-4.450710 7.157910 1.344863 10053171
-6.622760 7.211673 0.422934 10053171
-5.837352 6.841471 0.152512 10053171
-3.238447 6.873847 0.157938 10053171
-6.528741 6.910517 1.328279 10053171
-5.960969 6.844558 0.015675 10053171
-5.455449 7.058529 1.784451 10053171
-6.390146 7.003380 2.947632 10053171
-6.086284 6.844908 2.962997 10053171
-4.241268 7.213032 1.420104 10053171
-4.289433 7.102590 2.207238 10053171
-3.915466 7.201236 2.388572 10053171
-5.681207 7.199516 0.384342 10053171
-5.364257 6.904640 0.433300 10053171
-3.343651 6.961972 1.000312 10053171
-6.888912 6.941291 0.238986 10053171
-4.486156 6.799236 1.801054 10053171
-6.254440 7.226838 1.526952 10053171
-3.844804 7.188901 0.869959 10053171
-3.783227 6.973061 2.079008 10053171
-4.813628 7.142745 1.242459 10053171
-5.642073 7.239767 1.578737 10053171
-4.224983 6.962072 0.422054 10053171
-5.540963 7.191793 0.330713 10053171
-3.265146 7.081078 0.141138 10053171
-5.117788 6.779022 1.788316 10053171
-5.625455 7.053506 2.640879 10053171
-5.443151 6.868978 2.366771 10053171
-4.469633 6.921617 0.679422 10053171
-4.770601 6.938773 2.330610 10053171
-6.493907 6.972014 1.168761 10053171
-5.732157 6.781738 1.376578 10053171
-4.573915 6.929252 1.768941 10053171
-4.039316 7.070959 2.544742 10053171
-3.325057 7.031228 0.175346 10053171
-4.644131 6.756499 1.409776 10053171
-3.781855 7.224151 0.846028 10053171
-5.155507 6.856591 0.244947 10053171
-6.433411 6.773849 0.297197 10053171
-5.574076 7.010128 0.825835 10053171
-3.134478 7.183435 1.549635 10053171
-5.372625 7.072828 2.716259 10053171
-5.336541 6.914375 2.679981 10053171
-4.399043 6.913091 0.769822 10053171
-6.982310 7.123462 2.665982 10053171
-4.273473 7.051134 2.900116 10053171
-4.866363 6.964569 0.221453 10053171
-6.463169 6.910493 2.227465 10053171
-5.336504 6.893163 1.733710 10053171
-5.262117 7.050697 1.624370 10053171
-4.654475 6.852777 0.813349 10053171
-3.282414 6.821906 0.435833 10053171
-3.992499 6.946807 1.213386 10053171
-3.764776 7.223144 0.783749 10053171
-5.109815 7.046872 2.749890 10053171
-4.740188 7.172121 1.078356 10053171
-5.668318 6.785846 2.548562 10053171
-5.406789 7.174669 2.283319 10053171
-6.065711 7.005334 2.980803 10053171
-3.730744 6.920208 1.057867 10053171
-4.242946 7.082922 2.738921 10053171
-5.925886 7.047846 0.653205 10053171
-4.962420 6.807271 2.320296 10053171
-3.920756 6.813916 1.372979 10053171
-6.011768 7.208401 1.738010 10053171
-3.630513 7.214610 0.400522 10053171
-5.849606 6.930284 2.267102 10053171
-6.568214 6.866550 1.732516 10053171
-4.760412 6.794322 2.791303 10053171
-6.485868 7.174179 1.218665 10053171
-3.578971 7.018336 1.092597 10053171
-6.259635 6.824886 1.539350 10053171
-3.009728 6.856280 1.556284 10053171
-6.399467 7.226067 0.956408 10053171
-4.781856 6.976106 1.243264 10053171
-6.400097 7.076261 0.915868 10053171
-6.879123 6.895240 2.256242 10053171
-3.713999 7.222832 1.804227 10053171
-4.236518 7.181583 0.810657 10053171
-6.346488 6.785098 2.937122 10053171
-3.046694 6.778935 2.272602 10053171
-6.414344 6.922749 1.495604 10053171
-6.286836 6.972983 1.000890 10053171
-5.151290 6.788577 1.213359 10053171
-3.962603 7.162669 0.935214 10053171
-6.400087 7.110149 0.844962 10053171
-6.215361 6.748931 2.093444 10053171
-3.513923 7.046283 0.954907 10053171
-5.339210 6.961236 2.340931 10053171
-4.486053 6.764425 0.640065 10053171
-5.559556 7.201466 0.175756 10053171
-3.626343 6.939274 1.805216 10053171
-6.990471 7.159730 2.102644 10053171
-6.185090 7.169857 1.932505 10053171
-4.698307 6.905676 0.448347 10053171
-5.543627 6.955953 1.770395 10053171
-6.765740 6.780530 1.262661 10053171
-5.600300 6.805923 1.496363 10053171
-6.410972 6.871879 2.045979 10053171
-5.974424 6.793551 1.061081 10053171
-5.781268 6.770453 2.065787 10053171
-5.557739 6.802027 1.553012 10053171
-3.380628 7.072810 2.647388 10053171
-5.036297 7.019560 0.357579 10053171
-4.189048 7.196762 0.569599 10053171
-5.058323 7.121905 0.843723 10053171
-6.402791 6.919611 2.854495 10053171
-6.870968 6.827519 2.538780 10053171
-6.720268 6.749010 0.430531 10053171
-3.246781 7.090824 1.583487 10053171
-6.010281 6.755271 2.616551 10053171
-4.065859 6.929147 1.547723 10053171
-6.720855 7.227856 0.619311 10053171
-6.900214 6.946128 2.965710 10053171
-4.468413 6.926228 1.953225 10053171
-4.899182 7.085453 2.552434 10053171
-3.959065 7.123757 0.796671 10053171
-4.149623 7.243084 0.489018 10053171
-3.923641 6.811773 1.133586 10053171
-3.490683 7.215772 2.491693 10053171
-3.396738 7.170282 0.169168 10053171
-3.154847 6.778062 0.456338 10053171
-4.798079 7.220147 1.098914 10053171
-6.915937 7.103262 0.587638 10053171
-6.250041 6.753017 1.870640 10053171
-6.630382 6.937133 0.616021 10053171
-6.346586 7.176172 1.726834 10053171
-6.427422 6.805102 1.135045 10053171
-4.992120 6.815192 0.302051 10053171
-5.283695 7.051997 1.146505 10053171
-5.996177 7.076089 1.250365 10053171
-3.169629 7.002273 2.070348 10053171
-4.518068 6.930061 0.155184 10053171
-6.056870 6.815807 0.151462 10053171
-3.647320 7.145444 0.328143 10053171
-3.328105 7.187937 2.604568 10053171
-3.989501 6.899097 2.659028 10053171
-4.121727 6.842870 2.988256 10053171
-5.527287 7.090756 1.934701 10053171
-4.330065 7.141799 0.725527 10053171
-4.244867 6.938137 0.553319 10053171
-3.613020 7.155782 0.610552 10053171
-3.731444 6.941027 0.909221 10053171
-4.657183 7.027237 0.614690 10053171
-4.180930 6.951884 0.227479 10053171
-6.540812 6.781687 2.357151 10053171
-4.739783 7.141305 0.506583 10053171
-5.169115 6.968342 1.454236 10053171
-6.460363 7.241373 1.328805 10053171
-6.972128 7.027631 2.096323 10053171
-6.601054 7.224649 1.486903 10053171
-5.051852 7.136562 2.870837 10053171
-4.736247 6.847493 0.733082 10053171
-4.286944 6.930019 1.308961 10053171
-5.452519 6.804693 2.064424 10053171
-3.982959 6.770714 2.822628 10053171
-5.937475 7.004797 1.391057 10053171
-6.727030 6.762470 0.255801 10053171
-3.283228 7.151261 2.697819 10053171
-5.110140 7.051708 1.728697 10053171
-5.854983 7.191397 0.494315 10053171
-6.242925 6.878980 1.086610 10053171
-6.958447 7.067010 1.629564 10053171
-5.750334 7.223033 2.543515 10053171
-6.209438 6.938630 2.030835 10053171
-3.785148 6.959757 1.354981 10053171
-5.711735 7.173986 0.881524 10053171
-3.124993 6.795486 0.973274 10053171
-3.914426 6.855252 1.096125 10053171
-5.346876 7.191456 1.630069 10053171
-3.515477 6.761862 0.855438 10053171
-4.670306 7.238425 1.557423 10053171
-3.663797 6.992261 2.188334 10053171
-4.587882 7.113747 2.696829 10053171
-4.898188 7.098628 2.101228 10053171
-6.892754 6.788775 2.382110 10053171
-3.407210 7.101123 0.855924 10053171
-5.547745 7.048568 2.929518 10053171
-4.794638 6.938007 0.682662 10053171
-4.604683 6.999364 2.167568 10053171
-6.922307 7.041118 2.190743 10053171
-3.648133 6.838758 1.224877 10053171
-4.330929 6.920533 0.833148 10053171
-6.424082 6.781750 2.064559 10053171
-6.039359 6.787463 2.059942 10053171
-4.843348 6.762635 0.934259 10053171
-3.726810 6.850078 0.011741 10053171
-4.850545 7.129558 2.477510 10053171
-3.760411 7.010972 2.477884 10053171
-5.168999 7.099196 1.516257 10053171
-6.248190 6.858280 1.612554 10053171
-6.684152 7.180980 2.939992 10053171
-3.931376 6.933608 0.963004 10053171
-6.229220 7.056848 0.952374 10053171
-4.883487 7.154533 1.524257 10053171
-3.268666 7.211257 0.925618 10053171
-6.352193 7.080941 1.842713 10053171
-5.679965 6.807916 1.324368 10053171
-3.573311 6.931046 0.440933 10053171
-5.637304 6.790131 2.100135 10053171
-4.298388 7.233974 0.433833 10053171
-3.200861 6.996082 1.448583 10053171
-3.101132 6.948242 1.803540 10053171
-4.067155 6.752220 0.909427 10053171
-4.267831 7.196869 1.307350 10053171
-3.084217 6.858933 0.287036 10053171
-4.016298 7.137619 1.438245 10053171
-5.400488 6.932707 1.069158 10053171
-3.987743 6.965378 0.369137 10053171
-3.786529 6.943610 0.183806 10053171
-5.728097 7.238061 1.858543 10053171
-5.694542 7.213494 1.795773 10053171
-6.033331 6.744300 2.377886 10053171
-3.612280 6.940432 0.824457 10053171
-5.224158 7.127501 1.186315 10053171
-5.119747 6.856167 2.490197 10053171
-4.296788 7.206828 0.633759 10053171
-6.976408 7.206602 0.068798 10053171
-4.029110 6.807481 1.119051 10053171
-4.048708 6.804220 1.842926 10053171
-5.413075 6.866087 2.723648 10053171
-3.274323 7.061842 1.521494 10053171
-3.327608 7.218884 -0.009667 10053171
-3.215375 6.814308 1.506782 10053171
-4.638515 6.964012 1.567284 10053171
-4.952667 6.833097 0.163630 10053171
-6.812057 6.808677 1.562612 10053171
-5.544091 6.921290 0.139294 10053171
-6.936475 6.907880 1.412386 10053171
-4.205446 6.763740 1.319061 10053171
-6.385371 6.927233 0.228878 10053171
-3.369272 6.767922 2.832240 10053171
-4.110845 6.790293 1.403937 10053171
-4.748954 6.844695 1.935844 10053171
-6.150759 6.787952 0.147545 10053171
-5.203820 7.139907 1.844827 10053171
-6.251143 7.120468 2.253967 10053171
-5.151673 7.087425 1.397728 10053171
-6.449898 6.938648 1.305505 10053171
-5.467737 7.075716 0.271580 10053171
-4.936049 7.187079 1.790383 10053171
-3.849379 6.994630 1.643045 10053171
-5.429932 7.079741 2.720337 10053171
-5.710101 7.045932 2.980464 10053171
-6.839370 7.147119 0.776634 10053171
-4.899640 7.175476 1.123060 10053171
-6.959978 6.931355 0.269202 10053171
-6.727605 6.961251 1.057979 10053171
-4.308152 6.803015 1.941930 10053171
-3.980887 7.171199 0.070037 10053171
-3.128699 7.042029 1.312897 10053171
-3.856160 7.042347 0.425517 10053171
-3.108671 6.752342 1.736170 10053171
-3.459772 6.851669 0.316602 10053171
-6.623553 7.060216 1.217996 10053171
-4.099610 7.131597 0.740806 10053171
-3.796904 7.007584 2.078353 10053171
-3.784872 7.017536 1.254370 10053171
-4.629378 7.137461 2.657664 10053171
-4.597229 7.223814 2.365542 10053171
-6.257392 7.151955 0.871383 10053171
-3.086557 6.900356 0.017089 10053171
-4.404175 6.740251 0.500527 10053171
-5.165038 7.015526 2.860096 10053171
-5.328913 6.975003 2.486893 10053171
-3.679006 7.218379 1.060838 10053171
-4.834834 6.792466 0.077172 10053171
-4.746384 7.131858 0.918023 10053171
-4.084845 6.849670 1.506156 10053171
-3.573710 6.979007 0.961842 10053171
-6.953614 7.119688 0.890852 10053171
-3.908076 6.925636 1.368160 10053171
-3.571149 6.938988 2.715928 10053171
-5.495161 6.819921 2.577570 10053171
-5.412401 6.766106 2.414597 10053171
-3.036849 6.805802 2.941375 10053171
-6.152911 6.823421 2.039422 10053171
-4.439084 7.138100 0.772390 10053171
-4.516768 7.015207 0.706539 10053171
-3.186360 7.217016 2.706971 10053171
-5.870114 7.214605 2.542106 10053171
-4.217397 6.888312 2.137289 10053171
-3.194088 6.940532 0.516781 10053171
-5.009050 6.827489 1.857165 10053171
-3.749582 6.960568 0.111195 10053171
-4.327292 7.235100 0.523681 10053171
-6.178752 6.858726 1.538637 10053171
-3.869875 7.208931 0.593492 10053171
-5.466176 6.782657 1.463202 10053171
-3.229940 6.823088 2.168843 10053171
-3.441696 6.960989 0.329757 10053171
-3.945768 7.234306 2.054281 10053171
-6.154210 7.201132 0.267515 10053171
-6.565114 6.898404 0.526054 10053171
-4.623493 6.897364 1.245686 10053171
-5.139183 6.795639 0.018768 10053171
-5.440313 6.809276 0.521898 10053171
-3.773015 6.789614 0.413666 10053171
-5.347322 7.231138 0.676677 10053171
-3.185167 7.182137 1.378122 10053171
-4.935797 6.749919 2.549406 10053171
-6.741274 7.123465 1.618369 10053171
-4.794621 6.778956 1.168125 10053171
-4.069296 7.032993 1.618916 10053171
-4.082895 7.031041 1.591701 10053171
-3.492659 6.922844 2.921897 10053171
-4.084613 7.145741 2.895527 10053171
-6.605117 6.919884 1.749772 10053171
-5.185242 7.041768 1.677108 10053171
-5.127921 7.168857 2.132682 10053171
-4.518062 6.864732 0.030257 10053171
-5.346427 6.748843 2.590995 10053171
-5.169789 6.757053 1.373997 10053171
-4.072608 6.864993 0.718802 10053171
-4.390289 7.058363 1.053695 10053171
-5.205580 7.133613 0.689776 10053171
-3.750954 6.777531 1.897040 10053171
-3.657731 7.251660 2.737647 10053171
-3.378978 7.150125 0.983574 10053171
-4.083983 7.206202 2.649739 10053171
-3.075144 7.179695 2.872963 10053171
-3.576670 7.021472 1.659269 10053171
-5.333236 7.110710 0.096299 10053171
-3.913444 6.947089 2.290624 10053171
-6.396358 7.034253 2.551623 10053171
-3.115171 7.090703 2.785022 10053171
-4.864923 7.179193 0.117622 10053171
-5.909314 6.877972 0.147949 10053171
-4.286721 7.027661 0.565214 10053171
-4.624785 7.151215 0.004073 10053171
-6.618800 7.201255 1.380063 10053171
-6.039654 6.925539 0.099606 10053171
-5.847776 6.767750 2.922734 10053171
-4.490755 7.049288 2.832474 10053171
-5.629869 7.196638 2.530747 10053171
-3.120992 6.974083 0.622097 10053171
-5.761962 6.949732 0.617066 10053171
-4.084844 7.121591 1.544327 10053171
-4.690660 6.789837 1.649398 10053171
-4.964221 7.142409 1.238624 10053171
-4.412282 6.956658 0.485746 10053171
-5.299293 7.238235 0.329012 10053171
-3.869246 6.954149 0.840352 10053171
-4.248865 6.930182 2.665730 10053171
-5.256496 7.106778 1.723995 10053171
-3.026858 6.967158 0.250087 10053171
-5.434355 6.859724 1.044743 10053171
-6.597259 7.078663 2.706134 10053171
-5.125843 6.808969 1.661658 10053171
-3.027689 6.905976 0.749912 10053171
-6.563034 6.990606 1.163745 10053171
-3.064641 7.005852 0.211085 10053171
-6.263556 7.217274 1.917428 10053171
-3.689699 6.931004 1.342897 10053171
-4.182107 7.098884 0.202527 10053171
-3.863079 7.156332 1.800767 10053171
-4.166539 6.998946 1.340658 10053171
-3.098188 6.828459 0.726374 10053171
-5.596733 7.237657 0.134473 10053171
-5.699201 7.027544 2.799013 10053171
-4.810275 6.966200 1.785027 10053171
-5.929262 7.154065 2.046204 10053171
-3.322440 7.096453 0.971926 10053171
-6.486659 6.831439 0.744828 10053171
-6.590956 7.091595 1.899903 10053171
-3.740706 6.849120 0.011883 10053171
-4.632803 7.145863 2.013818 10053171
-5.584942 6.753556 2.658404 10053171
-3.971556 7.076033 0.428575 10053171
-3.913150 6.800838 1.646014 10053171
-5.385237 7.023470 0.804825 10053171
-4.851033 6.824868 1.758751 10053171
-5.759452 6.964526 1.073017 10053171
-6.626907 6.870074 0.170895 10053171
-4.523770 6.982459 1.697882 10053171
-3.711527 7.118450 2.812378 10053171
-5.688593 6.878524 0.081595 10053171
-5.648643 7.053371 0.392878 10053171
-4.251602 6.858926 0.866770 10053171
-5.853199 6.860240 2.078004 10053171
-4.897477 6.841720 2.922675 10053171
-3.203072 6.991260 2.010554 10053171
-3.621452 6.924820 1.077706 10053171
-4.786850 7.152639 2.848216 10053171
-4.509882 7.154534 1.487728 10053171
-3.443112 7.083700 1.064612 10053171
-3.162205 7.154316 0.506979 10053171
-5.416879 7.108970 0.831011 10053171
-6.655038 6.962655 2.591181 10053171
-3.288796 6.896593 2.374012 10053171
-5.839231 7.130157 2.068123 10053171
-4.661786 6.899225 1.452450 10053171
-4.304090 6.844408 2.100207 10053171
-3.013903 6.754964 2.449857 10053171
-3.028481 6.989580 1.067034 10053171
-4.383361 7.190697 0.279057 10053171
-5.484027 7.221717 2.311010 10053171
-5.602104 7.121205 1.119015 10053171
-3.875289 6.871935 1.851429 10053171
-4.669906 7.080794 2.950011 10053171
-4.741708 7.184226 2.681423 10053171
-6.275186 7.029991 1.587848 10053171
-3.124645 7.188513 0.321754 10053171
-4.531346 6.895818 2.800133 10053171
-3.049276 6.920029 1.101563 10053171
-4.445624 7.242608 2.846629 10053171
-5.020957 6.902065 2.700088 10053171
-3.223251 6.991734 0.511685 10053171
-5.979857 6.811067 0.803011 10053171
-4.691921 7.135628 0.320952 10053171
-3.009898 7.080268 0.557364 10053171
-5.438387 6.900918 1.089291 10053171
-3.932728 6.818059 0.604321 10053171
-6.067915 6.960940 2.725029 10053171
-3.300619 6.922763 0.544400 10053171
-5.720653 6.746496 2.824155 10053171
-4.186375 6.826061 0.636954 10053171
-6.603514 6.982120 2.958109 10053171
-6.916697 7.220336 2.524196 10053171
-6.895092 7.208987 0.738544 10053171
-5.254399 7.000421 2.456769 10053171
-5.220417 6.953808 1.270370 10053171
-3.176044 7.153749 1.920742 10053171
-6.391018 6.965738 1.721418 10053171
-4.069279 6.830378 0.133177 10053171
-3.512653 6.884588 0.013441 10053171
-6.109488 6.891668 1.897616 10053171
-3.112314 7.102032 0.796366 10053171
-3.586513 7.034681 2.735511 10053171
-4.232039 7.030426 2.639660 10053171
-3.433738 6.906086 2.422615 10053171
-5.103219 6.881985 2.882325 10053171
-4.454244 7.104442 1.060407 10053171
-6.618232 6.847740 2.032035 10053171
-3.849377 6.877947 2.277589 10053171
-3.572687 6.981821 1.041761 10053171
-4.297579 6.750078 0.878633 10053171
-3.863732 7.020116 1.007512 10053171
-5.371481 6.967202 2.094814 10053171
-3.226190 6.839801 0.488289 10053171
-3.382706 7.259539 0.664305 10053171
-6.378855 6.765092 1.238707 10053171
-5.829154 7.226273 1.562577 10053171
-3.793413 6.902308 0.804351 10053171
-6.573673 6.864983 1.597050 10053171
-4.375504 6.784622 0.966940 10053171
-5.659779 6.909208 0.079235 10053171
-4.399683 7.008276 1.186547 10053171
-4.170644 6.917304 2.120943 10053171
-3.257820 7.177683 1.302711 10053171
-3.727739 7.232137 2.671952 10053171
-5.893628 6.812800 0.030995 10053171
-5.696511 6.803841 1.556941 10053171
-4.955233 6.959581 2.458280 10053171
-6.076953 7.042630 1.110847 10053171
-6.790916 7.227444 2.116821 10053171
-5.470551 6.863705 1.252534 10053171
-6.175237 6.903421 2.919572 10053171
-5.558384 6.775379 2.402380 10053171
-4.512174 7.167103 1.524140 10053171
-5.296705 6.860788 0.609288 10053171
-6.024649 7.244467 1.506639 10053171
-3.521677 6.856481 2.512360 10053171
-5.676503 6.924015 2.281152 10053171
-6.057302 6.986369 1.449715 10053171
-6.577640 6.859985 1.263262 10053171
-6.765915 7.062540 2.616159 10053171
-6.554204 6.871671 1.849872 10053171
-6.084054 6.993985 2.782335 10053171
-4.209047 7.179763 2.756550 10053171
-4.882620 7.075333 2.172511 10053171
-4.881972 7.156011 0.075303 10053171
-4.117628 6.835482 1.578647 10053171
-6.978456 7.234332 0.317916 10053171
-5.484277 7.147606 0.033510 10053171
-3.504637 6.803958 0.737656 10053171
-6.076520 6.778387 0.902498 10053171
-3.529778 6.819940 2.849368 10053171
-3.544609 7.173088 0.914747 10053171
-5.202473 6.822391 2.950784 10053171
-6.962928 6.846288 2.322806 10053171
-4.337487 6.839906 0.579834 10053171
-4.577649 6.857097 0.869111 10053171
-3.505005 6.822027 0.268088 10053171
-6.425831 6.989664 1.134984 10053171
-5.296229 7.243932 1.680784 10053171
-4.228166 7.178480 1.721694 10053171
-5.735922 7.121944 0.938222 10053171
-4.638265 6.943933 2.945800 10053171
-5.839945 7.030537 1.044484 10053171
-5.198905 7.129532 0.294271 10053171
-4.822366 6.845674 2.720200 10053171
-3.321428 6.984733 0.800535 10053171
-3.907177 7.008683 1.814017 10053171
-5.799553 6.990148 1.294545 10053171
-3.330070 6.956429 1.670759 10053171
-3.004231 7.227239 0.803573 10053171
-3.189429 7.216180 2.782489 10053171
-3.188693 7.188809 2.305504 10053171
-6.062986 6.930759 2.255748 10053171
-6.805746 7.052383 2.075077 10053171
-4.070364 6.788831 1.141929 10053171
-3.195659 7.217092 1.695994 10053171
-6.929821 7.154850 1.471981 10053171
-4.315291 6.881169 1.104649 10053171
-5.312674 7.035628 0.104514 10053171
-6.797909 7.150073 2.893151 10053171
-4.225389 6.807227 2.439987 10053171
-3.450171 7.038903 2.654336 10053171
-3.074031 6.782403 1.122182 10053171
-3.486995 7.226943 0.576680 10053171
-3.462134 6.932659 2.307580 10053171
-4.093504 7.064274 2.705657 10053171
-3.735818 7.055491 2.908553 10053171
-5.758090 6.923367 0.466408 10053171
-4.742246 7.099257 1.552755 10053171
5.880059 -5.982576 1.159451 8342706
6.119403 -5.725813 1.806665 8342706
5.426140 -6.100458 3.629367 8342706
6.152780 -6.474121 0.560184 8342706
5.454034 -6.218352 3.032601 8342706
6.172281 -6.448204 4.082608 8342706
6.337911 -6.043319 4.906314 8342706
6.212984 -5.635148 0.310987 8342706
6.006136 -6.159152 4.020869 8342706
6.183499 -5.982834 0.489751 8342706
5.576201 -5.668128 2.005389 8342706
6.166789 -6.425721 3.320289 8342706
6.525102 -5.786320 4.836941 8342706
6.047396 -5.627877 2.400027 8342706
6.476221 -5.959264 1.320210 8342706
6.078558 -6.234436 2.954155 8342706
6.540643 -5.875183 0.299994 8342706
6.357592 -6.451464 2.975375 8342706
6.315450 -5.524398 2.230066 8342706
6.449173 -6.354366 2.663161 8342706
6.197872 -6.105202 2.979724 8342706
6.274877 -5.572225 2.055545 8342706
5.627726 -6.286319 3.538127 8342706
5.809264 -5.559911 0.200764 8342706
5.644528 -5.768435 0.499651 8342706
6.505832 -5.811133 1.402883 8342706
6.025259 -5.435912 0.755304 8342706
6.212836 -6.341139 1.492916 8342706
6.443364 -6.151948 1.579521 8342706
6.548762 -6.024641 3.486314 8342706
5.603550 -6.182685 3.383705 8342706
5.849936 -6.185404 4.713030 8342706
5.787017 -5.534223 2.016864 8342706
6.316113 -5.770767 2.903724 8342706
6.259707 -5.940341 3.539627 8342706
5.460613 -6.118348 0.540140 8342706
6.391065 -5.817814 1.987291 8342706
5.883264 -5.806019 1.710915 8342706
5.735886 -5.854992 3.140349 8342706
5.649946 -6.164973 1.857535 8342706
5.799983 -5.522067 0.788932 8342706
6.463373 -6.076985 0.377561 8342706
5.985645 -6.125474 4.308980 8342706
5.594128 -6.194793 4.575832 8342706
5.741815 -5.751240 4.161204 8342706
5.745866 -5.931186 3.121738 8342706
6.035341 -5.971050 1.444225 8342706
6.407041 -6.281280 2.001161 8342706
5.666542 -5.725771 3.089485 8342706
6.274844 -6.106306 3.902561 8342706
5.409433 -5.994137 4.585360 8342706
5.964918 -5.462204 4.491338 8342706
5.492845 -5.973351 3.204175 8342706
6.418109 -5.923296 1.960112 8342706
6.154367 -6.499989 4.284883 8342706
6.396231 -5.882557 1.202758 8342706
5.403789 -5.953424 2.356595 8342706
5.517676 -5.764687 4.316612 8342706
6.448855 -5.986627 2.993037 8342706
6.091727 -5.663439 4.854233 8342706
6.282034 -5.870677 2.124901 8342706
5.811319 -5.476046 2.081265 8342706
5.885146 -6.337269 3.541257 8342706
6.002794 -5.502035 3.502370 8342706
5.759660 -6.033501 4.537406 8342706
5.856363 -6.080660 1.731599 8342706
6.157901 -5.741618 1.994770 8342706
6.179961 -6.295744 1.974639 8342706
5.759175 -6.215239 1.532171 8342706
5.582983 -6.257743 1.053838 8342706
5.869661 -6.385234 1.241998 8342706
5.963246 -5.970217 3.019311 8342706
6.065318 -6.121747 4.736054 8342706
5.792129 -5.826354 0.609334 8342706
5.733220 -6.085628 2.519845 8342706
5.942348 -5.975679 3.169144 8342706
5.489291 -6.209760 1.926769 8342706
6.090062 -5.619500 0.150773 8342706
6.447011 -5.945250 1.226013 8342706
6.575981 -6.057014 3.857354 8342706
6.034520 -6.205275 3.285878 8342706
5.576715 -5.672516 1.966175 8342706
6.086504 -6.251536 4.450933 8342706
6.114138 -5.584528 4.635163 8342706
6.443459 -5.685892 0.204084 8342706
5.953643 -6.165753 2.717292 8342706
6.231480 -5.988773 2.434219 8342706
5.489650 -6.167350 3.676659 8342706
6.039818 -6.308971 2.005886 8342706
5.887258 -6.336489 1.000479 8342706
6.195553 -6.408222 4.411824 8342706
5.565190 -5.934716 3.872277 8342706
5.694005 -6.378684 2.527183 8342706
6.106348 -6.481525 1.396478 8342706
5.840207 -5.891846 4.543801 8342706
5.598922 -5.783274 2.343094 8342706
6.463929 -5.842023 2.619004 8342706
6.096355 -6.426537 0.602726 8342706
5.555500 -6.153662 1.876302 8342706
6.313465 -6.054571 1.871922 8342706
6.556032 -6.058526 3.632542 8342706
5.660237 -6.369433 0.604910 8342706
5.669635 -6.453433 0.770194 8342706
6.228524 -6.020316 2.581322 8342706
5.643145 -6.026379 3.289653 8342706
5.784036 -5.604565 4.699682 8342706
5.783406 -6.250916 4.023172 8342706
5.637785 -5.817416 1.214104 8342706
6.403712 -5.963709 4.435133 8342706
5.818298 -5.612381 3.498427 8342706
6.027650 -5.782505 0.928076 8342706
6.148553 -6.361810 1.760118 8342706
6.142078 -5.804543 1.588879 8342706
5.959326 -5.768923 4.081809 8342706
6.047307 -6.204178 4.593271 8342706
5.787330 -6.133991 0.218147 8342706
5.904449 -5.651466 1.697554 8342706
6.191947 -5.630309 3.845986 8342706
5.690822 -5.969041 3.105491 8342706
5.804477 -6.192532 2.610176 8342706
5.669242 -5.834558 2.902153 8342706
5.610717 -6.234826 3.727624 8342706
5.897570 -6.595709 1.071733 8342706
6.125697 -5.799439 1.679911 8342706
6.313493 -6.327653 0.533629 8342706
6.340309 -5.699781 2.293286 8342706
6.138257 -5.595266 3.065644 8342706
5.681976 -5.702581 1.211760 8342706
5.997213 -5.730175 3.694794 8342706
6.187850 -6.017892 4.395641 8342706
6.515043 -6.119092 2.702132 8342706
6.356906 -6.156533 3.370145 8342706
5.678886 -6.282015 4.696183 8342706
6.301716 -5.523545 4.636719 8342706
5.983799 -6.200665 3.565522 8342706
5.777094 -5.655873 2.593331 8342706
6.066578 -6.559525 4.492965 8342706
5.528193 -5.744493 4.286360 8342706
5.516429 -6.144163 2.887484 8342706
6.114815 -5.646261 2.475197 8342706
5.691005 -5.888161 4.049438 8342706
5.861549 -5.436487 3.057345 8342706
6.489797 -5.809720 0.118251 8342706
6.064688 -5.453627 0.410703 8342706
6.388078 -5.733053 0.055344 8342706
6.052358 -5.767344 0.505787 8342706
5.655796 -5.719401 3.077276 8342706
6.348787 -6.240228 1.517167 8342706
6.117630 -5.797894 2.483379 8342706
5.764444 -6.161353 1.619655 8342706
5.983947 -6.202091 0.121647 8342706
5.834338 -6.040324 3.730211 8342706
5.739455 -6.161005 3.376867 8342706
6.309299 -6.256124 4.584957 8342706
6.328029 -6.492324 3.368154 8342706
6.005658 -6.554554 4.173088 8342706
6.012047 -5.682251 4.227237 8342706
5.715477 -5.627668 4.208437 8342706
6.191904 -5.877099 1.861605 8342706
5.508400 -6.229525 4.616530 8342706
5.902869 -6.329165 4.688356 8342706
6.052126 -6.464368 1.322677 8342706
6.132220 -5.600389 2.028857 8342706
5.960786 -6.217394 1.704418 8342706
6.025116 -6.025842 4.530062 8342706
6.090709 -5.649202 1.125461 8342706
6.142004 -6.302896 1.583788 8342706
5.733541 -5.766827 0.125042 8342706
6.325734 -6.167060 3.028749 8342706
6.105780 -5.595191 2.634842 8342706
6.258109 -5.855227 1.020799 8342706
5.635468 -6.089433 1.897064 8342706
5.722479 -5.667383 2.245849 8342706
5.797667 -5.658539 2.588203 8342706
5.507418 -5.947560 3.577034 8342706
6.028282 -5.820031 1.868022 8342706
5.699438 -5.885735 1.444601 8342706
5.747439 -6.270840 2.821302 8342706
6.008343 -6.304565 4.882765 8342706
6.009780 -6.453929 4.837589 8342706
6.077747 -5.591089 3.839933 8342706
5.611342 -5.605753 1.991176 8342706
6.541183 -6.013857 4.252237 8342706
5.660508 -5.598275 1.925734 8342706
6.096601 -6.462102 1.696414 8342706
5.604318 -6.237105 1.874565 8342706
6.316311 -5.901523 3.505709 8342706
6.474954 -5.837403 3.823860 8342706
6.430385 -6.104845 3.857365 8342706
6.128910 -5.845750 3.356823 8342706
6.134374 -6.391228 1.036191 8342706
5.670303 -6.156943 3.344689 8342706
6.517451 -6.320275 0.119770 8342706
6.384010 -6.090934 4.936282 8342706
5.430449 -5.917934 3.771305 8342706
6.477275 -6.012771 0.222846 8342706
6.245948 -5.656217 3.694122 8342706
6.091542 -6.002512 2.464833 8342706
6.265090 -5.989705 0.680260 8342706
6.447201 -5.940592 2.427850 8342706
6.073076 -6.507021 2.766096 8342706
6.420578 -6.081375 1.374830 8342706
6.201123 -5.643491 1.086742 8342706
6.260897 -5.586606 4.333888 8342706
6.173419 -6.455090 0.739473 8342706
5.630080 -6.064809 3.202533 8342706
6.526063 -5.792179 1.100447 8342706
6.170780 -5.808792 2.579419 8342706
6.008708 -6.086383 2.525927 8342706
6.376880 -5.688588 1.813854 8342706
5.954469 -6.127461 3.832359 8342706
6.506425 -6.007557 1.595881 8342706
5.501549 -6.273856 0.745695 8342706
5.814673 -6.356731 4.981445 8342706
6.480292 -5.779417 3.994370 8342706
6.243736 -6.035336 0.134944 8342706
6.272276 -5.822374 3.590801 8342706
6.499465 -6.080688 4.582412 8342706
5.931213 -6.071830 3.121825 8342706
6.394283 -6.241135 1.745650 8342706
6.026223 -5.445224 1.961521 8342706
5.425178 -5.967978 4.254708 8342706
6.090881 -6.072694 2.968067 8342706
6.267589 -5.946775 3.238184 8342706
5.652832 -6.178211 3.358596 8342706
6.146454 -6.358603 4.432458 8342706
6.097894 -5.528996 4.116955 8342706
5.910792 -5.852307 2.927220 8342706
5.433021 -6.100164 2.079599 8342706
6.308598 -6.428158 4.885519 8342706
5.633298 -6.406904 2.935797 8342706
6.306759 -6.338206 2.369856 8342706
6.403244 -5.811675 1.052336 8342706
6.442732 -5.875186 2.269119 8342706
6.006340 -5.498882 2.068553 8342706
6.223244 -5.763511 0.481929 8342706
5.894148 -6.295358 1.559649 8342706
6.407094 -5.751947 2.448985 8342706
6.391767 -5.528466 4.092584 8342706
6.461753 -6.168849 1.486256 8342706
6.174332 -5.796597 3.239172 8342706
5.720005 -6.401352 3.093074 8342706
6.278966 -5.530702 4.462017 8342706
6.029392 -5.893219 0.762927 8342706
5.566969 -6.358008 4.404819 8342706
5.599878 -5.748801 4.256233 8342706
6.217489 -5.839233 1.367374 8342706
5.730778 -5.800450 1.067246 8342706
5.887907 -6.087696 0.628592 8342706
6.182872 -5.442294 1.190491 8342706
6.275767 -5.525348 1.182201 8342706
5.662481 -6.259962 4.297127 8342706
5.932022 -6.061242 4.914708 8342706
6.208301 -5.567737 3.764092 8342706
5.660216 -6.044019 4.260905 8342706
6.097075 -6.579389 4.283876 8342706
5.684093 -5.723166 3.964832 8342706
5.537565 -6.105233 3.763740 8342706
6.227349 -6.419374 1.020002 8342706
6.556572 -5.964168 0.487291 8342706
5.990512 -5.546879 2.925575 8342706
6.176394 -6.425154 1.659828 8342706
5.513040 -6.208930 3.934844 8342706
5.616652 -6.460021 2.785122 8342706
5.803843 -5.483417 2.243797 8342706
6.544738 -6.229188 2.077272 8342706
6.049439 -6.372498 0.534925 8342706
5.442802 -5.859755 2.590417 8342706
5.841461 -5.678106 2.538337 8342706
6.287702 -6.092803 0.230885 8342706
6.059844 -5.603263 4.352744 8342706
6.509905 -6.254295 4.432233 8342706
5.818761 -6.390684 4.414594 8342706
5.471632 -5.768806 4.326328 8342706
5.962070 -5.501011 1.504803 8342706
6.523496 -6.199228 4.008810 8342706
6.375575 -6.172494 1.439679 8342706
5.822510 -6.188454 3.746488 8342706
6.116410 -6.323904 1.921421 8342706
5.544724 -5.631219 3.384922 8342706
5.796043 -6.462025 3.548281 8342706
5.482557 -5.684492 3.918209 8342706
6.148740 -5.558559 0.050593 8342706
6.352170 -5.971455 2.643026 8342706
6.380494 -6.078124 1.749881 8342706
5.795514 -5.781905 3.225812 8342706
6.016743 -5.809619 3.166801 8342706
6.303867 -6.052885 2.039205 8342706
6.361232 -5.807007 2.203907 8342706
6.063167 -5.810983 0.093380 8342706
5.831372 -6.053671 0.089236 8342706
6.226339 -6.454998 0.858757 8342706
6.348780 -6.470523 0.726465 8342706
6.165133 -6.367599 4.251627 8342706
5.850830 -6.536970 1.810609 8342706
5.642405 -5.914907 0.964594 8342706
5.781456 -5.683337 2.707704 8342706
6.200769 -5.747173 0.410324 8342706
6.062462 -5.436983 2.095071 8342706
6.003001 -6.507508 1.082130 8342706
6.236975 -5.530635 1.276158 8342706
6.441745 -5.669968 3.627134 8342706
6.497053 -6.261952 0.326033 8342706
5.772891 -5.920050 4.025180 8342706
6.175509 -6.121554 1.730185 8342706
6.105236 -6.232276 3.240528 8342706
5.610855 -6.232059 3.703953 8342706
6.517737 -6.143372 1.830203 8342706
6.255024 -6.216145 1.698549 8342706
5.564099 -5.791406 2.485686 8342706
6.374576 -6.386753 2.019593 8342706
6.114106 -6.222963 3.572923 8342706
6.176459 -6.572189 4.293115 8342706
6.433468 -6.394690 3.675422 8342706
6.142403 -5.545726 2.002855 8342706
6.077056 -5.464704 0.889045 8342706
6.123691 -6.452114 1.161450 8342706
5.665112 -6.067102 0.148105 8342706
5.845590 -5.610675 2.615334 8342706
5.811028 -6.382986 2.630020 8342706
6.067772 -5.481716 3.491099 8342706
5.764006 -6.288032 3.347556 8342706
6.334605 -6.335923 1.075239 8342706
5.812999 -6.536145 4.763025 8342706
6.239802 -5.678805 4.893659 8342706
6.000245 -6.465562 1.843680 8342706
5.686914 -5.778522 0.287118 8342706
6.318296 -5.533581 4.291170 8342706
5.606283 -5.855319 4.348968 8342706
6.228640 -5.592515 0.497773 8342706
6.280439 -6.362529 4.015037 8342706
6.192044 -6.514810 0.568604 8342706
6.170482 -5.850352 1.024975 8342706
6.435345 -6.145273 2.770451 8342706
6.049077 -6.394302 3.715655 8342706
5.993322 -5.542364 2.045852 8342706
6.477978 -6.193737 3.297238 8342706
6.119632 -5.457439 0.238790 8342706
5.474894 -5.703360 4.382170 8342706
6.167902 -6.356740 1.673628 8342706
6.420491 -5.603146 1.857388 8342706
5.863528 -6.105667 0.924203 8342706
6.347886 -5.598816 3.691513 8342706
5.639341 -6.138442 3.757206 8342706
6.510332 -5.917358 1.175640 8342706
5.718504 -6.011794 2.412275 8342706
6.252775 -6.326368 2.951291 8342706
5.733765 -6.411297 4.090821 8342706
6.052290 -6.270913 3.892705 8342706
6.388203 -5.557459 4.947022 8342706
6.517202 -6.260104 4.657683 8342706
6.022739 -5.938780 3.869370 8342706
6.165932 -6.388094 4.356719 8342706
5.739442 -6.196990 2.002592 8342706
6.433259 -5.872302 2.112630 8342706
6.442024 -5.978124 2.210405 8342706
5.855692 -5.457627 1.058789 8342706
6.482216 -5.817902 0.300981 8342706
5.857415 -5.467196 1.393946 8342706
6.218690 -5.698689 4.835401 8342706
5.986912 -5.655287 1.250701 8342706
6.485882 -5.815600 2.255356 8342706
5.782239 -6.230933 3.682425 8342706
6.273963 -6.196375 1.527638 8342706
5.967402 -6.374161 3.975095 8342706
5.999075 -5.818940 2.294272 8342706
6.152579 -6.031021 4.107556 8342706
6.149843 -6.415272 4.355799 8342706
6.294175 -5.606446 4.766793 8342706
6.364245 -5.811492 3.603852 8342706
5.989836 -5.794381 3.167128 8342706
6.533728 -5.880331 3.048996 8342706
6.258929 -5.860487 2.845770 8342706
6.309826 -6.324616 2.001487 8342706
5.750491 -5.715641 3.624938 8342706
5.703416 -5.721240 3.057956 8342706
6.261203 -5.985719 1.464118 8342706
6.383082 -6.230163 1.077294 8342706
5.845125 -5.591411 2.969743 8342706
5.522698 -5.893718 0.130884 8342706
5.646942 -5.652235 0.451847 8342706
5.608212 -5.586219 2.873266 8342706
5.996282 -5.524474 2.119554 8342706
5.526927 -6.109680 1.883421 8342706
6.119177 -5.500468 3.472914 8342706
5.447882 -5.935579 4.580551 8342706
5.476129 -5.787028 2.907164 8342706
6.182037 -6.307064 1.839520 8342706
5.553234 -6.370632 0.845959 8342706
5.883387 -6.498791 1.633770 8342706
6.116885 -6.336639 3.441942 8342706
5.964462 -6.483057 4.588202 8342706
6.352598 -6.153858 0.801831 8342706
6.507414 -6.342134 1.437445 8342706
6.573923 -5.906156 3.391012 8342706
5.605567 -6.079223 1.108739 8342706
6.267838 -6.282024 1.935175 8342706
6.173449 -6.295059 2.956328 8342706
6.046783 -6.514964 4.971730 8342706
5.974578 -6.452913 0.616794 8342706
6.299810 -5.769310 1.744058 8342706
6.403975 -5.942398 1.290888 8342706
6.235685 -6.393027 0.478091 8342706
6.298210 -6.121672 2.876943 8342706
6.482746 -6.147092 0.070852 8342706
6.090209 -5.654765 1.230447 8342706
6.487108 -6.252217 4.293139 8342706
6.460138 -5.652974 4.806311 8342706
6.495476 -6.167072 3.636374 8342706
6.309235 -6.342796 1.617425 8342706
5.765397 -6.282098 0.435040 8342706
6.190073 -5.581129 2.710056 8342706
6.240079 -6.027874 3.861497 8342706
6.324973 -5.836272 0.385700 8342706
6.176432 -5.871913 3.957440 8342706
5.770879 -6.435522 3.281268 8342706
6.395574 -6.172966 0.009506 8342706
6.352943 -5.767255 1.354083 8342706
6.273138 -6.012350 4.232623 8342706
6.333593 -6.076993 2.039845 8342706
5.788720 -5.583954 4.371222 8342706
5.830521 -6.017068 0.855638 8342706
6.043347 -5.745663 4.185774 8342706
5.512553 -5.745964 3.984660 8342706
6.463533 -6.134936 1.751433 8342706
6.275055 -6.465281 1.719554 8342706
6.278221 -6.206760 4.640043 8342706
5.539635 -6.321586 1.235178 8342706
5.999702 -6.254735 3.461581 8342706
6.230811 -5.575436 3.762675 8342706
6.040668 -6.567678 3.660264 8342706
5.936531 -6.014647 1.743871 8342706
5.795920 -5.646780 2.745157 8342706
6.180188 -6.311744 0.921016 8342706
6.167654 -5.979827 3.888303 8342706
6.121144 -6.299345 1.980103 8342706
5.783551 -6.147149 1.032576 8342706
6.570872 -6.013500 1.761555 8342706
5.762554 -6.114636 4.303321 8342706
6.449932 -5.778472 1.031380 8342706
5.545233 -5.876428 0.779408 8342706
6.302255 -6.002292 5.008235 8342706
6.205986 -6.565377 4.113615 8342706
6.065193 -6.414759 4.723116 8342706
5.992579 -5.833553 1.405794 8342706
6.512295 -6.155752 4.982174 8342706
6.146407 -6.100268 1.665518 8342706
5.822105 -5.968355 2.099504 8342706
5.707537 -5.952779 3.043184 8342706
6.500068 -6.250840 4.098737 8342706
5.484089 -5.876797 3.600548 8342706
