# .PCD v0.7 - Point Cloud Data file format
VERSION 0.7
FIELDS x y z rgb
SIZE 4 4 4 4
TYPE F F F U
COUNT 1 1 1 1
WIDTH 1262
HEIGHT 1
VIEWPOINT 0 0 0 1 0 0 0
POINTS 1262
DATA ascii
24.930056 -5.743919 0.632808 1690649
24.648258 -6.174295 0.773204 1690649
24.877190 -6.137894 0.692209 1690649
24.291763 -6.214589 1.322160 1690649
24.988245 -6.010698 0.490077 1690649
24.660950 -5.956789 0.585842 1690649
24.907810 -6.024565 1.027932 1690649
24.621794 -6.131965 1.078462 1690649
25.152121 -6.124654 1.310203 1690649
24.495838 -6.063749 0.950499 1690649
25.099571 -5.974430 0.518150 1690649
24.794500 -6.180654 1.758064 1690649
24.685522 -6.422519 0.193912 1690649
24.398382 -5.869306 1.075689 1690649
24.817974 -5.735929 1.042095 1690649
24.932831 -6.385706 1.160274 1690649
25.130964 -6.187311 1.028491 1690649
24.584698 -6.232014 0.586569 1690649
24.889658 -5.938159 1.401938 1690649
24.820995 -6.119238 1.141646 1690649
24.806644 -5.659420 1.739100 1690649
24.805641 -6.445493 1.147926 1690649
24.302832 -6.226381 0.858694 1690649
24.295233 -6.194789 0.883535 1690649
24.453022 -5.671611 1.532689 1690649
24.859034 -6.159759 1.865616 1690649
24.376184 -6.157502 1.410539 1690649
24.894646 -5.745214 1.845461 1690649
24.727997 -6.372150 0.630483 1690649
24.948051 -5.804610 1.249772 1690649
24.533421 -5.698749 1.413622 1690649
24.548611 -5.907382 1.593528 1690649
25.084536 -6.254467 0.963557 1690649
24.534382 -5.960740 0.752788 1690649
24.737543 -6.173497 1.061551 1690649
25.009172 -5.679318 1.113134 1690649
24.298138 -6.017396 0.549750 1690649
24.774872 -5.839370 0.609313 1690649
24.421789 -6.157876 1.267179 1690649
24.751274 -5.799469 1.875856 1690649
24.854767 -5.894576 1.063847 1690649
24.576542 -6.337151 0.344978 1690649
24.848261 -5.877399 1.889717 1690649
24.711702 -6.334180 0.997223 1690649
24.461472 -5.721786 1.897775 1690649
24.915598 -6.212987 1.119848 1690649
24.753845 -6.364480 1.423545 1690649
24.666298 -5.871944 1.000398 1690649
24.568291 -5.637784 1.026878 1690649
24.692892 -5.682545 1.369894 1690649
24.501381 -5.889736 1.227454 1690649
24.854872 -5.621699 0.424615 1690649
25.096323 -5.915744 1.481022 1690649
24.487736 -5.836536 1.023531 1690649
24.327179 -6.220122 1.844847 1690649
24.674265 -6.383230 1.697259 1690649
24.533451 -6.138438 0.807014 1690649
24.527796 -5.896071 0.576484 1690649
25.042522 -6.288780 0.939871 1690649
24.672747 -6.083609 1.455045 1690649
24.361336 -6.076352 0.906128 1690649
24.888727 -6.014545 0.128775 1690649
24.494585 -5.884966 0.185935 1690649
24.744787 -6.419704 0.201066 1690649
24.683397 -5.781839 0.978866 1690649
24.836294 -6.243896 1.752867 1690649
24.538889 -6.312224 1.668410 1690649
24.767263 -6.479673 1.791781 1690649
24.506746 -5.879668 0.219686 1690649
24.393410 -6.185568 0.340459 1690649
24.510946 -5.946689 1.343386 1690649
24.831074 -6.186472 0.655194 1690649
24.538507 -6.280486 1.639762 1690649
25.055155 -6.088963 1.148298 1690649
24.836802 -6.073099 0.110294 1690649
24.677206 -5.692965 1.223443 1690649
24.752325 -5.871919 0.222804 1690649
24.695297 -6.377940 1.114922 1690649
25.036991 -6.063828 0.721412 1690649
24.874487 -5.755075 1.186034 1690649
24.653002 -5.614472 0.232804 1690649
24.676140 -6.227066 0.463476 1690649
24.785839 -5.858545 0.930210 1690649
24.555937 -5.996578 1.796507 1690649
24.359226 -5.953134 0.683241 1690649
24.815285 -6.414384 0.193446 1690649
24.678881 -6.411032 1.444457 1690649
24.535870 -6.321208 0.153237 1690649
24.918783 -5.859838 1.508948 1690649
25.020029 -6.236888 1.247276 1690649
24.720346 -5.737837 1.691218 1690649
24.645920 -5.708356 1.109373 1690649
24.911602 -5.755187 0.748021 1690649
24.497866 -6.134649 0.175293 1690649
24.492321 -5.721207 1.264053 1690649
24.981400 -6.326400 0.592581 1690649
24.510441 -5.901798 1.654855 1690649
24.649977 -5.993185 1.893912 1690649
25.004004 -5.873543 0.493721 1690649
24.556286 -6.256480 1.627357 1690649
24.371922 -6.255703 0.983638 1690649
24.616711 -5.736519 1.724187 1690649
24.564543 -6.282605 1.488096 1690649
24.390301 -5.792812 0.619776 1690649
24.482515 -5.829466 0.165782 1690649
24.395384 -6.359602 1.121261 1690649
24.474554 -5.810211 0.613939 1690649
24.522617 -5.819960 1.065398 1690649
24.368280 -6.235535 0.779041 1690649
24.503283 -6.158409 1.283372 1690649
25.042053 -6.299020 0.138512 1690649
24.730137 -5.611346 1.892439 1690649
25.121281 -5.957312 0.967664 1690649
24.893366 -6.404671 1.847923 1690649
25.085997 -5.953744 1.459629 1690649
24.837593 -6.295026 1.031497 1690649
24.978788 -5.850876 1.363674 1690649
24.733133 -6.386048 1.127915 1690649
24.642815 -5.708140 0.762335 1690649
24.765703 -6.423972 0.161224 1690649
24.332779 -6.088923 0.987727 1690649
24.416174 -5.786698 0.301997 1690649
25.009415 -5.931618 1.326038 1690649
24.930153 -6.315090 0.109581 1690649
24.484615 -6.032097 1.059138 1690649
24.762550 -6.249342 0.240223 1690649
24.353647 -6.067344 0.932140 1690649
24.687107 -6.321855 0.485666 1690649
25.088871 -5.855454 0.666986 1690649
24.388458 -5.926634 1.863583 1690649
24.595560 -5.936082 0.240312 1690649
24.831663 -6.070876 0.473505 1690649
25.029305 -6.353253 0.871498 1690649
24.309000 -5.862029 1.410108 1690649
24.453621 -5.954901 1.515061 1690649
24.547049 -6.040320 0.315183 1690649
24.899790 -6.327065 1.441299 1690649
24.645624 -6.067844 0.507045 1690649
24.920258 -6.164945 1.331745 1690649
24.855324 -5.819900 0.187111 1690649
24.361284 -6.067235 0.654145 1690649
25.130457 -6.154657 0.739545 1690649
24.998531 -5.935339 1.284942 1690649
24.601566 -5.961729 0.902311 1690649
24.421970 -6.073396 0.646313 1690649
25.135962 -5.888914 1.199744 1690649
24.764240 -6.162458 1.297765 1690649
24.572969 -5.943083 1.664011 1690649
24.722418 -5.636998 1.189754 1690649
25.113810 -6.019592 1.266028 1690649
24.933542 -6.235173 0.504938 1690649
24.467724 -6.064639 1.001237 1690649
24.786613 -6.037558 1.233482 1690649
24.880259 -6.144553 0.689611 1690649
-4.370966 7.165212 0.455053 10053171
-5.972591 7.104997 0.431997 10053171
-4.429571 6.964612 2.358394 10053171
-5.161387 7.155709 2.886632 10053171
-3.848565 6.996369 0.280774 10053171
-6.687484 6.764583 2.477168 10053171
-4.093248 7.160376 2.557479 10053171
-3.174885 6.955677 1.317630 10053171
-4.400878 6.983676 0.528211 10053171
-3.493715 7.188592 2.554100 10053171
-3.692034 7.203278 2.481939 10053171
-3.268893 6.963077 0.841728 10053171
-4.012033 7.092587 0.169440 10053171
-4.979620 6.828217 1.172613 10053171
-6.842158 6.962993 0.183648 10053171
-4.608812 7.108885 2.206497 10053171
-6.406027 6.974877 1.200762 10053171
-4.650855 6.942215 0.456540 10053171
-6.886931 6.751446 2.834296 10053171
-6.291699 7.222813 2.891831 10053171
-6.092626 7.066506 0.769803 10053171
-6.140952 6.818283 2.805695 10053171
-3.732863 6.865842 2.226424 10053171
-4.817215 7.061429 2.506868 10053171
-6.572248 7.024730 2.660469 10053171
-6.051550 7.146602 1.104065 10053171
-3.391451 7.158400 1.447426 10053171
-4.608942 6.970415 1.337826 10053171
-5.987293 7.234130 2.384047 10053171
-6.677413 7.037081 2.955289 10053171
-6.867040 7.061705 1.107151 10053171
-5.991781 6.745429 0.143474 10053171
-6.131277 7.015135 1.941374 10053171
-3.878786 6.964606 0.590195 10053171
-4.689003 7.159201 0.105596 10053171
-5.856375 7.171916 2.075994 10053171
-4.821399 6.958065 1.406279 10053171
-5.513473 7.246288 2.734194 10053171
-5.062212 6.776007 1.310586 10053171
-6.156502 6.952754 2.528652 10053171
-4.490295 6.921338 2.120968 10053171
-4.093661 7.120151 1.106769 10053171
-3.858269 6.753135 0.896127 10053171
-4.730102 6.929728 2.263788 10053171
-5.552683 6.950897 0.635019 10053171
-3.799833 7.051681 1.150682 10053171
-3.497963 7.062959 2.132138 10053171
-4.298805 7.194175 0.689337 10053171
-4.121076 7.249225 2.551277 10053171
-5.289691 6.968302 1.596085 10053171
-6.760130 7.063785 2.609148 10053171
-5.680823 6.969100 1.208031 10053171
-5.761826 6.849021 2.771099 10053171
-3.542564 6.857879 2.689490 10053171
-3.040461 6.901695 0.627579 10053171
-5.037073 7.047595 2.168011 10053171
-3.511933 7.062991 0.805436 10053171
-5.436657 7.045885 1.641226 10053171
-3.368924 7.084415 2.184454 10053171
-6.480556 7.184574 0.031556 10053171
-6.369625 6.756231 2.590528 10053171
-4.387506 6.937860 2.921604 10053171
-6.307648 6.945951 0.869972 10053171
-3.764444 7.172644 1.056587 10053171
-3.548310 7.071073 2.684827 10053171
-4.160927 6.932226 2.153941 10053171
-6.355465 6.831783 1.067597 10053171
-3.782620 7.017926 1.940252 10053171
-3.897427 7.041132 1.217871 10053171
-5.439495 7.205962 0.699734 10053171
-5.920368 6.966710 2.521285 10053171
-3.279569 6.924788 1.501954 10053171
-6.808292 6.749124 2.286026 10053171
-3.696903 6.992578 0.978022 10053171
-6.503608 7.212131 1.593181 10053171
-5.303981 6.968149 0.862260 10053171
-6.482179 6.894082 0.451040 10053171
-4.537592 7.103381 2.251490 10053171
-6.719883 7.175305 1.118839 10053171
-4.029932 6.873269 0.252579 10053171
-5.786715 7.219250 0.685762 10053171
-6.968442 7.069353 2.903581 10053171
-3.128743 7.078115 2.183211 10053171
-4.138389 7.098130 0.037676 10053171
-4.445227 7.163162 1.354272 10053171
-6.608434 7.211656 0.426215 10053171
-5.841179 6.851482 0.148154 10053171
-3.234851 6.866772 0.163964 10053171
-6.521651 6.927139 1.333893 10053171
-5.960959 6.863963 0.019839 10053171
-5.453955 7.038049 1.776186 10053171
-6.380796 7.012008 2.978014 10053171
-6.087505 6.850292 2.947433 10053171
-4.238729 7.220243 1.393391 10053171
-4.298472 7.112601 2.203891 10053171
-3.926672 7.191765 2.382349 10053171
-5.662411 7.216966 0.409614 10053171
-5.340795 6.918014 0.445698 10053171
-3.331040 6.960535 0.973499 10053171
-6.869061 6.950611 0.248807 10053171
-4.486186 6.814534 1.779749 10053171
-6.249466 7.222136 1.527835 10053171
-3.846193 7.210979 0.865287 10053171
-3.786815 6.968144 2.100650 10053171
-4.808307 7.143332 1.231318 10053171
-5.636730 7.235755 1.572759 10053171
-4.223956 6.977616 0.409458 10053171
-5.534438 7.184393 0.319347 10053171
-3.283391 7.099381 0.142970 10053171
-5.113832 6.783772 1.803251 10053171
-5.621043 7.066509 2.644347 10053171
-5.456097 6.876523 2.375955 10053171
-4.462074 6.927219 0.710294 10053171
-4.784903 6.922605 2.309631 10053171
-6.486987 6.962356 1.162622 10053171
-5.741818 6.782870 1.377584 10053171
-4.589632 6.931041 1.782433 10053171
-4.057526 7.077048 2.559945 10053171
-3.322772 7.028460 0.171450 10053171
-4.635233 6.761377 1.413979 10053171
-3.824880 7.211609 0.850799 10053171
-5.157472 6.861046 0.226781 10053171
-6.442818 6.763084 0.301673 10053171
-5.592046 7.028777 0.837353 10053171
-3.130390 7.179268 1.549010 10053171
-5.375249 7.089408 2.713845 10053171
-5.305029 6.921053 2.696540 10053171
-4.370745 6.891406 0.780579 10053171
-6.991582 7.110412 2.662094 10053171
-4.269769 7.036471 2.885810 10053171
-4.874196 6.972680 0.234412 10053171
-6.512215 6.880164 2.241628 10053171
-5.347509 6.920413 1.734812 10053171
-5.245424 7.060040 1.616324 10053171
-4.652684 6.819783 0.825360 10053171
-3.269723 6.828416 0.419447 10053171
-4.009055 6.951119 1.208197 10053171
-3.763617 7.214135 0.788474 10053171
-5.113185 7.041530 2.743812 10053171
-4.750808 7.156436 1.101212 10053171
-5.656497 6.772584 2.554895 10053171
-5.418337 7.180616 2.271561 10053171
-6.054515 7.005044 2.949893 10053171
-3.708606 6.937518 1.072342 10053171
-4.251709 7.086910 2.725079 10053171
-5.930505 7.044042 0.640976 10053171
-4.948047 6.808678 2.312964 10053171
-3.937716 6.828696 1.361243 10053171
-6.012728 7.207072 1.740112 10053171
-3.614650 7.195343 0.398433 10053171
-5.857048 6.930102 2.285546 10053171
-6.571169 6.883160 1.754946 10053171
-4.759485 6.785031 2.782874 10053171
-6.481988 7.166415 1.214315 10053171
-3.574067 7.013185 1.080370 10053171
-6.245106 6.821607 1.531293 10053171
-3.031791 6.865001 1.556145 10053171
-6.390201 7.245380 0.957527 10053171
-4.785525 7.005167 1.227746 10053171
-6.390157 7.094112 0.947601 10053171
-6.877727 6.884778 2.255097 10053171
-3.722144 7.243186 1.814284 10053171
-4.228580 7.181637 0.819367 10053171
-6.305877 6.810699 2.952406 10053171
-3.043077 6.768049 2.281822 10053171
-6.429458 6.923265 1.480963 10053171
-6.290102 6.990763 1.001674 10053171
-5.149470 6.789701 1.212057 10053171
-3.972961 7.172251 0.938974 10053171
-6.424595 7.072009 0.874594 10053171
-6.222385 6.749055 2.095813 10053171
-3.522106 7.035314 0.955237 10053171
-5.318515 6.978381 2.324618 10053171
-4.502090 6.775252 0.629359 10053171
-5.567370 7.203780 0.156280 10053171
-3.620074 6.914503 1.837689 10053171
-6.979056 7.186827 2.105414 10053171
-6.177754 7.177222 1.925560 10053171
-4.711810 6.901606 0.440359 10053171
-5.537923 6.953993 1.743374 10053171
-6.755981 6.787183 1.273502 10053171
-5.589292 6.818752 1.497765 10053171
-6.411283 6.880143 2.030783 10053171
-5.970644 6.792183 1.075735 10053171
-5.784738 6.769602 2.065397 10053171
-5.563618 6.809360 1.560262 10053171
-3.365092 7.071383 2.634646 10053171
-5.040804 7.023720 0.363868 10053171
-4.199479 7.184691 0.554054 10053171
-5.049423 7.118562 0.832465 10053171
-6.382864 6.898066 2.845758 10053171
-6.875950 6.814489 2.557010 10053171
-6.719961 6.764970 0.427726 10053171
-3.248084 7.091625 1.579875 10053171
-6.026929 6.738372 2.603176 10053171
-4.071569 6.939567 1.563990 10053171
-6.739775 7.228546 0.631494 10053171
-6.932654 6.946411 2.971954 10053171
-4.493132 6.929969 1.939736 10053171
-4.893095 7.095027 2.551857 10053171
-3.969888 7.121665 0.811082 10053171
-4.134364 7.236484 0.515436 10053171
-3.936925 6.782408 1.137824 10053171
-3.465915 7.220561 2.468418 10053171
-3.400981 7.193862 0.191169 10053171
-3.134360 6.780582 0.454397 10053171
-4.778390 7.230903 1.094219 10053171
-6.914132 7.090927 0.576082 10053171
-6.252918 6.761497 1.869331 10053171
-6.650613 6.937266 0.622650 10053171
-6.354288 7.160044 1.716621 10053171
-6.423886 6.835140 1.118570 10053171
-4.970702 6.813782 0.302041 10053171
-5.303651 7.023500 1.129177 10053171
-6.011849 7.083991 1.255154 10053171
-3.182419 7.014890 2.064206 10053171
-4.532062 6.908038 0.158930 10053171
-6.059406 6.825949 0.165065 10053171
-3.647099 7.129331 0.324851 10053171
-3.324017 7.168029 2.604349 10053171
-4.004582 6.902662 2.664978 10053171
-4.113908 6.845167 2.988860 10053171
-5.522331 7.090476 1.929631 10053171
-4.334009 7.157326 0.728979 10053171
-4.253259 6.942256 0.594648 10053171
-3.614980 7.136095 0.610571 10053171
-3.734598 6.957524 0.914254 10053171
-4.642508 7.022202 0.623849 10053171
-4.195066 6.946242 0.206695 10053171
-6.555214 6.796123 2.375001 10053171
-4.732753 7.168534 0.499125 10053171
-5.154523 6.986692 1.460589 10053171
-6.461895 7.240256 1.329447 10053171
-6.982897 7.030263 2.094322 10053171
-6.589597 7.236125 1.489676 10053171
-5.040344 7.124166 2.886777 10053171
-4.734603 6.849283 0.726230 10053171
-4.299624 6.931741 1.302802 10053171
-5.424685 6.807479 2.064902 10053171
-4.009885 6.746556 2.815078 10053171
-5.955044 7.017680 1.392468 10053171
-6.743411 6.754589 0.265951 10053171
-3.289971 7.151514 2.695198 10053171
-5.110159 7.069416 1.732676 10053171
-5.860750 7.204775 0.499246 10053171
-6.237059 6.892130 1.071365 10053171
-6.962543 7.088035 1.634948 10053171
-5.759122 7.231361 2.564412 10053171
-6.231909 6.923029 2.046296 10053171
-3.799788 6.957995 1.362463 10053171
-5.724033 7.157362 0.875096 10053171
-3.134502 6.792689 0.962251 10053171
-3.905849 6.841871 1.101343 10053171
-5.325155 7.178992 1.636296 10053171
-3.515709 6.781899 0.848308 10053171
-4.673993 7.242257 1.552813 10053171
-3.646581 7.003205 2.224283 10053171
-4.569630 7.132576 2.671967 10053171
-4.912718 7.085662 2.091444 10053171
-6.907765 6.786725 2.377395 10053171
-3.424526 7.119095 0.859544 10053171
-5.537768 7.050330 2.917669 10053171
-4.816051 6.940205 0.687046 10053171
-4.590711 6.984562 2.186559 10053171
-6.921916 7.053660 2.214254 10053171
-3.664874 6.866522 1.217998 10053171
-4.318553 6.927658 0.821315 10053171
-6.414289 6.774400 2.076623 10053171
-6.022798 6.795962 2.092629 10053171
-4.837874 6.757200 0.952642 10053171
-3.710332 6.842514 0.004428 10053171
-4.868832 7.110367 2.488623 10053171
-3.728211 7.005614 2.494892 10053171
-5.160909 7.081825 1.497936 10053171
-6.258737 6.835835 1.596198 10053171
-6.682618 7.178209 2.933790 10053171
-3.955262 6.922792 0.939037 10053171
-6.224194 7.046429 0.956594 10053171
-4.889367 7.161599 1.528936 10053171
-3.302887 7.224057 0.910058 10053171
-6.370951 7.082906 1.877436 10053171
-5.689682 6.797995 1.356990 10053171
-3.547767 6.911984 0.417659 10053171
-5.636642 6.783829 2.097473 10053171
-4.313602 7.261583 0.446755 10053171
-3.203137 7.021428 1.433907 10053171
-3.117957 6.940706 1.817558 10053171
-4.093114 6.766019 0.911189 10053171
-4.278868 7.217394 1.334452 10053171
-3.092504 6.857550 0.305231 10053171
-4.010663 7.124042 1.447815 10053171
-5.442858 6.919993 1.055596 10053171
-3.992522 6.932256 0.365867 10053171
-3.776501 6.941626 0.173875 10053171
-5.731990 7.232254 1.856501 10053171
-5.702867 7.217139 1.786222 10053171
-6.032504 6.730204 2.368687 10053171
-3.609578 6.959101 0.810884 10053171
-5.211854 7.118703 1.193499 10053171
-5.113601 6.837709 2.472002 10053171
-4.278055 7.190027 0.627123 10053171
-6.988539 7.217970 0.053506 10053171
-4.030039 6.793172 1.119365 10053171
-4.064238 6.813253 1.840121 10053171
-5.417143 6.872161 2.745164 10053171
-3.270889 7.052482 1.537310 10053171
-3.317455 7.205589 -0.012939 10053171
-3.228679 6.809566 1.501738 10053171
-4.639981 6.950273 1.558721 10053171
-4.970563 6.851943 0.146103 10053171
-6.804102 6.834289 1.560737 10053171
-5.557076 6.942043 0.140794 10053171
-6.938474 6.909686 1.417528 10053171
-4.194842 6.760011 1.305752 10053171
-6.370181 6.925958 0.209308 10053171
-3.345580 6.762167 2.829690 10053171
-4.079890 6.812761 1.406459 10053171
-4.736186 6.842886 1.927308 10053171
-6.168246 6.787281 0.136926 10053171
-5.204312 7.131747 1.830646 10053171
-6.274872 7.117278 2.238722 10053171
-5.123718 7.115875 1.403726 10053171
-6.447521 6.944041 1.322051 10053171
-5.452926 7.063428 0.274761 10053171
-4.926045 7.190410 1.792786 10053171
-3.868092 6.986285 1.629658 10053171
-5.428190 7.084639 2.726226 10053171
-5.714546 7.056931 2.968592 10053171
-6.822249 7.140420 0.772713 10053171
-4.904995 7.162673 1.140539 10053171
-6.985562 6.946846 0.276548 10053171
-6.747469 6.967247 1.040309 10053171
-4.316449 6.784925 1.948868 10053171
-3.988658 7.152621 0.073699 10053171
-3.112746 7.029651 1.330560 10053171
-3.852676 7.013460 0.398124 10053171
-3.117902 6.746846 1.707235 10053171
-3.457525 6.850845 0.313576 10053171
-6.632684 7.093495 1.213001 10053171
-4.089013 7.130784 0.750396 10053171
-3.778646 7.012085 2.062211 10053171
-3.778421 7.048094 1.228837 10053171
-4.632846 7.143172 2.689954 10053171
-4.605528 7.214523 2.349844 10053171
-6.240012 7.131721 0.882844 10053171
-3.090133 6.905007 0.015784 10053171
-4.400587 6.757398 0.509693 10053171
-5.169407 7.021108 2.843561 10053171
-5.332721 7.007624 2.477355 10053171
-3.685001 7.235607 1.072744 10053171
-4.835018 6.765747 0.072222 10053171
-4.729624 7.119465 0.905412 10053171
-4.083892 6.851467 1.509958 10053171
-3.538721 6.971345 0.982685 10053171
-6.950936 7.124234 0.900056 10053171
-3.902430 6.933613 1.365288 10053171
-3.593813 6.943828 2.728879 10053171
-5.506174 6.838242 2.602666 10053171
-5.396424 6.778816 2.414484 10053171
-3.039717 6.818477 2.938763 10053171
-6.148161 6.830656 2.047834 10053171
-4.442220 7.129432 0.762619 10053171
-4.520103 7.025240 0.703457 10053171
-3.176854 7.226169 2.729523 10053171
-5.882212 7.196409 2.540534 10053171
-4.238726 6.900501 2.142963 10053171
-3.198858 6.925776 0.514315 10053171
-5.011155 6.823211 1.839134 10053171
-3.724124 6.963156 0.084663 10053171
-4.306956 7.218863 0.540764 10053171
-6.200858 6.880861 1.539419 10053171
-3.856858 7.210515 0.592940 10053171
-5.448853 6.777747 1.458411 10053171
-3.216675 6.820636 2.179993 10053171
-3.449417 6.960911 0.329424 10053171
-3.956095 7.243390 2.054234 10053171
-6.177041 7.200161 0.271298 10053171
-6.556801 6.897043 0.532334 10053171
-4.643795 6.894188 1.240650 10053171
-5.154110 6.803787 0.000002 10053171
-5.456398 6.815430 0.512752 10053171
-3.771748 6.783841 0.416874 10053171
-5.351494 7.197735 0.696233 10053171
-3.176775 7.192990 1.371557 10053171
-4.938639 6.756254 2.551832 10053171
-6.732435 7.162345 1.619831 10053171
-4.818799 6.781318 1.181076 10053171
-4.085013 7.045020 1.649253 10053171
-4.085043 7.023968 1.605712 10053171
-3.508548 6.912003 2.937093 10053171
-4.078224 7.140831 2.898653 10053171
-6.625969 6.922287 1.751559 10053171
-5.185813 7.047673 1.687211 10053171
-5.116486 7.163294 2.142937 10053171
-4.518042 6.861736 0.019227 10053171
-5.348140 6.744252 2.589387 10053171
-5.190285 6.769806 1.383088 10053171
-4.092095 6.883615 0.722519 10053171
-4.391885 7.043423 1.054061 10053171
-5.208813 7.134250 0.694165 10053171
-3.758966 6.763724 1.902227 10053171
-3.652416 7.224083 2.740934 10053171
-3.355631 7.132571 1.008442 10053171
-4.058323 7.223888 2.637026 10053171
-3.095694 7.186109 2.877363 10053171
-3.581237 7.028737 1.655650 10053171
-5.315810 7.103286 0.099600 10053171
-3.929412 6.937875 2.314628 10053171
-6.406696 7.041469 2.539125 10053171
-3.114370 7.082744 2.797412 10053171
-4.860052 7.145560 0.137542 10053171
-5.897068 6.893320 0.127110 10053171
-4.279171 7.040592 0.582470 10053171
-4.601682 7.129646 0.009189 10053171
-6.614294 7.223572 1.381092 10053171
-6.047630 6.937387 0.098974 10053171
-5.827029 6.774810 2.907528 10053171
-4.466798 7.037913 2.841984 10053171
-5.624794 7.218508 2.525002 10053171
-3.115231 6.970114 0.606575 10053171
-5.747380 6.935690 0.599540 10053171
-4.080669 7.121825 1.544237 10053171
-4.668173 6.787179 1.638336 10053171
-4.992203 7.115300 1.232683 10053171
-4.443809 6.957255 0.532274 10053171
-5.291923 7.240745 0.295010 10053171
-3.867461 6.970079 0.829187 10053171
-4.248726 6.957376 2.663596 10053171
-5.269392 7.097749 1.715553 10053171
-3.021557 6.982999 0.246255 10053171
-5.431342 6.848207 1.058429 10053171
-6.567726 7.067660 2.701599 10053171
-5.115290 6.812288 1.650342 10053171
-3.036065 6.917049 0.734374 10053171
-6.569932 6.980680 1.174328 10053171
-3.072516 7.003759 0.194248 10053171
-6.271039 7.226538 1.913895 10053171
-3.679709 6.943600 1.373054 10053171
-4.151845 7.105692 0.202100 10053171
-3.835483 7.136117 1.808740 10053171
-4.187863 6.993511 1.358392 10053171
-3.084272 6.818131 0.720767 10053171
-5.603442 7.220719 0.112892 10053171
-5.695817 7.022643 2.813875 10053171
-4.803106 6.942010 1.805690 10053171
-5.939033 7.157538 2.051056 10053171
-3.330842 7.097652 0.967431 10053171
-6.495482 6.793128 0.722934 10053171
-6.596530 7.075254 1.912827 10053171
-3.748397 6.873073 0.037399 10053171
-4.626671 7.112892 2.034075 10053171
-5.609881 6.766591 2.681358 10053171
-3.960171 7.095100 0.442081 10053171
-3.918386 6.787924 1.654390 10053171
-5.376945 7.020536 0.804017 10053171
-4.858150 6.834840 1.762526 10053171
-5.771436 6.950951 1.083197 10053171
-6.608022 6.866467 0.175491 10053171
-4.533937 6.984295 1.686656 10053171
-3.701770 7.122169 2.812135 10053171
-5.692601 6.861984 0.071235 10053171
-5.678802 7.064678 0.363063 10053171
-4.248870 6.849739 0.867952 10053171
-5.865272 6.877696 2.052279 10053171
-4.907482 6.815761 2.915439 10053171
-3.173817 6.993974 2.013133 10053171
-3.628652 6.924144 1.086766 10053171
-4.789779 7.139256 2.844534 10053171
-4.528432 7.150900 1.489833 10053171
-3.450726 7.091055 1.051059 10053171
-3.160164 7.165554 0.515529 10053171
-5.425450 7.090122 0.813581 10053171
-6.658669 6.973326 2.564634 10053171
-3.283119 6.907528 2.391848 10053171
-5.853198 7.149379 2.063984 10053171
-4.663783 6.916330 1.471507 10053171
-4.301494 6.818924 2.113580 10053171
-3.011999 6.760067 2.455287 10053171
-3.028152 6.972544 1.085133 10053171
-4.379075 7.192146 0.306102 10053171
-5.495328 7.224457 2.312984 10053171
-5.595426 7.108520 1.111765 10053171
-3.883554 6.903279 1.838530 10053171
-4.663332 7.089148 2.942786 10053171
-4.751778 7.153189 2.667063 10053171
-6.283038 7.064918 1.580410 10053171
-3.125434 7.205751 0.302611 10053171
-4.513162 6.871891 2.789222 10053171
-3.049322 6.924019 1.136338 10053171
-4.439837 7.244884 2.835021 10053171
-5.031117 6.908938 2.691248 10053171
-3.208783 6.994247 0.502845 10053171
-5.964381 6.831336 0.791243 10053171
-4.676098 7.145411 0.320962 10053171
-3.016404 7.079754 0.563370 10053171
-5.436343 6.906193 1.105298 10053171
-3.922973 6.821853 0.637213 10053171
-6.048965 6.986282 2.728104 10053171
-3.322428 6.917791 0.551912 10053171
-5.746002 6.764059 2.835000 10053171
-4.196215 6.840531 0.628668 10053171
-6.609967 7.002372 2.955741 10053171
-6.922664 7.234845 2.510227 10053171
-6.890330 7.208165 0.755799 10053171
-5.262583 7.002191 2.456907 10053171
-5.216330 6.963037 1.267195 10053171
-3.179031 7.157450 1.929863 10053171
-6.382294 6.951558 1.713993 10053171
-4.063961 6.886126 0.138521 10053171
-3.489324 6.889882 0.008656 10053171
-6.103151 6.883913 1.899038 10053171
-3.115527 7.094641 0.777566 10053171
-3.564465 7.030349 2.723017 10053171
-4.247718 7.046623 2.626107 10053171
-3.445911 6.898147 2.425949 10053171
-5.131037 6.880700 2.884790 10053171
-4.460264 7.129233 1.056100 10053171
-6.636604 6.837636 2.027715 10053171
-3.842507 6.880651 2.288687 10053171
-3.556441 6.987336 1.027296 10053171
-4.287691 6.755475 0.882193 10053171
-3.861466 7.027926 1.011158 10053171
-5.339668 6.977133 2.055891 10053171
-3.230577 6.838115 0.502177 10053171
-3.411426 7.266895 0.661442 10053171
-6.371303 6.741923 1.228946 10053171
-5.804620 7.242318 1.594335 10053171
-3.791353 6.885924 0.820109 10053171
-6.567457 6.856428 1.604048 10053171
-4.366942 6.807001 0.957941 10053171
-5.664007 6.909365 0.076526 10053171
-4.423493 7.023200 1.198612 10053171
-4.178123 6.909157 2.114942 10053171
-3.263372 7.180724 1.295388 10053171
-3.752888 7.212758 2.656005 10053171
-5.878182 6.826677 0.044683 10053171
-5.690319 6.810692 1.571109 10053171
-4.938526 6.947419 2.473971 10053171
-6.082365 7.045773 1.121039 10053171
-6.745503 7.236691 2.110850 10053171
-5.453267 6.857851 1.242197 10053171
-6.168781 6.893635 2.910741 10053171
-5.544625 6.781168 2.417989 10053171
-4.519394 7.167844 1.521958 10053171
-5.295988 6.853720 0.614559 10053171
-6.024126 7.240845 1.486395 10053171
-3.514386 6.862426 2.525436 10053171
-5.686818 6.940626 2.282809 10053171
-6.072363 6.969389 1.475101 10053171
-6.563510 6.882807 1.246200 10053171
-6.786776 7.073357 2.629936 10053171
-6.560543 6.870541 1.857876 10053171
-6.065699 6.997136 2.794875 10053171
-4.200680 7.181925 2.774784 10053171
-4.901923 7.073977 2.191542 10053171
-4.859895 7.119890 0.052561 10053171
-4.091012 6.816501 1.578219 10053171
-6.986510 7.242830 0.311379 10053171
-5.491464 7.145436 0.038234 10053171
-3.515459 6.801234 0.725533 10053171
-6.072820 6.787020 0.892430 10053171
-3.545554 6.825586 2.852731 10053171
-3.543368 7.169646 0.908948 10053171
-5.192866 6.833144 2.964578 10053171
-6.971674 6.874672 2.322601 10053171
-4.329400 6.861276 0.563769 10053171
-4.561029 6.859715 0.876444 10053171
-3.496094 6.829693 0.291616 10053171
-6.431062 6.991568 1.151847 10053171
-5.284897 7.237097 1.657207 10053171
-4.209407 7.198016 1.717946 10053171
-5.751912 7.126615 0.942539 10053171
-4.645308 6.958690 2.945483 10053171
-5.850626 7.057404 1.032897 10053171
-5.175084 7.146476 0.287843 10053171
-4.813664 6.846718 2.729621 10053171
-3.320064 7.010097 0.791536 10053171
-3.903686 7.039446 1.825359 10053171
-5.788128 6.993888 1.296568 10053171
-3.312095 6.961925 1.643895 10053171
-3.002538 7.207751 0.793097 10053171
-3.201570 7.224721 2.773839 10053171
-3.149358 7.181055 2.298297 10053171
-6.070419 6.935874 2.250562 10053171
-6.823638 7.049745 2.049235 10053171
-4.075416 6.804738 1.170049 10053171
-3.182280 7.237873 1.688237 10053171
-6.911943 7.170299 1.474206 10053171
-4.304271 6.901774 1.100563 10053171
-5.300776 7.044082 0.086863 10053171
-6.806755 7.166831 2.894567 10053171
-4.237825 6.818229 2.453323 10053171
-3.459095 7.028422 2.669225 10053171
-3.078418 6.792493 1.140617 10053171
-3.485232 7.222193 0.553599 10053171
-3.460817 6.931067 2.301618 10053171
-4.109400 7.076902 2.693365 10053171
-3.748754 7.065878 2.915939 10053171
-5.765481 6.925937 0.490491 10053171
-4.757957 7.112523 1.546063 10053171
5.905495 -5.972062 1.155481 8342706
6.121147 -5.718144 1.792214 8342706
5.446789 -6.103047 3.648492 8342706
6.186645 -6.480116 0.554442 8342706
5.448283 -6.233448 3.040574 8342706
6.183153 -6.441920 4.070519 8342706
6.346558 -6.035299 4.903438 8342706
6.186284 -5.631182 0.318414 8342706
6.005111 -6.152472 4.006439 8342706
6.179735 -6.000735 0.479101 8342706
5.587218 -5.660249 2.006009 8342706
6.165005 -6.432673 3.325961 8342706
6.542927 -5.796276 4.844042 8342706
6.060097 -5.599826 2.406877 8342706
6.456275 -5.959092 1.327448 8342706
6.094338 -6.227897 2.942596 8342706
6.537394 -5.854400 0.272388 8342706
6.341217 -6.439776 3.000334 8342706
6.293535 -5.509739 2.230879 8342706
6.471813 -6.370529 2.666048 8342706
6.201537 -6.090741 2.963082 8342706
6.283171 -5.591162 2.039563 8342706
5.617939 -6.294350 3.517015 8342706
5.820563 -5.577578 0.211464 8342706
5.648925 -5.770154 0.505769 8342706
6.501482 -5.793169 1.415591 8342706
6.021106 -5.448496 0.759499 8342706
6.221904 -6.323211 1.513397 8342706
6.430490 -6.159669 1.604233 8342706
6.525157 -6.024288 3.464602 8342706
5.618940 -6.191215 3.386438 8342706
5.831521 -6.189270 4.717898 8342706
5.788376 -5.519547 2.040719 8342706
6.329822 -5.768776 2.911786 8342706
6.246779 -5.940911 3.529184 8342706
5.436439 -6.102352 0.534472 8342706
6.413558 -5.826730 1.986074 8342706
5.889374 -5.779313 1.739553 8342706
5.744072 -5.872160 3.166737 8342706
5.649506 -6.169127 1.845585 8342706
5.797020 -5.523462 0.770956 8342706
6.468610 -6.084688 0.379252 8342706
5.986955 -6.133878 4.303112 8342706
5.579618 -6.218296 4.574596 8342706
5.734418 -5.772668 4.160968 8342706
5.740926 -5.928123 3.121113 8342706
6.030781 -5.989500 1.426386 8342706
6.405964 -6.284191 2.008453 8342706
5.666476 -5.731440 3.097909 8342706
6.287291 -6.080160 3.914973 8342706
5.405732 -5.992466 4.584572 8342706
5.963622 -5.461990 4.484732 8342706
5.493412 -5.969779 3.217621 8342706
6.413363 -5.963198 1.939488 8342706
6.171660 -6.495691 4.284876 8342706
6.392148 -5.883103 1.198572 8342706
5.399931 -5.960784 2.335849 8342706
5.520443 -5.748600 4.323027 8342706
6.439942 -5.971638 2.999314 8342706
6.120003 -5.668690 4.850310 8342706
6.286922 -5.856177 2.107996 8342706
5.812368 -5.466187 2.076629 8342706
5.873782 -6.329021 3.549961 8342706
5.991353 -5.489220 3.503062 8342706
5.755182 -6.025628 4.534174 8342706
5.865516 -6.084776 1.739606 8342706
6.160483 -5.756161 2.002905 8342706
6.159192 -6.307114 1.954439 8342706
5.774300 -6.234363 1.538759 8342706
5.610826 -6.247309 1.046978 8342706
5.857668 -6.385525 1.257477 8342706
5.947694 -5.953954 3.030838 8342706
6.060598 -6.132187 4.757861 8342706
5.793365 -5.795577 0.597742 8342706
5.724431 -6.074444 2.520967 8342706
5.967188 -5.999270 3.160033 8342706
5.468301 -6.220668 1.924573 8342706
6.082256 -5.600204 0.130709 8342706
6.434983 -5.945957 1.217172 8342706
6.554854 -6.067476 3.875005 8342706
6.051396 -6.222986 3.290890 8342706
5.559074 -5.668515 1.964375 8342706
6.112298 -6.267137 4.464878 8342706
6.117810 -5.580352 4.646119 8342706
6.425483 -5.686482 0.227295 8342706
5.957192 -6.167549 2.708497 8342706
6.233190 -5.988255 2.410512 8342706
5.511723 -6.156447 3.687572 8342706
6.038595 -6.308431 2.009498 8342706
5.873075 -6.317109 1.001018 8342706
6.177453 -6.411953 4.423083 8342706
5.544105 -5.948524 3.874214 8342706
5.686343 -6.388910 2.523108 8342706
6.114942 -6.492420 1.405257 8342706
5.843817 -5.873885 4.509684 8342706
5.597482 -5.779758 2.333911 8342706
6.470403 -5.857949 2.621915 8342706
6.103096 -6.418398 0.604905 8342706
5.564673 -6.147817 1.868967 8342706
6.293029 -6.029534 1.860616 8342706
6.573100 -6.059120 3.605499 8342706
5.668868 -6.395757 0.609810 8342706
5.674959 -6.464211 0.782896 8342706
6.216513 -6.004977 2.555271 8342706
5.651917 -6.011208 3.292137 8342706
5.752712 -5.563472 4.701623 8342706
5.774903 -6.241127 4.030931 8342706
5.635525 -5.826911 1.214737 8342706
6.429326 -5.988679 4.448958 8342706
5.828268 -5.619286 3.507346 8342706
6.026137 -5.796733 0.919714 8342706
6.153069 -6.371955 1.765864 8342706
6.148017 -5.801291 1.589647 8342706
5.957162 -5.765047 4.060033 8342706
6.055084 -6.212728 4.603691 8342706
5.783398 -6.160140 0.225212 8342706
5.903994 -5.632757 1.664706 8342706
6.202657 -5.637504 3.877685 8342706
5.701359 -5.957493 3.134978 8342706
5.808914 -6.184473 2.595959 8342706
5.675419 -5.867933 2.906969 8342706
5.615050 -6.228666 3.729676 8342706
5.888446 -6.561226 1.073348 8342706
6.128158 -5.816034 1.656690 8342706
6.306098 -6.335885 0.546760 8342706
6.354830 -5.676306 2.294801 8342706
6.137828 -5.578773 3.078059 8342706
5.660421 -5.674757 1.214281 8342706
5.991252 -5.718544 3.700321 8342706
6.201985 -6.027808 4.397989 8342706
6.512982 -6.113952 2.679873 8342706
6.349656 -6.155670 3.359255 8342706
5.683789 -6.301646 4.708153 8342706
6.279052 -5.525051 4.630915 8342706
6.001256 -6.209139 3.551604 8342706
5.772233 -5.630149 2.586694 8342706
6.070062 -6.573776 4.478303 8342706
5.549635 -5.772223 4.267632 8342706
5.537663 -6.152383 2.888420 8342706
6.111179 -5.640272 2.487254 8342706
5.687268 -5.899709 4.044000 8342706
5.875272 -5.439239 3.071831 8342706
6.500155 -5.804189 0.130288 8342706
6.049647 -5.445438 0.398480 8342706
6.394684 -5.750049 0.059489 8342706
6.048906 -5.774569 0.519637 8342706
5.645783 -5.710940 3.074344 8342706
6.351169 -6.230319 1.518744 8342706
6.125527 -5.791787 2.472342 8342706
5.769033 -6.142505 1.607540 8342706
6.008365 -6.203840 0.112498 8342706
5.858069 -6.053776 3.757153 8342706
5.741941 -6.155567 3.397081 8342706
6.308057 -6.244942 4.583920 8342706
6.333910 -6.457345 3.366240 8342706
6.033398 -6.559343 4.159614 8342706
5.998163 -5.670113 4.222296 8342706
5.705126 -5.631235 4.222235 8342706
6.186344 -5.877159 1.881445 8342706
5.504380 -6.241930 4.656735 8342706
5.912044 -6.316805 4.681799 8342706
6.053250 -6.442416 1.303117 8342706
6.122365 -5.621971 2.035804 8342706
5.947135 -6.205878 1.700351 8342706
6.031464 -6.016926 4.548658 8342706
6.092895 -5.629128 1.144572 8342706
6.136597 -6.302767 1.571167 8342706
5.753513 -5.735783 0.110353 8342706
6.339315 -6.164133 3.032087 8342706
6.091893 -5.570263 2.639235 8342706
6.286153 -5.865642 1.014809 8342706
5.608539 -6.084486 1.919106 8342706
5.726813 -5.663643 2.241666 8342706
5.793168 -5.638486 2.590972 8342706
5.496080 -5.931616 3.586415 8342706
6.024831 -5.826818 1.880933 8342706
5.715457 -5.875708 1.472153 8342706
5.748280 -6.256414 2.819207 8342706
5.993778 -6.300504 4.905644 8342706
5.990894 -6.434887 4.811788 8342706
6.063238 -5.612387 3.839253 8342706
5.604912 -5.580978 2.002092 8342706
6.525367 -6.036118 4.249235 8342706
5.654126 -5.584950 1.942575 8342706
6.087528 -6.465235 1.694101 8342706
5.604033 -6.234474 1.858777 8342706
6.333011 -5.921142 3.491851 8342706
6.494025 -5.824504 3.829252 8342706
6.442070 -6.095783 3.864052 8342706
6.138778 -5.847736 3.362029 8342706
6.145014 -6.394788 1.037198 8342706
5.669247 -6.143124 3.339922 8342706
6.506221 -6.319148 0.138055 8342706
6.395860 -6.087664 4.928650 8342706
5.427527 -5.918696 3.782722 8342706
6.471455 -6.020390 0.209125 8342706
6.244209 -5.639818 3.732076 8342706
6.099560 -6.004739 2.471653 8342706
6.283580 -5.969627 0.686931 8342706
6.416382 -5.981861 2.409098 8342706
6.098484 -6.501945 2.784181 8342706
6.395606 -6.066681 1.394196 8342706
6.211436 -5.649637 1.095182 8342706
6.270267 -5.576393 4.336951 8342706
6.182864 -6.451091 0.720781 8342706
5.621627 -6.038792 3.190446 8342706
6.537435 -5.786806 1.094011 8342706
6.172983 -5.791781 2.593833 8342706
5.998311 -6.073182 2.545711 8342706
6.361733 -5.697382 1.819917 8342706
5.980456 -6.094112 3.840056 8342706
6.487401 -6.008628 1.587961 8342706
5.491648 -6.280539 0.732434 8342706
5.836886 -6.349299 4.995537 8342706
6.469593 -5.778225 3.967350 8342706
6.228886 -6.009723 0.126335 8342706
6.267835 -5.832491 3.593521 8342706
6.492970 -6.064175 4.574852 8342706
5.918489 -6.050793 3.145628 8342706
6.398121 -6.253923 1.772375 8342706
6.037453 -5.439029 1.959082 8342706
5.440311 -5.961553 4.248461 8342706
6.088693 -6.067872 2.971741 8342706
6.261102 -5.945564 3.254121 8342706
5.659934 -6.186297 3.351310 8342706
6.140656 -6.356741 4.411510 8342706
6.097416 -5.519228 4.121014 8342706
5.938471 -5.843945 2.901890 8342706
5.429274 -6.101053 2.070434 8342706
6.306431 -6.435385 4.875241 8342706
5.650882 -6.401077 2.922575 8342706
6.321456 -6.336220 2.375001 8342706
6.441426 -5.813256 1.054370 8342706
6.463001 -5.887650 2.272191 8342706
5.983283 -5.513644 2.059994 8342706
6.227806 -5.746451 0.460276 8342706
5.890227 -6.283646 1.575061 8342706
6.401894 -5.754430 2.444089 8342706
6.380908 -5.542726 4.089450 8342706
6.484046 -6.173936 1.469869 8342706
6.156097 -5.803764 3.270141 8342706
5.718603 -6.400196 3.094344 8342706
6.255781 -5.548361 4.467013 8342706
6.027251 -5.885724 0.774421 8342706
5.578972 -6.379145 4.384774 8342706
5.596313 -5.730297 4.262975 8342706
6.220801 -5.823729 1.376714 8342706
5.734717 -5.801613 1.065382 8342706
5.853440 -6.103048 0.629041 8342706
6.189635 -5.438971 1.196555 8342706
6.271939 -5.520418 1.168368 8342706
5.669989 -6.264033 4.277760 8342706
5.936861 -6.045557 4.942958 8342706
6.210479 -5.569402 3.794120 8342706
5.662573 -6.033453 4.264043 8342706
6.076191 -6.565612 4.286662 8342706
5.683845 -5.728371 3.954570 8342706
5.548676 -6.093503 3.760344 8342706
6.241002 -6.412467 1.041539 8342706
6.558023 -5.946144 0.489073 8342706
5.994188 -5.537729 2.934459 8342706
6.215255 -6.405965 1.646176 8342706
5.494289 -6.226468 3.927737 8342706
5.610507 -6.435475 2.813217 8342706
5.808939 -5.514755 2.261838 8342706
6.524849 -6.230390 2.093811 8342706
6.063249 -6.385470 0.534364 8342706
5.441570 -5.844875 2.588726 8342706
5.824072 -5.664348 2.535770 8342706
6.294795 -6.092297 0.226512 8342706
6.047931 -5.603407 4.358590 8342706
6.507211 -6.284804 4.451410 8342706
5.818763 -6.421346 4.410676 8342706
5.450492 -5.766565 4.331676 8342706
5.957921 -5.490242 1.519881 8342706
6.511469 -6.216056 4.013751 8342706
6.374517 -6.164289 1.432692 8342706
5.811118 -6.170684 3.747768 8342706
6.114254 -6.334964 1.942142 8342706
5.555609 -5.649512 3.385995 8342706
5.778884 -6.456526 3.537520 8342706
5.502916 -5.691078 3.950525 8342706
6.183873 -5.554189 0.031809 8342706
6.340919 -5.942375 2.639843 8342706
6.382479 -6.078979 1.741577 8342706
5.796322 -5.789147 3.213373 8342706
6.047750 -5.818099 3.157720 8342706
6.309671 -6.061786 2.025182 8342706
6.395461 -5.814004 2.195304 8342706
6.062593 -5.793208 0.116366 8342706
5.834579 -6.057308 0.090251 8342706
6.227856 -6.450784 0.879252 8342706
6.359393 -6.489995 0.732115 8342706
6.140613 -6.348658 4.239513 8342706
5.871441 -6.509014 1.811559 8342706
5.644953 -5.906682 0.998291 8342706
5.791971 -5.665663 2.704268 8342706
6.204033 -5.746246 0.427562 8342706
6.075986 -5.408723 2.092617 8342706
6.009191 -6.497002 1.067340 8342706
6.244294 -5.558859 1.294305 8342706
6.452447 -5.671849 3.635003 8342706
6.483848 -6.256622 0.315625 8342706
5.777574 -5.911949 4.035092 8342706
6.171826 -6.095653 1.738913 8342706
6.119009 -6.222973 3.246409 8342706
5.613113 -6.252308 3.707772 8342706
6.523981 -6.149779 1.846986 8342706
6.263940 -6.226784 1.696824 8342706
5.549251 -5.801241 2.486472 8342706
6.394347 -6.400607 2.025834 8342706
6.131207 -6.207104 3.580851 8342706
6.157651 -6.591427 4.306181 8342706
6.429239 -6.382652 3.682346 8342706
6.108182 -5.532861 2.007476 8342706
6.086845 -5.458507 0.893155 8342706
6.154442 -6.432556 1.173093 8342706
5.665820 -6.069849 0.127049 8342706
5.852628 -5.617973 2.613740 8342706
5.797453 -6.378569 2.626826 8342706
6.086164 -5.493388 3.490019 8342706
5.777873 -6.293838 3.390822 8342706
6.315485 -6.343656 1.083211 8342706
5.810139 -6.545660 4.768513 8342706
6.253771 -5.691575 4.912873 8342706
6.003441 -6.473564 1.874340 8342706
5.687893 -5.786127 0.301640 8342706
6.301339 -5.523827 4.333416 8342706
5.600525 -5.850781 4.357346 8342706
6.238690 -5.594205 0.477642 8342706
6.296650 -6.368567 4.031558 8342706
6.169748 -6.543013 0.552123 8342706
6.172351 -5.837187 1.028032 8342706
6.427312 -6.168622 2.777483 8342706
6.057467 -6.392254 3.720693 8342706
5.997431 -5.546736 2.046073 8342706
6.456502 -6.193707 3.289164 8342706
6.103086 -5.441791 0.247117 8342706
5.486666 -5.695295 4.403348 8342706
6.174458 -6.346893 1.679827 8342706
6.425433 -5.580536 1.858708 8342706
5.885596 -6.113214 0.928073 8342706
6.363258 -5.584223 3.704707 8342706
5.641721 -6.144967 3.739145 8342706
6.519776 -5.931383 1.173967 8342706
5.731278 -6.011697 2.415297 8342706
6.260540 -6.360940 2.921921 8342706
5.713516 -6.380304 4.085042 8342706
6.054652 -6.281673 3.895487 8342706
6.409556 -5.560608 4.936132 8342706
6.515219 -6.277725 4.670018 8342706
6.028926 -5.928696 3.886267 8342706
6.174569 -6.360788 4.335116 8342706
5.713968 -6.213210 2.005158 8342706
6.445311 -5.885297 2.117307 8342706
6.461407 -5.975904 2.213960 8342706
5.864529 -5.448938 1.054629 8342706
6.485955 -5.795508 0.292457 8342706
5.849402 -5.494637 1.394847 8342706
6.246130 -5.708483 4.840248 8342706
5.970366 -5.642787 1.230594 8342706
6.499238 -5.805167 2.268049 8342706
5.773814 -6.206059 3.692724 8342706
6.271530 -6.206108 1.529990 8342706
5.981434 -6.397301 3.984680 8342706
5.992057 -5.816988 2.281441 8342706
6.163383 -6.045145 4.096137 8342706
6.159209 -6.413250 4.329406 8342706
6.280835 -5.608469 4.742617 8342706
6.349470 -5.819361 3.609886 8342706
5.984119 -5.791838 3.188293 8342706
6.540567 -5.890383 3.051824 8342706
6.296417 -5.853688 2.842481 8342706
6.292693 -6.340916 1.999469 8342706
5.763199 -5.711463 3.612097 8342706
5.697167 -5.721205 3.076015 8342706
6.268032 -5.982136 1.468295 8342706
6.389062 -6.233692 1.097254 8342706
5.836461 -5.583324 2.979718 8342706
5.508354 -5.888639 0.124524 8342706
5.640727 -5.646708 0.435522 8342706
5.621208 -5.582890 2.880837 8342706
6.012420 -5.517837 2.137074 8342706
5.518034 -6.113808 1.888419 8342706
6.121096 -5.496655 3.493702 8342706
5.440672 -5.922062 4.596719 8342706
5.466989 -5.787995 2.894617 8342706
6.197780 -6.314606 1.858681 8342706
5.565101 -6.385029 0.851197 8342706
5.881867 -6.501872 1.615571 8342706
6.086238 -6.345290 3.426593 8342706
5.981296 -6.492651 4.602799 8342706
6.360189 -6.169108 0.802279 8342706
6.493040 -6.342719 1.441367 8342706
6.545279 -5.917957 3.410802 8342706
5.585565 -6.082462 1.104768 8342706
6.263779 -6.283645 1.952134 8342706
6.174545 -6.295421 2.943884 8342706
6.072419 -6.516870 4.968452 8342706
5.988732 -6.453009 0.602369 8342706
6.284245 -5.773399 1.749956 8342706
6.391492 -5.916385 1.297681 8342706
6.242065 -6.411529 0.492013 8342706
6.297419 -6.137898 2.903820 8342706
6.501588 -6.151511 0.100410 8342706
6.087225 -5.669702 1.217776 8342706
6.466288 -6.269374 4.289916 8342706
6.448321 -5.650836 4.797975 8342706
6.515494 -6.169426 3.624940 8342706
6.322720 -6.332768 1.595072 8342706
5.754446 -6.296903 0.432880 8342706
6.168880 -5.596646 2.695349 8342706
6.229169 -6.033820 3.861872 8342706
6.319736 -5.851763 0.403866 8342706
6.185417 -5.836133 3.946120 8342706
5.781798 -6.418215 3.292277 8342706
6.409178 -6.216897 0.017631 8342706
6.353151 -5.753017 1.353100 8342706
6.286214 -5.998787 4.232635 8342706
6.340965 -6.091829 2.032433 8342706
5.773780 -5.571700 4.364208 8342706
5.824355 -6.020296 0.848158 8342706
6.037068 -5.740831 4.177302 8342706
5.523828 -5.736755 3.985677 8342706
6.475587 -6.131695 1.755415 8342706
6.300845 -6.449573 1.711565 8342706
6.277389 -6.206617 4.635996 8342706
5.520772 -6.334660 1.242194 8342706
6.004863 -6.227363 3.463841 8342706
6.228602 -5.561437 3.770704 8342706
6.027372 -6.575081 3.677844 8342706
5.934308 -6.011429 1.754101 8342706
5.805140 -5.653466 2.747501 8342706
6.170086 -6.310798 0.936610 8342706
6.168500 -5.999180 3.879961 8342706
6.122293 -6.289155 1.984237 8342706
5.761482 -6.151916 1.023600 8342706
6.584172 -6.011953 1.747118 8342706
5.751863 -6.104980 4.291354 8342706
6.468923 -5.757993 1.030451 8342706
5.571446 -5.864992 0.791088 8342706
6.319641 -6.009130 5.006845 8342706
6.181761 -6.550676 4.099354 8342706
6.065822 -6.428502 4.731054 8342706
6.001864 -5.813190 1.408397 8342706
6.525424 -6.162805 4.986411 8342706
6.130681 -6.063610 1.664454 8342706
5.849891 -5.956213 2.088360 8342706
5.735333 -5.967338 3.032702 8342706
6.484991 -6.261661 4.104688 8342706
5.491314 -5.877394 3.589173 8342706
6.165186 -6.108160 0.986180 8342706
5.854065 -6.268348 1.893736 8342706
5.949049 -5.636301 2.396345 8342706
6.316104 -6.277700 0.085480 8342706
5.811589 -5.573475 4.540386 8342706
5.965682 -5.490473 4.049067 8342706
5.777200 -5.449216 3.573524 8342706
6.402658 -6.356218 1.563995 8342706
5.501374 -6.018172 4.720058 8342706
6.047209 -6.532611 0.133733 8342706
6.532449 -5.958168 1.484510 8342706
6.371493 -5.572206 3.360198 8342706
5.791467 -5.887342 0.819117 8342706
5.997768 -6.000948 0.899340 8342706
5.622013 -5.926026 2.214865 8342706
5.720680 -5.628398 2.295945 8342706
5.781825 -6.120785 3.543933 8342706
6.343276 -5.491899 1.155018 8342706
5.634786 -5.770323 4.821808 8342706
5.898778 -5.784706 0.079447 8342706
5.644167 -6.464135 2.448484 8342706
5.871599 -6.458269 3.656333 8342706
6.041321 -6.578310 0.593386 8342706
6.062704 -5.711531 1.737108 8342706
6.092052 -5.898254 1.780453 8342706
6.166914 -5.770201 4.157057 8342706
5.489630 -6.269156 4.963376 8342706
6.560110 -5.835193 2.154694 8342706
6.234631 -6.446249 3.906526 8342706
6.233781 -5.695015 2.530290 8342706
6.212867 -6.371370 2.391700 8342706
6.073807 -5.633265 4.476962 8342706
5.631030 -6.289605 3.467814 8342706
5.983737 -6.446568 2.731190 8342706
6.567006 -6.080713 0.456217 8342706
5.729982 -5.657353 4.794812 8342706
6.297010 -5.782834 0.286869 8342706
5.951910 -5.747758 4.695472 8342706
6.084888 -5.547466 2.435000 8342706
6.373129 -5.943113 1.883592 8342706
5.863060 -6.328352 3.441272 8342706
6.071747 -5.682926 4.239286 8342706
6.462976 -5.847876 0.463790 8342706
6.384480 -5.784031 4.614304 8342706
6.247619 -6.046753 2.774986 8342706
6.327098 -6.247147 0.701364 8342706
5.433402 -6.019520 2.428053 8342706
5.713537 -5.947951 4.313347 8342706
6.260561 -5.916417 4.823028 8342706
6.298725 -5.559554 1.389967 8342706
5.813754 -6.228515 4.046245 8342706
6.451645 -5.684461 4.614938 8342706
5.865835 -5.507982 4.364500 8342706
5.668869 -5.853434 0.489646 8342706
6.424048 -5.829031 3.476978 8342706
6.365627 -5.759374 0.646644 8342706
5.674468 -6.072276 0.755567 8342706
