# .PCD v0.7 - Point Cloud Data file format
VERSION 0.7
FIELDS x y z rgb
SIZE 4 4 4 4
TYPE F F F U
COUNT 1 1 1 1
WIDTH 1309
HEIGHT 1
VIEWPOINT 0 0 0 1 0 0 0
POINTS 1309
DATA ascii
-3.647571 7.378266 1.036181 15014169
-4.080553 7.195648 1.592771 15014169
-4.069839 7.777164 1.312736 15014169
-3.679172 7.660336 0.494364 15014169
-3.548828 7.633234 1.052818 15014169
-3.755736 7.467752 0.940410 15014169
-3.517774 7.316302 0.391939 15014169
-3.460762 7.449215 1.361635 15014169
-3.629523 7.504681 0.487508 15014169
-3.929492 7.439226 1.085933 15014169
-3.523740 7.354811 0.866871 15014169
-3.497603 7.701397 0.438569 15014169
-4.000303 7.596244 1.104261 15014169
-3.421151 7.654153 1.445236 15014169
-3.953462 7.485257 1.178429 15014169
-4.109451 7.497125 0.932936 15014169
-3.864976 7.326767 1.556859 15014169
-4.092348 7.352244 0.692261 15014169
-3.440909 7.138904 0.933578 15014169
-3.908607 7.613186 1.283442 15014169
-3.639311 7.750996 1.624593 15014169
-4.062476 7.219948 0.362546 15014169
-3.462936 7.803726 0.816457 15014169
-4.061378 7.214828 1.547190 15014169
-3.807377 7.272243 1.181414 15014169
-3.564876 7.452581 0.349345 15014169
-3.821808 7.726422 0.468346 15014169
-4.024811 7.679476 0.508185 15014169
-4.026161 7.291378 0.705946 15014169
-3.882994 7.682491 0.638524 15014169
-4.038917 7.199544 0.807407 15014169
-3.943679 7.695470 1.150092 15014169
-3.903569 7.841918 0.891090 15014169
-3.475868 7.338261 0.729483 15014169
-3.433614 7.164986 1.522578 15014169
-3.444105 7.366264 1.588290 15014169
-3.463772 7.825155 0.472880 15014169
-3.701680 7.683710 1.318521 15014169
-3.552225 7.120162 1.645529 15014169
-3.986094 7.123994 1.673414 15014169
-3.974076 7.705873 0.298568 15014169
-4.099008 7.176710 1.185589 15014169
-3.933800 7.422717 1.654989 15014169
-3.971313 7.296969 0.962368 15014169
-3.901269 7.497488 0.938640 15014169
-3.876419 7.126726 1.369984 15014169
-3.489968 7.368752 0.960597 15014169
-4.073383 7.646183 0.635078 15014169
-4.009001 7.231074 0.581496 15014169
-3.606003 7.410908 1.282078 15014169
-4.012008 7.276299 1.449004 15014169
-4.096809 7.287189 1.499678 15014169
-3.636809 7.309640 1.446964 15014169
-3.991542 7.515093 1.145777 15014169
-3.421654 7.596246 0.770819 15014169
-3.754083 7.309572 1.678167 15014169
-3.818675 7.208610 1.667061 15014169
-3.475779 7.501866 0.351392 15014169
-3.533162 7.761329 1.191476 15014169
-3.920431 7.786187 0.320093 15014169
-3.895045 7.374755 1.491093 15014169
-4.111642 7.575795 1.094136 15014169
-3.882728 7.182631 0.522943 15014169
-3.637926 7.156811 0.398011 15014169
-3.784010 7.494458 0.329207 15014169
-3.741753 7.210745 0.452675 15014169
-3.620850 7.335889 1.403295 15014169
5.939360 -5.161841 0.482687 1645029
5.914660 -4.862966 1.204565 1645029
5.412004 -5.364048 1.051815 1645029
5.644897 -5.114250 1.013188 1645029
5.733607 -5.057976 1.193047 1645029
5.644479 -5.073293 1.481477 1645029
5.690276 -5.029854 0.615075 1645029
5.539399 -4.912766 1.272916 1645029
5.803668 -5.089001 0.938344 1645029
5.768101 -5.521380 0.613542 1645029
6.256767 -5.252896 1.089915 1645029
6.066522 -5.494901 1.267112 1645029
5.580083 -5.231932 0.602463 1645029
6.191871 -5.385327 1.237827 1645029
5.620608 -5.236553 0.842368 1645029
5.414776 -4.967142 1.156110 1645029
5.299306 -5.466177 0.965862 1645029
5.950052 -4.881700 1.150529 1645029
6.025439 -5.049444 1.265340 1645029
5.747351 -5.326524 0.906351 1645029
6.005451 -5.428118 1.143148 1645029
5.593204 -5.445072 1.327022 1645029
5.906839 -4.933150 1.259729 1645029
5.755033 -5.589945 0.686781 1645029
5.870518 -5.677166 0.775989 1645029
5.637321 -4.975645 1.136779 1645029
5.871107 -5.493248 0.866400 1645029
5.699501 -5.207786 0.930808 1645029
6.102657 -5.190384 1.033751 1645029
6.014341 -5.331015 1.127125 1645029
5.570323 -5.399487 0.869697 1645029
5.433806 -5.175490 0.635791 1645029
5.559229 -5.195632 1.347997 1645029
5.611697 -5.217083 0.889480 1645029
6.145903 -5.526839 0.941988 1645029
5.736677 -5.198536 1.071846 1645029
5.814922 -4.831775 1.075391 1645029
5.312333 -5.534816 1.067450 1645029
5.827527 -5.176784 1.140846 1645029
5.550011 -5.570176 1.084212 1645029
5.588017 -5.376622 0.506588 1645029
5.382210 -5.270360 0.867128 1645029
6.003765 -5.387314 1.136651 1645029
5.775578 -5.298796 1.208939 1645029
5.607973 -5.081536 0.686797 1645029
5.902181 -5.121446 0.665601 1645029
5.887328 -4.848255 1.017831 1645029
5.856393 -5.222949 0.889963 1645029
5.683516 -5.253655 0.668091 1645029
6.062666 -5.547669 0.817678 1645029
5.663138 -5.670848 0.965857 1645029
6.135435 -5.306929 0.965746 1645029
5.709130 -5.426526 0.861513 1645029
5.602669 -5.541553 1.351096 1645029
5.686931 -5.111652 0.516405 1645029
6.183691 -5.278379 1.275513 1645029
5.456511 -4.933115 0.726152 1645029
5.448077 -5.046762 0.662265 1645029
5.881565 -5.716082 0.908542 1645029
5.495800 -5.407784 0.885614 1645029
5.765349 -5.685209 0.954138 1645029
5.874637 -5.327825 0.961755 1645029
5.471016 -5.350859 1.007023 1645029
5.652355 -4.988366 0.886337 1645029
5.665949 -4.748964 0.950562 1645029
5.545705 -5.325871 1.396564 1645029
5.631111 -5.369463 1.156458 1645029
5.881838 -5.084941 1.239396 1645029
6.114017 -5.151916 1.122807 1645029
6.216673 -5.150705 1.004635 1645029
5.461693 -5.595440 1.232101 1645029
6.035732 -4.936221 1.045127 1645029
6.147094 -5.260365 1.039816 1645029
5.512288 -5.037571 0.585653 1645029
5.641111 -4.948268 1.242108 1645029
5.793778 -4.843431 1.044289 1645029
5.961809 -5.064185 0.876954 1645029
5.744908 -5.061484 0.547904 1645029
6.081673 -5.235817 1.005830 1645029
6.103339 -5.006548 1.213366 1645029
3.448369 -8.564617 0.606423 1690649
3.184389 -9.012088 0.801393 1690649
3.410264 -8.939330 0.700222 1690649
2.830479 -9.013106 1.302284 1690649
3.509413 -8.829442 0.488305 1690649
3.209756 -8.759270 0.600488 1690649
3.429018 -8.843012 1.015549 1690649
3.177069 -8.964239 1.066751 1690649
3.672510 -8.930800 1.346752 1690649
3.012768 -8.868572 0.945452 1690649
3.661802 -8.779676 0.532199 1690649
3.323579 -9.005279 1.748413 1690649
3.225742 -9.213820 0.181502 1690649
2.948606 -8.666632 1.070591 1690649
3.347299 -8.550673 1.042090 1690649
3.457458 -9.202261 1.152689 1690649
3.656181 -8.981174 1.004604 1690649
3.100152 -9.014702 0.570727 1690649
3.414622 -8.754408 1.402293 1690649
3.335395 -8.922682 1.120951 1690649
3.343137 -8.468792 1.719785 1690649
3.343934 -9.262007 1.171564 1690649
2.851920 -9.033239 0.865971 1690649
2.830976 -9.037657 0.880666 1690649
2.972611 -8.493291 1.537756 1690649
3.416990 -8.985751 1.844333 1690649
2.920065 -8.963524 1.414380 1690649
3.433747 -8.553092 1.827615 1690649
3.263646 -9.168321 0.631628 1690649
3.478874 -8.615978 1.231611 1690649
3.065590 -8.545582 1.426406 1690649
3.099651 -8.716163 1.597901 1690649
3.634788 -9.071646 0.976790 1690649
3.059552 -8.751819 0.765935 1690649
3.272477 -8.989333 1.050918 1690649
3.539316 -8.504375 1.114574 1690649
2.853326 -8.826497 0.546722 1690649
3.320096 -8.647307 0.618104 1690649
2.945952 -8.986713 1.278261 1690649
3.291301 -8.579473 1.870885 1690649
3.413587 -8.709581 1.083644 1690649
3.116163 -9.169726 0.334478 1690649
3.374376 -8.694528 1.903302 1690649
3.243282 -9.143890 0.994366 1690649
2.974358 -8.535831 1.897485 1690649
3.482789 -9.017066 1.141954 1690649
3.283346 -9.202039 1.441072 1690649
3.199319 -8.702623 0.998304 1690649
3.115044 -8.461037 1.046549 1690649
3.218513 -8.489983 1.358763 1690649
3.067183 -8.690503 1.218069 1690649
3.414007 -8.448218 0.413116 1690649
3.635694 -8.738858 1.509861 1690649
3.053031 -8.627542 1.021031 1690649
2.851652 -9.011997 1.844399 1690649
3.203726 -9.202213 1.699494 1690649
3.066767 -8.944655 0.815762 1690649
3.086925 -8.718897 0.591355 1690649
3.600814 -9.101111 0.939313 1690649
3.210799 -8.863978 1.470060 1690649
2.912404 -8.868431 0.912262 1690649
3.399361 -8.844860 0.115514 1690649
3.033287 -8.709785 0.209080 1690649
3.270779 -9.234526 0.165714 1690649
3.254520 -8.605662 0.974044 1690649
3.362647 -9.068248 1.722875 1690649
3.083872 -9.141531 1.665359 1690649
3.303506 -9.276497 1.781697 1690649
3.054789 -8.695434 0.236360 1690649
2.934424 -8.995606 0.332405 1690649
3.072543 -8.731536 1.322711 1690649
3.361427 -9.001747 0.658576 1690649
3.073261 -9.095270 1.617280 1690649
3.615430 -8.898841 1.144901 1690649
3.397280 -8.896836 0.110979 1690649
3.216750 -8.501222 1.239515 1690649
3.294103 -8.681073 0.223081 1690649
3.216467 -9.207027 1.107599 1690649
3.564158 -8.883030 0.737433 1690649
3.444015 -8.573721 1.183569 1690649
3.178558 -8.435934 0.220075 1690649
3.227274 -9.054071 0.484604 1690649
3.319777 -8.687423 0.922400 1690649
3.112450 -8.802361 1.786964 1690649
2.909668 -8.732326 0.690797 1690649
3.356726 -9.200806 0.204793 1690649
3.225498 -9.213295 1.484876 1690649
3.073170 -9.119649 0.153083 1690649
3.475191 -8.671383 1.490880 1690649
3.549803 -9.071629 1.282422 1690649
3.276324 -8.563141 1.691153 1690649
3.196626 -8.542891 1.109111 1690649
3.467101 -8.552253 0.761777 1690649
3.053691 -8.957486 0.181370 1690649
3.022664 -8.528315 1.258101 1690649
3.552922 -9.150417 0.565332 1690649
3.054096 -8.721708 1.648155 1690649
3.181685 -8.829451 1.880515 1690649
3.531600 -8.684806 0.492287 1690649
3.109027 -9.054258 1.624030 1690649
2.891872 -9.070405 0.969054 1690649
3.133141 -8.552349 1.742409 1690649
3.099473 -9.105124 1.465293 1690649
2.935217 -8.632841 0.622496 1690649
3.043829 -8.648877 0.151506 1690649
2.942919 -9.170403 1.153877 1690649
3.019278 -8.624685 0.595003 1690649
3.037579 -8.632790 1.077700 1690649
2.908046 -9.055166 0.770819 1690649
3.042776 -8.983802 1.287171 1690649
3.587883 -9.134414 0.126554 1690649
3.261646 -8.437027 1.884490 1690649
3.638032 -8.770081 0.955497 1690649
3.455674 -9.224898 1.829865 1690649
3.631029 -8.755462 1.459150 1690649
3.402166 -9.108973 1.056064 1690649
3.515779 -8.688962 1.356958 1690649
3.277610 -9.180028 1.151855 1690649
3.181064 -8.533765 0.773659 1690649
3.301610 -9.244296 0.157354 1690649
2.869752 -8.920808 0.959156 1690649
2.973514 -8.605804 0.294139 1690649
3.541574 -8.717788 1.321700 1690649
3.476165 -9.143994 0.091054 1690649
3.041455 -8.847718 1.057970 1690649
3.324397 -9.054851 0.249661 1690649
2.889841 -8.901115 0.948787 1690649
3.251894 -9.149711 0.478066 1690649
3.616647 -8.662844 0.676722 1690649
2.932790 -8.743734 1.864754 1690649
3.157233 -8.712237 0.253480 1690649
3.375658 -8.861314 0.471862 1690649
3.565895 -9.169549 0.871220 1690649
2.825095 -8.674361 1.407337 1690649
3.011285 -8.749200 1.536664 1690649
3.056857 -8.868208 0.340196 1690649
3.437003 -9.137622 1.459604 1690649
3.173216 -8.900279 0.512735 1690649
3.457939 -9.016997 1.354570 1690649
3.382540 -8.631350 0.183006 1690649
2.863818 -8.883565 0.654321 1690649
3.664907 -8.986995 0.758350 1690649
3.540316 -8.742824 1.307530 1690649
3.135927 -8.774551 0.902073 1690649
2.931841 -8.864643 0.643182 1690649
3.680683 -8.704348 1.201628 1690649
3.308411 -8.989933 1.315703 1690649
3.084128 -8.763311 1.669075 1690649
3.286753 -8.437229 1.202133 1690649
3.662994 -8.827625 1.293721 1690649
3.445740 -9.038543 0.513771 1690649
3.017238 -8.843728 1.009669 1690649
3.346103 -8.836587 1.209913 1690649
3.405225 -8.963128 0.703051 1690649
-4.344601 7.169988 0.453512 10053171
-5.962207 7.095067 0.421700 10053171
-4.441564 6.979903 2.361236 10053171
-5.173673 7.155871 2.890586 10053171
-3.844934 6.986609 0.286498 10053171
-6.698030 6.755160 2.496366 10053171
-4.105107 7.153323 2.556086 10053171
-3.164302 6.958078 1.350402 10053171
-4.390565 6.977079 0.512321 10053171
-3.505266 7.187376 2.576895 10053171
-3.678637 7.185456 2.480252 10053171
-3.267220 6.960426 0.861855 10053171
-3.999114 7.073476 0.173394 10053171
-4.976638 6.820006 1.156104 10053171
-6.824500 6.980852 0.195042 10053171
-4.598098 7.114129 2.196876 10053171
-6.433576 6.987992 1.205817 10053171
-4.658411 6.920859 0.457667 10053171
-6.897061 6.742486 2.824982 10053171
-6.310989 7.241405 2.892890 10053171
-6.074052 7.067774 0.760315 10053171
-6.143314 6.804780 2.818951 10053171
-3.733444 6.871912 2.217928 10053171
-4.816117 7.056909 2.523780 10053171
-6.583619 7.022479 2.653620 10053171
-6.042403 7.142168 1.113309 10053171
-3.416471 7.153586 1.436177 10053171
-4.621734 6.974555 1.353961 10053171
-6.003758 7.236530 2.401381 10053171
-6.674766 7.017838 2.934065 10053171
-6.882497 7.046052 1.109950 10053171
-5.982335 6.749747 0.164186 10053171
-6.138493 7.023737 1.942770 10053171
-3.875336 6.962322 0.584149 10053171
-4.706031 7.152183 0.127948 10053171
-5.872290 7.173106 2.072039 10053171
-4.840826 6.964390 1.409724 10053171
-5.507409 7.244830 2.749022 10053171
-5.062742 6.761310 1.314147 10053171
-6.156301 6.964045 2.551249 10053171
-4.470175 6.920566 2.106711 10053171
-4.117598 7.092024 1.121868 10053171
-3.875333 6.776102 0.905138 10053171
-4.713212 6.932631 2.239317 10053171
-5.540329 6.944657 0.647859 10053171
-3.798944 7.040196 1.171380 10053171
-3.502069 7.083086 2.106501 10053171
-4.278149 7.200979 0.693332 10053171
-4.112907 7.245549 2.563547 10053171
-5.279740 6.964080 1.597009 10053171
-6.785368 7.050755 2.606001 10053171
-5.679625 6.974670 1.207601 10053171
-5.764733 6.849889 2.774741 10053171
-3.539213 6.837030 2.698811 10053171
-3.071261 6.892049 0.626673 10053171
-5.040780 7.030849 2.155636 10053171
-3.501610 7.044916 0.826380 10053171
-5.461429 7.050041 1.610604 10053171
-3.357799 7.089516 2.168740 10053171
-6.459591 7.185330 0.034316 10053171
-6.381526 6.748127 2.592628 10053171
-4.412979 6.966161 2.922668 10053171
-6.307762 6.948058 0.887235 10053171
-3.762107 7.181991 1.033026 10053171
-3.553743 7.061043 2.698020 10053171
-4.173783 6.923720 2.140142 10053171
-6.353381 6.804078 1.051395 10053171
-3.768830 7.016866 1.939490 10053171
-3.884120 7.059350 1.233476 10053171
-5.445620 7.189998 0.699602 10053171
-5.923054 6.944282 2.533916 10053171
-3.289865 6.920975 1.487318 10053171
-6.827219 6.751144 2.279096 10053171
-3.683381 6.974443 1.005100 10053171
-6.520533 7.210505 1.572504 10053171
-5.319595 6.968012 0.844347 10053171
-6.493323 6.872715 0.432571 10053171
-4.534986 7.095927 2.277143 10053171
-6.718150 7.187784 1.146683 10053171
-4.037871 6.881272 0.236582 10053171
-5.785281 7.214557 0.689245 10053171
-6.962750 7.089345 2.922975 10053171
-3.112785 7.094730 2.183545 10053171
-4.136196 7.096842 0.056361 10053171
-4.414929 7.173819 1.350605 10053171
-6.621484 7.215192 0.416491 10053171
-5.824381 6.879385 0.155474 10053171
-3.258446 6.861972 0.169515 10053171
-6.524305 6.932030 1.313828 10053171
-5.963834 6.865263 0.014705 10053171
-5.446878 7.055670 1.763064 10053171
-6.375593 7.008740 2.968209 10053171
-6.069268 6.843458 2.965838 10053171
-4.241003 7.205494 1.428917 10053171
-4.276984 7.102134 2.195509 10053171
-3.922251 7.218520 2.396234 10053171
-5.649922 7.207671 0.400947 10053171
-5.355338 6.914555 0.443359 10053171
-3.332539 6.970747 0.973815 10053171
-6.865214 6.960382 0.253440 10053171
-4.490880 6.786831 1.780341 10053171
-6.240509 7.215643 1.520183 10053171
-3.843991 7.187028 0.860324 10053171
-3.796063 6.977197 2.083418 10053171
-4.821779 7.131756 1.246136 10053171
-5.635054 7.240623 1.588090 10053171
-4.236495 6.960827 0.423930 10053171
-5.535729 7.205930 0.326199 10053171
-3.251850 7.090456 0.145794 10053171
-5.118258 6.790363 1.789596 10053171
-5.630654 7.050796 2.659185 10053171
-5.458186 6.879476 2.367822 10053171
-4.466567 6.930569 0.705427 10053171
-4.763550 6.930700 2.319447 10053171
-6.501685 6.966263 1.168417 10053171
-5.725435 6.804323 1.379461 10053171
-4.579280 6.921559 1.775467 10053171
-4.057419 7.061592 2.565205 10053171
-3.320687 7.012331 0.196504 10053171
-4.627777 6.744437 1.401158 10053171
-3.796939 7.226635 0.855836 10053171
-5.175289 6.852832 0.232883 10053171
-6.453765 6.757394 0.291349 10053171
-5.581374 7.013761 0.823226 10053171
-3.115428 7.184921 1.573525 10053171
-5.384610 7.068330 2.718464 10053171
-5.322635 6.936505 2.699350 10053171
-4.394107 6.898665 0.763596 10053171
-6.982888 7.110675 2.665660 10053171
-4.262027 7.069392 2.898623 10053171
-4.852880 6.985957 0.243417 10053171
-6.459249 6.918697 2.248068 10053171
-5.359799 6.894625 1.718780 10053171
-5.243842 7.061968 1.645764 10053171
-4.628099 6.833673 0.819877 10053171
-3.268244 6.838455 0.433040 10053171
-4.021667 6.948399 1.223046 10053171
-3.754466 7.234612 0.778597 10053171
-5.118454 7.045230 2.760138 10053171
-4.754715 7.162253 1.075004 10053171
-5.662507 6.774392 2.550704 10053171
-5.414766 7.178481 2.290622 10053171
-6.038129 7.011367 2.979225 10053171
-3.703813 6.933744 1.068049 10053171
-4.228550 7.080127 2.726394 10053171
-5.920724 7.054869 0.646016 10053171
-4.964678 6.799262 2.310475 10053171
-3.928548 6.820862 1.336721 10053171
-6.011921 7.201163 1.728804 10053171
-3.623677 7.176572 0.394347 10053171
-5.845198 6.923295 2.244675 10053171
-6.578499 6.866465 1.771220 10053171
-4.776030 6.787742 2.774094 10053171
-6.488590 7.165483 1.227015 10053171
-3.554796 7.002289 1.078747 10053171
-6.264404 6.815819 1.542259 10053171
-3.035370 6.841105 1.554553 10053171
-6.385993 7.223955 0.941556 10053171
-4.791557 7.000161 1.240408 10053171
-6.389347 7.096860 0.938052 10053171
-6.887047 6.884501 2.245473 10053171
-3.702515 7.217899 1.825879 10053171
-4.226149 7.176049 0.795202 10053171
-6.317216 6.790115 2.941794 10053171
-3.058504 6.758392 2.284865 10053171
-6.437565 6.926622 1.475353 10053171
-6.296124 7.005894 0.992305 10053171
-5.158231 6.776079 1.232412 10053171
-3.967185 7.169979 0.936606 10053171
-6.422410 7.083234 0.846791 10053171
-6.231531 6.759213 2.100291 10053171
-3.506460 7.030770 0.958050 10053171
-5.311548 6.977371 2.320196 10053171
-4.492081 6.756737 0.638204 10053171
-5.568761 7.222465 0.160786 10053171
-3.606325 6.921257 1.828389 10053171
-6.998379 7.173132 2.126769 10053171
-6.176543 7.168307 1.949191 10053171
-4.690065 6.891890 0.430738 10053171
-5.555753 6.949464 1.769326 10053171
-6.739869 6.770457 1.253702 10053171
-5.553085 6.815263 1.495967 10053171
-6.407248 6.876733 2.045399 10053171
-5.993486 6.772916 1.074480 10053171
-5.769557 6.754566 2.096119 10053171
-5.556201 6.821198 1.558914 10053171
-3.386546 7.075038 2.648487 10053171
-5.043174 7.041735 0.370308 10053171
-4.187761 7.197661 0.554051 10053171
-5.056570 7.134433 0.822574 10053171
-6.377643 6.908938 2.860256 10053171
-6.872940 6.816278 2.536494 10053171
-6.720490 6.767075 0.415788 10053171
-3.258646 7.081802 1.584728 10053171
-6.039091 6.742972 2.602805 10053171
-4.061007 6.930102 1.540226 10053171
-6.727431 7.216750 0.598312 10053171
-6.911264 6.969771 2.984568 10053171
-4.473801 6.932918 1.931322 10053171
-4.893550 7.080288 2.534048 10053171
-3.964095 7.105232 0.792517 10053171
-4.132129 7.239763 0.509707 10053171
-3.934646 6.801217 1.135315 10053171
-3.464201 7.226593 2.470438 10053171
-3.374190 7.175954 0.200125 10053171
-3.174089 6.777407 0.450723 10053171
-4.775106 7.204202 1.090851 10053171
-6.921103 7.100886 0.588253 10053171
-6.256498 6.761531 1.891390 10053171
-6.626937 6.925365 0.647927 10053171
-6.353643 7.170464 1.730799 10053171
-6.433817 6.835494 1.123020 10053171
-4.955275 6.831533 0.304205 10053171
-5.296534 7.048804 1.120734 10053171
-6.005323 7.075277 1.269530 10053171
-3.181835 7.030405 2.069665 10053171
-4.514375 6.911218 0.181913 10053171
-6.070261 6.833928 0.169583 10053171
-3.643005 7.149020 0.336574 10053171
-3.329143 7.198777 2.605813 10053171
-4.032119 6.912090 2.663893 10053171
-4.110605 6.834274 2.984646 10053171
-5.537712 7.087682 1.923640 10053171
-4.321846 7.149486 0.741226 10053171
-4.249306 6.937528 0.574623 10053171
-3.611939 7.145888 0.592397 10053171
-3.721163 6.931891 0.916693 10053171
-4.655759 6.998303 0.604414 10053171
-4.176023 6.939798 0.211556 10053171
-6.542747 6.787787 2.376012 10053171
-4.727335 7.164125 0.493186 10053171
-5.161321 6.994536 1.434811 10053171
-6.479724 7.264982 1.323658 10053171
-6.981466 7.024730 2.093548 10053171
-6.604801 7.252861 1.473026 10053171
-5.050562 7.135427 2.890488 10053171
-4.747421 6.852260 0.731169 10053171
-4.305883 6.937053 1.297238 10053171
-5.429419 6.818362 2.062518 10053171
-3.998989 6.735439 2.821206 10053171
-5.962712 7.020552 1.391815 10053171
-6.743192 6.749238 0.257102 10053171
-3.283431 7.123491 2.707611 10053171
-5.117262 7.071397 1.732202 10053171
-5.857482 7.204139 0.506036 10053171
-6.241424 6.903102 1.066041 10053171
-6.940643 7.083581 1.632095 10053171
-5.746904 7.195859 2.557647 10053171
-6.242733 6.927692 2.047600 10053171
-3.799447 6.956449 1.354742 10053171
-5.716838 7.167406 0.858564 10053171
-3.112798 6.810436 0.979411 10053171
-3.900814 6.843222 1.097354 10053171
-5.336761 7.180908 1.625243 10053171
-3.501745 6.771970 0.862698 10053171
-4.685139 7.234525 1.562985 10053171
-3.639084 6.998230 2.198170 10053171
-4.561391 7.124167 2.683842 10053171
-4.892063 7.083864 2.095193 10053171
-6.901135 6.797719 2.387935 10053171
-3.419904 7.130237 0.841620 10053171
-5.533842 7.055760 2.929444 10053171
-4.831817 6.924385 0.690222 10053171
-4.590750 6.992508 2.169930 10053171
-6.931501 7.035464 2.191420 10053171
-3.638056 6.847962 1.234879 10053171
-4.330687 6.933149 0.819751 10053171
-6.440268 6.791641 2.066370 10053171
-6.014251 6.769459 2.077199 10053171
-4.849383 6.766128 0.965273 10053171
-3.703601 6.854609 -0.005472 10053171
-4.870638 7.121770 2.480378 10053171
-3.751927 7.006641 2.484858 10053171
-5.170608 7.084844 1.509881 10053171
-6.235469 6.834764 1.602032 10053171
-6.698940 7.190860 2.927317 10053171
-3.940200 6.906863 0.937427 10053171
-6.239732 7.043517 0.958811 10053171
-4.896949 7.170004 1.529144 10053171
-3.288019 7.227676 0.923718 10053171
-6.360591 7.073855 1.835789 10053171
-5.685056 6.805604 1.337761 10053171
-3.566214 6.912514 0.409506 10053171
-5.633448 6.784845 2.092762 10053171
-4.311105 7.220220 0.465755 10053171
-3.198863 7.003410 1.460788 10053171
-3.101918 6.949811 1.827006 10053171
-4.082625 6.771122 0.901430 10053171
-4.262649 7.221454 1.325847 10053171
-3.104141 6.859469 0.310570 10053171
-4.025910 7.119813 1.427803 10053171
-5.447328 6.922346 1.046474 10053171
-3.977373 6.942513 0.363798 10053171
-3.787984 6.948605 0.158456 10053171
-5.720860 7.249981 1.862280 10053171
-5.681691 7.226029 1.782964 10053171
-6.027551 6.756891 2.380316 10053171
-3.598403 6.965648 0.808929 10053171
-5.206051 7.116607 1.191782 10053171
-5.129721 6.829350 2.472664 10053171
-4.274602 7.176645 0.640396 10053171
-6.973437 7.234307 0.069787 10053171
-4.038807 6.774365 1.123946 10053171
-4.056765 6.782691 1.834416 10053171
-5.411894 6.855775 2.726798 10053171
-3.288417 7.053853 1.532302 10053171
-3.303748 7.193932 0.007527 10053171
-3.224236 6.836029 1.511740 10053171
-4.618394 6.946324 1.557201 10053171
-4.957008 6.847510 0.134474 10053171
-6.794777 6.823755 1.556702 10053171
-5.532733 6.943874 0.148087 10053171
-6.922735 6.899132 1.406549 10053171
-4.177193 6.765760 1.333062 10053171
-6.365774 6.928609 0.237336 10053171
-3.368639 6.753271 2.832452 10053171
-4.105417 6.791519 1.416466 10053171
-4.744315 6.846726 1.923902 10053171
-6.158316 6.773904 0.121912 10053171
-5.185906 7.149592 1.827352 10053171
-6.266849 7.123991 2.274278 10053171
-5.146206 7.077185 1.378600 10053171
-6.462471 6.935170 1.301259 10053171
-5.470879 7.078550 0.285911 10053171
-4.934987 7.158191 1.790094 10053171
-3.845769 6.990331 1.630836 10053171
-5.437331 7.074022 2.704727 10053171
-5.707726 7.067485 2.976593 10053171
-6.838781 7.120747 0.778289 10053171
-4.922065 7.167331 1.137326 10053171
-6.967743 6.932508 0.273410 10053171
-6.736896 6.982556 1.040477 10053171
-4.286773 6.801147 1.930164 10053171
-3.993430 7.190706 0.082979 10053171
-3.114539 7.039104 1.324334 10053171
-3.879768 7.029232 0.418301 10053171
-3.118756 6.756723 1.709095 10053171
-3.481366 6.855864 0.331922 10053171
-6.621599 7.088204 1.200396 10053171
-4.085844 7.123890 0.752919 10053171
-3.804063 7.004013 2.069373 10053171
-3.776505 7.028112 1.236691 10053171
-4.620259 7.139669 2.682174 10053171
-4.620236 7.197852 2.350725 10053171
-6.246824 7.167584 0.881984 10053171
-3.101838 6.898299 -0.006848 10053171
-4.389696 6.763478 0.503616 10053171
-5.175155 7.016083 2.862911 10053171
-5.372540 6.989987 2.481795 10053171
-3.693635 7.217085 1.067413 10053171
-4.830853 6.774884 0.069997 10053171
-4.741089 7.116212 0.907173 10053171
-4.093777 6.876653 1.520404 10053171
-3.537093 6.959781 0.981376 10053171
-6.967542 7.115239 0.905798 10053171
-3.905143 6.926054 1.381747 10053171
-3.573524 6.952610 2.731020 10053171
-5.510222 6.831994 2.594086 10053171
-5.405228 6.774812 2.406048 10053171
-3.033710 6.808181 2.931581 10053171
-6.146483 6.835277 2.050216 10053171
-4.434692 7.148885 0.781822 10053171
-4.523168 7.007684 0.700003 10053171
-3.189477 7.203506 2.749209 10053171
-5.885807 7.208383 2.551076 10053171
-4.213946 6.892460 2.111878 10053171
-3.216051 6.949539 0.508394 10053171
-4.983289 6.829003 1.843102 10053171
-3.724049 6.972082 0.091076 10053171
-4.324720 7.212621 0.545154 10053171
-6.208122 6.878256 1.559151 10053171
-3.861844 7.202245 0.591637 10053171
-5.470600 6.772857 1.441883 10053171
-3.212933 6.829691 2.194476 10053171
-3.462683 6.958107 0.326082 10053171
-3.930131 7.229003 2.050015 10053171
-6.173144 7.188629 0.264102 10053171
-6.555710 6.905473 0.566053 10053171
-4.622020 6.879820 1.227986 10053171
-5.124712 6.783496 0.003698 10053171
-5.464657 6.809705 0.530849 10053171
-3.762772 6.793523 0.417287 10053171
-5.358458 7.229892 0.676624 10053171
-3.182274 7.191708 1.380574 10053171
-4.933740 6.758556 2.544793 10053171
-6.755696 7.144989 1.632007 10053171
-4.807379 6.795255 1.190372 10053171
-4.082181 7.053853 1.620374 10053171
-4.082844 7.033648 1.598122 10053171
-3.492240 6.928056 2.911264 10053171
-4.074878 7.164907 2.892014 10053171
-6.617858 6.915457 1.744013 10053171
-5.179867 7.063167 1.690968 10053171
-5.111074 7.149515 2.144969 10053171
-4.506943 6.860518 0.040007 10053171
-5.336902 6.766431 2.582082 10053171
-5.180763 6.748210 1.358935 10053171
-4.086730 6.885428 0.703338 10053171
-4.399915 7.025114 1.025247 10053171
-5.228191 7.126781 0.703519 10053171
-3.754131 6.763509 1.898905 10053171
-3.631879 7.233634 2.757349 10053171
-3.362432 7.140203 0.995288 10053171
-4.075259 7.209376 2.640866 10053171
-3.081620 7.165390 2.859128 10053171
-3.583845 7.033228 1.666544 10053171
-5.342357 7.108187 0.110120 10053171
-3.926729 6.929524 2.289820 10053171
-6.381943 7.034211 2.548523 10053171
-3.119949 7.085691 2.767460 10053171
-4.854647 7.174537 0.112273 10053171
-5.906675 6.901947 0.142051 10053171
-4.264484 7.052899 0.586826 10053171
-4.616497 7.133644 0.016112 10053171
-6.617357 7.229014 1.383129 10053171
-6.040526 6.939998 0.083148 10053171
-5.846677 6.765072 2.899605 10053171
-4.480358 7.038557 2.829973 10053171
-5.619206 7.180117 2.544406 10053171
-3.131733 6.977178 0.628223 10053171
-5.755284 6.937613 0.593790 10053171
-4.088816 7.111318 1.543999 10053171
-4.693151 6.781690 1.659349 10053171
-5.001158 7.131054 1.213657 10053171
-4.426207 6.959189 0.503838 10053171
-5.291434 7.234333 0.311873 10053171
-3.870152 6.953684 0.831530 10053171
-4.255806 6.943157 2.674403 10053171
-5.241230 7.105329 1.727723 10053171
-3.020284 6.998453 0.250706 10053171
-5.438697 6.853784 1.031989 10053171
-6.583129 7.063928 2.722122 10053171
-5.098898 6.825100 1.655229 10053171
-3.019932 6.906269 0.763116 10053171
-6.581691 6.966881 1.165956 10053171
-3.077837 7.008532 0.189410 10053171
-6.246769 7.239652 1.900504 10053171
-3.695223 6.919087 1.362255 10053171
-4.157604 7.107177 0.221693 10053171
-3.850896 7.152114 1.828849 10053171
-4.173697 7.016298 1.346139 10053171
-3.079260 6.821578 0.729709 10053171
-5.603782 7.219592 0.135666 10053171
-5.675095 7.005591 2.806203 10053171
-4.799890 6.958627 1.800770 10053171
-5.950978 7.171154 2.032010 10053171
-3.335562 7.089385 0.980350 10053171
-6.489168 6.811754 0.738700 10053171
-6.586574 7.082350 1.926221 10053171
-3.736282 6.853723 0.027894 10053171
-4.620933 7.124135 2.032787 10053171
-5.595075 6.751090 2.664888 10053171
-3.977067 7.080571 0.428003 10053171
-3.923284 6.783061 1.659809 10053171
-5.387907 7.029810 0.778582 10053171
-4.837535 6.830954 1.753620 10053171
-5.786121 6.932845 1.087402 10053171
-6.620156 6.857739 0.170513 10053171
-4.523069 6.991932 1.689123 10053171
-3.708632 7.115883 2.805521 10053171
-5.709532 6.857113 0.067449 10053171
-5.670620 7.040179 0.398836 10053171
-4.245241 6.851692 0.859179 10053171
-5.873344 6.879240 2.061237 10053171
-4.917724 6.822571 2.887267 10053171
-3.196124 6.995104 2.022127 10053171
-3.620844 6.919936 1.069180 10053171
-4.779126 7.125080 2.849110 10053171
-4.514592 7.161934 1.481511 10053171
-3.444166 7.091650 1.060818 10053171
-3.149535 7.148176 0.507647 10053171
-5.421856 7.095121 0.836265 10053171
-6.662371 6.976059 2.582883 10053171
-3.286627 6.882811 2.396999 10053171
-5.858640 7.151349 2.059397 10053171
-4.678434 6.931123 1.458775 10053171
-4.287763 6.841573 2.091582 10053171
-3.000342 6.761014 2.459064 10053171
-3.053492 7.005044 1.054535 10053171
-4.389707 7.198449 0.309681 10053171
-5.484648 7.223711 2.277735 10053171
-5.612177 7.108534 1.109188 10053171
-3.879287 6.895850 1.857243 10053171
-4.680770 7.097201 2.933880 10053171
-4.747394 7.165956 2.667430 10053171
-6.274324 7.031864 1.591783 10053171
-3.143805 7.201006 0.321803 10053171
-4.511662 6.887974 2.778035 10053171
-3.034704 6.927794 1.113760 10053171
-4.461195 7.263291 2.841176 10053171
-4.994795 6.902213 2.702488 10053171
-3.213065 6.991124 0.495475 10053171
-5.987707 6.818712 0.805244 10053171
-4.698092 7.136189 0.312573 10053171
-3.014032 7.052602 0.555520 10053171
-5.459008 6.923124 1.086308 10053171
-3.942806 6.817384 0.620576 10053171
-6.080868 6.981322 2.733036 10053171
-3.320554 6.939857 0.573388 10053171
-5.715603 6.757885 2.831046 10053171
-4.179311 6.842224 0.646695 10053171
-6.597623 6.999383 2.970972 10053171
-6.904097 7.234726 2.525388 10053171
-6.908549 7.216599 0.724404 10053171
-5.271361 7.020808 2.461770 10053171
-5.221630 6.944486 1.267131 10053171
-3.178540 7.151935 1.900920 10053171
-6.394768 6.956952 1.698137 10053171
-4.072892 6.865309 0.130534 10053171
-3.503747 6.892254 0.035933 10053171
-6.092495 6.899581 1.892659 10053171
-3.124837 7.079444 0.783295 10053171
-3.569165 7.036511 2.727989 10053171
-4.233642 7.048544 2.638092 10053171
-3.447004 6.885021 2.426943 10053171
-5.107915 6.899217 2.870173 10053171
-4.462026 7.112713 1.060186 10053171
-6.596600 6.835934 2.044463 10053171
-3.832357 6.890761 2.289576 10053171
-3.570933 6.966865 1.024022 10053171
-4.286064 6.774716 0.888157 10053171
-3.858043 7.012252 1.013324 10053171
-5.365409 6.986074 2.079236 10053171
-3.242206 6.832881 0.515627 10053171
-3.395979 7.239817 0.635111 10053171
-6.368218 6.742602 1.228497 10053171
-5.811663 7.225901 1.582560 10053171
-3.793667 6.898602 0.793299 10053171
-6.559836 6.853573 1.590200 10053171
-4.386992 6.798437 0.995150 10053171
-5.661801 6.894309 0.066424 10053171
-4.405532 7.023365 1.187993 10053171
-4.197547 6.907828 2.102989 10053171
-3.263778 7.180014 1.293669 10053171
-3.734269 7.234797 2.649573 10053171
-5.896005 6.814131 0.037272 10053171
-5.668741 6.810012 1.546051 10053171
-4.936220 6.963650 2.472234 10053171
-6.062737 7.046646 1.131091 10053171
-6.767061 7.226810 2.115503 10053171
-5.466106 6.864738 1.248883 10053171
-6.165443 6.911080 2.901560 10053171
-5.538946 6.778112 2.403314 10053171
-4.510738 7.158366 1.526368 10053171
-5.277561 6.889092 0.625302 10053171
-6.023589 7.231913 1.479841 10053171
-3.518751 6.834889 2.514177 10053171
-5.675697 6.944253 2.283561 10053171
-6.073709 6.967990 1.474548 10053171
-6.553929 6.878499 1.234382 10053171
-6.744875 7.057207 2.585224 10053171
-6.558939 6.855644 1.832662 10053171
-6.066698 6.973227 2.785408 10053171
-4.208086 7.168429 2.781529 10053171
-4.895931 7.092526 2.191202 10053171
-4.869053 7.142763 0.060861 10053171
-4.092956 6.854785 1.566762 10053171
-6.967388 7.245052 0.321591 10053171
-5.495905 7.163330 0.042934 10053171
-3.500966 6.816981 0.723087 10053171
-6.061640 6.780499 0.903255 10053171
-3.541167 6.814696 2.858162 10053171
-3.523036 7.176608 0.901160 10053171
-5.196936 6.825609 2.950275 10053171
-6.964611 6.873073 2.319640 10053171
-4.338520 6.843357 0.578402 10053171
-4.565217 6.857316 0.887971 10053171
-3.478950 6.831391 0.298344 10053171
-6.419127 6.967362 1.152756 10053171
-5.299707 7.234027 1.663392 10053171
-4.245506 7.171729 1.712266 10053171
-5.728873 7.114440 0.932639 10053171
-4.633847 6.947773 2.957746 10053171
-5.859308 7.036534 1.041981 10053171
-5.189437 7.154525 0.281706 10053171
-4.810022 6.843080 2.730759 10053171
-3.321823 7.006623 0.797145 10053171
-3.896223 7.014311 1.822890 10053171
-5.785044 6.988217 1.293368 10053171
-3.320798 6.970799 1.638217 10053171
-2.991851 7.221719 0.800377 10053171
-3.204609 7.219996 2.773479 10053171
-3.169224 7.171175 2.310585 10053171
-6.074704 6.931944 2.251460 10053171
-6.825228 7.067660 2.053052 10053171
-4.055242 6.786472 1.166147 10053171
-3.196789 7.231907 1.676180 10053171
-6.920130 7.147543 1.477529 10053171
-4.303192 6.893371 1.089250 10053171
-5.294157 7.027027 0.113925 10053171
-6.783802 7.152049 2.885169 10053171
-4.229362 6.831589 2.424669 10053171
-3.472393 7.054931 2.648030 10053171
-3.076791 6.770921 1.149702 10053171
-3.499248 7.208031 0.567248 10053171
-3.460836 6.953652 2.322105 10053171
-4.109097 7.056717 2.697733 10053171
-3.751733 7.051430 2.907435 10053171
-5.767218 6.931205 0.499105 10053171
-4.746841 7.113652 1.556763 10053171
5.888542 -5.968958 1.146325 8342706
6.128764 -5.708595 1.795863 8342706
5.441052 -6.085721 3.642763 8342706
6.182875 -6.485539 0.564566 8342706
5.445375 -6.217495 3.032577 8342706
6.144440 -6.445811 4.069718 8342706
6.367594 -6.027081 4.916796 8342706
6.213727 -5.652483 0.338956 8342706
5.998610 -6.173849 3.998279 8342706
6.189980 -5.990716 0.505834 8342706
5.586350 -5.654927 2.001819 8342706
6.140268 -6.433463 3.313180 8342706
6.542281 -5.780465 4.835812 8342706
6.051607 -5.618882 2.398519 8342706
6.461063 -5.958538 1.314866 8342706
6.105183 -6.217927 2.939499 8342706
6.538423 -5.861808 0.284331 8342706
6.332552 -6.423662 2.991475 8342706
6.305811 -5.516791 2.221754 8342706
6.463710 -6.370912 2.655262 8342706
6.205762 -6.102224 2.964694 8342706
6.284486 -5.574392 2.056318 8342706
5.628107 -6.297553 3.507379 8342706
5.810096 -5.577070 0.209192 8342706
5.638556 -5.765860 0.527585 8342706
6.511434 -5.787515 1.418246 8342706
6.046242 -5.446042 0.757966 8342706
6.210166 -6.345526 1.499809 8342706
6.450220 -6.163858 1.600338 8342706
6.521089 -6.035964 3.479021 8342706
5.604633 -6.171872 3.374893 8342706
5.827150 -6.198888 4.705331 8342706
5.805842 -5.531943 2.049790 8342706
6.348094 -5.781096 2.914893 8342706
6.263735 -5.941735 3.515874 8342706
5.429905 -6.107334 0.549830 8342706
6.401528 -5.814563 1.987543 8342706
5.917749 -5.781360 1.722034 8342706
5.739242 -5.847228 3.150863 8342706
5.659554 -6.201728 1.840938 8342706
5.803310 -5.507901 0.777168 8342706
6.458091 -6.064284 0.400131 8342706
5.992267 -6.124290 4.292632 8342706
5.595438 -6.203569 4.557380 8342706
5.749395 -5.748922 4.157692 8342706
5.750823 -5.930868 3.099322 8342706
6.041718 -6.009126 1.436007 8342706
6.406491 -6.286566 2.000935 8342706
5.646220 -5.725054 3.112117 8342706
6.275921 -6.093839 3.906566 8342706
5.416744 -5.997626 4.578981 8342706
5.952072 -5.463517 4.483914 8342706
5.498873 -5.988649 3.224791 8342706
6.422499 -5.941690 1.937279 8342706
6.179858 -6.497207 4.287995 8342706
6.391006 -5.873840 1.203191 8342706
5.392296 -5.960822 2.344859 8342706
5.509551 -5.769726 4.330088 8342706
6.426266 -6.006145 2.995689 8342706
6.103567 -5.668576 4.856061 8342706
6.262842 -5.859804 2.123669 8342706
5.805361 -5.482188 2.077697 8342706
5.877343 -6.327948 3.539990 8342706
5.990203 -5.505841 3.529014 8342706
5.765134 -6.042447 4.526624 8342706
5.853515 -6.087816 1.748204 8342706
6.151388 -5.726639 2.005412 8342706
6.157599 -6.290254 1.950324 8342706
5.770665 -6.230911 1.518223 8342706
5.608325 -6.240586 1.036974 8342706
5.855180 -6.374270 1.271885 8342706
5.977434 -5.949902 3.047803 8342706
6.058967 -6.121704 4.766375 8342706
5.781945 -5.804155 0.603720 8342706
5.737711 -6.090511 2.489841 8342706
5.950548 -6.002053 3.154980 8342706
5.474066 -6.181153 1.924484 8342706
6.094606 -5.593658 0.157911 8342706
6.449389 -5.924714 1.235873 8342706
6.565701 -6.067588 3.873077 8342706
6.037476 -6.214131 3.285453 8342706
5.569395 -5.658216 1.960810 8342706
6.097093 -6.269034 4.450658 8342706
6.125223 -5.590538 4.634143 8342706
6.434423 -5.692557 0.203053 8342706
5.975961 -6.158357 2.714557 8342706
6.229756 -5.983323 2.443150 8342706
5.509123 -6.159187 3.677245 8342706
6.055664 -6.297204 2.023293 8342706
5.865757 -6.344337 1.011141 8342706
6.179930 -6.423173 4.429136 8342706
5.547324 -5.932974 3.869422 8342706
5.699203 -6.378549 2.513632 8342706
6.111118 -6.494219 1.394238 8342706
5.838647 -5.892879 4.547218 8342706
5.612973 -5.782072 2.328378 8342706
6.448412 -5.836885 2.615252 8342706
6.103647 -6.408996 0.585097 8342706
5.565286 -6.134640 1.885067 8342706
6.321398 -6.035244 1.876690 8342706
6.572099 -6.044456 3.640019 8342706
5.673572 -6.377561 0.599194 8342706
5.692265 -6.452265 0.758742 8342706
6.211914 -6.030005 2.584921 8342706
5.632443 -6.004048 3.319777 8342706
5.764430 -5.590580 4.704257 8342706
5.771706 -6.239861 4.028208 8342706
5.640687 -5.823806 1.237605 8342706
6.402359 -5.976840 4.432889 8342706
5.829177 -5.609441 3.507859 8342706
6.012493 -5.787795 0.926495 8342706
6.167666 -6.363041 1.768366 8342706
6.156219 -5.786208 1.603457 8342706
5.961677 -5.765314 4.096213 8342706
6.040943 -6.193269 4.601948 8342706
5.779446 -6.135725 0.223062 8342706
5.919602 -5.621443 1.685379 8342706
6.191911 -5.639484 3.860313 8342706
5.712574 -5.973034 3.090369 8342706
5.820177 -6.189002 2.602035 8342706
5.689829 -5.867678 2.934030 8342706
5.624734 -6.234853 3.725200 8342706
5.912461 -6.589638 1.085990 8342706
6.124252 -5.799863 1.635752 8342706
6.310609 -6.314254 0.550268 8342706
6.358979 -5.708135 2.311698 8342706
6.127967 -5.590588 3.076429 8342706
5.666239 -5.692686 1.222779 8342706
6.011609 -5.717502 3.709865 8342706
6.200687 -6.029565 4.417450 8342706
6.505152 -6.114664 2.692389 8342706
6.334329 -6.146094 3.360857 8342706
5.675979 -6.301508 4.695546 8342706
6.282095 -5.534945 4.654900 8342706
5.976429 -6.206771 3.534623 8342706
5.747853 -5.659710 2.615520 8342706
6.090984 -6.552633 4.508137 8342706
5.520850 -5.777507 4.270785 8342706
5.530110 -6.154444 2.919770 8342706
6.112291 -5.630327 2.473294 8342706
5.682593 -5.867219 4.049637 8342706
5.903418 -5.444962 3.042498 8342706
6.497865 -5.826230 0.106009 8342706
6.059187 -5.450403 0.403335 8342706
6.396418 -5.729980 0.062133 8342706
6.030928 -5.772819 0.506039 8342706
5.656893 -5.723628 3.079898 8342706
6.340938 -6.216711 1.513914 8342706
6.143897 -5.807804 2.493075 8342706
5.770715 -6.148917 1.603203 8342706
5.997530 -6.223090 0.127418 8342706
5.864901 -6.035686 3.755321 8342706
5.727427 -6.145874 3.390310 8342706
6.316604 -6.250121 4.597672 8342706
6.329519 -6.463143 3.375520 8342706
6.024519 -6.566760 4.169410 8342706
6.023310 -5.662564 4.237303 8342706
5.704600 -5.626182 4.226568 8342706
6.205777 -5.880508 1.873761 8342706
5.521911 -6.233524 4.643924 8342706
5.905403 -6.338161 4.705794 8342706
6.044093 -6.441564 1.326687 8342706
6.121800 -5.619713 2.041644 8342706
5.966587 -6.198408 1.720497 8342706
6.028156 -6.022399 4.513984 8342706
6.072317 -5.613614 1.168761 8342706
6.123984 -6.305644 1.561268 8342706
5.745367 -5.739257 0.122453 8342706
6.322619 -6.194326 3.036417 8342706
6.085916 -5.575880 2.638066 8342706
6.261851 -5.856723 0.998556 8342706
5.601976 -6.084246 1.921549 8342706
5.719962 -5.681839 2.247931 8342706
5.806778 -5.651915 2.586584 8342706
5.513084 -5.923592 3.589270 8342706
6.038584 -5.828276 1.868553 8342706
5.715111 -5.892743 1.462059 8342706
5.750551 -6.259534 2.804868 8342706
5.998101 -6.316055 4.890128 8342706
5.982719 -6.446959 4.824615 8342706
6.080924 -5.600493 3.826947 8342706
5.617463 -5.566806 2.007238 8342706
6.553537 -6.034388 4.245910 8342706
5.652400 -5.591745 1.918025 8342706
6.105913 -6.475883 1.676216 8342706
5.601245 -6.232089 1.859179 8342706
6.329623 -5.930594 3.511901 8342706
6.463239 -5.823269 3.816869 8342706
6.441992 -6.111262 3.860678 8342706
6.115090 -5.870208 3.360105 8342706
6.147918 -6.397330 1.014100 8342706
5.643853 -6.148654 3.341280 8342706
6.506097 -6.310076 0.139367 8342706
6.378881 -6.103011 4.919844 8342706
5.441244 -5.900170 3.766278 8342706
6.504042 -6.032241 0.225407 8342706
6.256872 -5.665896 3.716587 8342706
6.120114 -6.012468 2.454583 8342706
6.264266 -5.980280 0.694524 8342706
6.416768 -5.954920 2.410455 8342706
6.096246 -6.490657 2.790927 8342706
6.376763 -6.070947 1.395388 8342706
6.196652 -5.637728 1.103727 8342706
6.247966 -5.608893 4.317112 8342706
6.157610 -6.437744 0.752564 8342706
5.633164 -6.037827 3.202238 8342706
6.530635 -5.790054 1.077613 8342706
6.176739 -5.796254 2.607957 8342706
5.992023 -6.071700 2.560537 8342706
6.375045 -5.686598 1.833079 8342706
5.971992 -6.110528 3.836283 8342706
6.506799 -6.000742 1.587089 8342706
5.487777 -6.272611 0.729847 8342706
5.827720 -6.355519 4.996191 8342706
6.475508 -5.757374 3.973803 8342706
6.230096 -6.026682 0.132011 8342706
6.284818 -5.837496 3.569536 8342706
6.486103 -6.060567 4.573903 8342706
5.923626 -6.061305 3.161669 8342706
6.396342 -6.264300 1.772966 8342706
6.022367 -5.449604 1.965824 8342706
5.415402 -5.943858 4.242313 8342706
6.063710 -6.057825 2.978639 8342706
6.252633 -5.939641 3.260759 8342706
5.619579 -6.179463 3.367448 8342706
6.122685 -6.369712 4.403064 8342706
6.096850 -5.517615 4.134448 8342706
5.923291 -5.833808 2.900829 8342706
5.430364 -6.115800 2.065893 8342706
6.317491 -6.424838 4.863911 8342706
5.639710 -6.388141 2.925158 8342706
6.317784 -6.356549 2.368381 8342706
6.433163 -5.823481 1.071739 8342706
6.445645 -5.876995 2.271475 8342706
5.972635 -5.498288 2.061781 8342706
6.198174 -5.761569 0.470100 8342706
5.903285 -6.285958 1.568639 8342706
6.388931 -5.770209 2.450228 8342706
6.377001 -5.545381 4.088318 8342706
6.470599 -6.187809 1.471985 8342706
6.188711 -5.793580 3.254007 8342706
5.730853 -6.390380 3.107483 8342706
6.258574 -5.541636 4.463259 8342706
6.038455 -5.888407 0.784293 8342706
5.585005 -6.357168 4.395944 8342706
5.616006 -5.735508 4.272598 8342706
6.212650 -5.826147 1.355003 8342706
5.746705 -5.796927 1.071176 8342706
5.864223 -6.093530 0.625283 8342706
6.174652 -5.432356 1.175148 8342706
6.280054 -5.535038 1.169771 8342706
5.640651 -6.270394 4.297420 8342706
5.920394 -6.048649 4.931668 8342706
6.217102 -5.564044 3.776175 8342706
5.641824 -6.040834 4.264792 8342706
6.088908 -6.577783 4.293496 8342706
5.685354 -5.722369 3.974728 8342706
5.563771 -6.088317 3.745839 8342706
6.219098 -6.413683 1.029134 8342706
6.565019 -5.955241 0.488865 8342706
6.013335 -5.536710 2.920404 8342706
6.191587 -6.405938 1.668022 8342706
5.504721 -6.238438 3.920296 8342706
5.620554 -6.460804 2.805138 8342706
5.805966 -5.509785 2.241874 8342706
6.536288 -6.222205 2.055190 8342706
6.048222 -6.377582 0.559242 8342706
5.438141 -5.846451 2.605697 8342706
5.848150 -5.669807 2.554784 8342706
6.287269 -6.099266 0.238594 8342706
6.058641 -5.601442 4.343393 8342706
6.508115 -6.288976 4.433298 8342706
5.821718 -6.391244 4.425795 8342706
5.454817 -5.776576 4.334357 8342706
5.951946 -5.470736 1.490792 8342706
6.522671 -6.198901 4.023213 8342706
6.387914 -6.157609 1.411020 8342706
5.813378 -6.176227 3.747787 8342706
6.117144 -6.344260 1.920930 8342706
5.536848 -5.623707 3.393963 8342706
5.788794 -6.452374 3.529915 8342706
5.503418 -5.703416 3.937571 8342706
6.148669 -5.562603 0.028061 8342706
6.365538 -5.943522 2.651929 8342706
6.391186 -6.095256 1.736404 8342706
5.787987 -5.798501 3.232203 8342706
6.030040 -5.815533 3.159898 8342706
6.316418 -6.050347 2.039481 8342706
6.356739 -5.807328 2.204260 8342706
6.070822 -5.793741 0.116758 8342706
5.823373 -6.074713 0.099680 8342706
6.203923 -6.433173 0.893937 8342706
6.342184 -6.455341 0.738261 8342706
6.173588 -6.357939 4.233615 8342706
5.856708 -6.531186 1.815295 8342706
5.626593 -5.919078 0.978245 8342706
5.773149 -5.671463 2.688091 8342706
6.198426 -5.726902 0.401997 8342706
6.065651 -5.413918 2.097859 8342706
6.004239 -6.506778 1.071421 8342706
6.254293 -5.544772 1.283410 8342706
6.460353 -5.678706 3.618853 8342706
6.485191 -6.256279 0.314825 8342706
5.758476 -5.918262 4.026726 8342706
6.177662 -6.116202 1.741663 8342706
6.081367 -6.218424 3.246485 8342706
5.583302 -6.256222 3.704340 8342706
6.539159 -6.153952 1.845043 8342706
6.270843 -6.223179 1.681096 8342706
5.548735 -5.804629 2.491200 8342706
6.372896 -6.415399 2.019587 8342706
6.105999 -6.206394 3.572263 8342706
6.158707 -6.576530 4.302527 8342706
6.433722 -6.382996 3.681842 8342706
6.118730 -5.552278 2.014348 8342706
6.077527 -5.449949 0.896923 8342706
6.141317 -6.426726 1.154918 8342706
5.671079 -6.076788 0.147448 8342706
5.848214 -5.604024 2.604470 8342706
5.791596 -6.394602 2.633836 8342706
6.096447 -5.467146 3.469565 8342706
5.765239 -6.291068 3.366055 8342706
6.299914 -6.328965 1.076842 8342706
5.807583 -6.528914 4.757255 8342706
6.246264 -5.647666 4.899861 8342706
5.999928 -6.468439 1.861367 8342706
5.696771 -5.791275 0.308602 8342706
6.296293 -5.521397 4.298477 8342706
5.593470 -5.848069 4.362113 8342706
6.216780 -5.589654 0.494256 8342706
6.283011 -6.364355 4.024528 8342706
6.189852 -6.545488 0.577016 8342706
6.178985 -5.859757 1.009405 8342706
6.441049 -6.143877 2.763961 8342706
6.058620 -6.389688 3.735931 8342706
5.994232 -5.556310 2.051060 8342706
6.466155 -6.196388 3.298538 8342706
6.124562 -5.435170 0.227062 8342706
5.485198 -5.710241 4.403617 8342706
6.166392 -6.345957 1.667534 8342706
6.402852 -5.603565 1.845841 8342706
5.886041 -6.103254 0.915879 8342706
6.366943 -5.616377 3.684172 8342706
5.636414 -6.120874 3.732621 8342706
6.484509 -5.899281 1.162426 8342706
5.746654 -6.024683 2.424876 8342706
6.250525 -6.322310 2.942203 8342706
5.713786 -6.380210 4.077350 8342706
6.053361 -6.280092 3.900301 8342706
6.400109 -5.543207 4.949057 8342706
6.524329 -6.278270 4.655223 8342706
6.017537 -5.936069 3.867815 8342706
6.173063 -6.390930 4.345565 8342706
5.731415 -6.207785 1.976820 8342706
6.431772 -5.882339 2.102166 8342706
6.443169 -5.981029 2.202206 8342706
5.853303 -5.436338 1.057033 8342706
6.482615 -5.804310 0.295139 8342706
5.851231 -5.468144 1.409030 8342706
6.229981 -5.707816 4.835063 8342706
5.976446 -5.661653 1.245380 8342706
6.472649 -5.813840 2.246377 8342706
5.788961 -6.215620 3.704698 8342706
6.281337 -6.201840 1.528537 8342706
5.969178 -6.414631 3.974347 8342706
6.008442 -5.824593 2.292712 8342706
6.165582 -6.066422 4.089047 8342706
6.175801 -6.416997 4.340113 8342706
6.293732 -5.611075 4.750505 8342706
6.345055 -5.827640 3.606243 8342706
5.999097 -5.790429 3.172456 8342706
6.529300 -5.875307 3.031878 8342706
6.286584 -5.869144 2.849775 8342706
6.290108 -6.323689 2.010679 8342706
5.756845 -5.716121 3.620565 8342706
5.690983 -5.739962 3.083153 8342706
6.277227 -5.995782 1.462874 8342706
6.404982 -6.231865 1.094751 8342706
5.818034 -5.584970 2.980215 8342706
5.522799 -5.906665 0.107705 8342706
5.639276 -5.649199 0.434227 8342706
5.618714 -5.589917 2.860264 8342706
5.993823 -5.515272 2.121463 8342706
5.531639 -6.116163 1.864258 8342706
6.137413 -5.495634 3.479441 8342706
5.425991 -5.915326 4.617247 8342706
5.445319 -5.776427 2.933837 8342706
6.194858 -6.301011 1.853619 8342706
5.569976 -6.369896 0.829263 8342706
5.862166 -6.526740 1.628936 8342706
6.088230 -6.362686 3.435247 8342706
5.964847 -6.491657 4.612888 8342706
6.355577 -6.163820 0.795957 8342706
6.496904 -6.317927 1.455027 8342706
6.553876 -5.917017 3.394956 8342706
5.573008 -6.092490 1.115447 8342706
6.279458 -6.283857 1.962778 8342706
6.166192 -6.292025 2.951790 8342706
6.059288 -6.521605 4.971715 8342706
5.986866 -6.460872 0.633280 8342706
6.289547 -5.776803 1.750671 8342706
6.404227 -5.923523 1.289396 8342706
6.219715 -6.394842 0.496337 8342706
6.292779 -6.142054 2.914396 8342706
6.487645 -6.132698 0.106716 8342706
6.076446 -5.672243 1.218707 8342706
6.486788 -6.280657 4.296613 8342706
6.459785 -5.639008 4.807968 8342706
