# .PCD v0.7 - Point Cloud Data file format
VERSION 0.7
FIELDS x y z rgb
SIZE 4 4 4 4
TYPE F F F U
COUNT 1 1 1 1
WIDTH 1304
HEIGHT 1
VIEWPOINT 0 0 0 1 0 0 0
POINTS 1304
DATA ascii
-4.117853 -19.501707 1.335940 1645029
-4.099449 -19.492460 0.895999 1645029
-3.530223 -19.810822 0.936615 1645029
-3.951358 -19.483410 1.075180 1645029
-3.872635 -19.121603 1.081944 1645029
-4.375776 -19.821667 1.061172 1645029
-3.871029 -19.477327 1.164523 1645029
-4.144416 -19.851147 1.082463 1645029
-4.097217 -19.689764 0.514342 1645029
-4.313411 -19.570223 0.875092 1645029
-3.695842 -19.659754 1.155983 1645029
-3.907513 -19.583332 1.210611 1645029
-4.061326 -19.380850 0.681238 1645029
-3.777241 -19.402077 0.680710 1645029
-3.780300 -19.138725 0.990475 1645029
-3.802434 -19.514366 0.887527 1645029
-4.000995 -19.537392 0.673771 1645029
-3.615313 -19.841635 0.808331 1645029
-4.003201 -19.973858 0.952026 1645029
-3.520694 -19.573488 0.970711 1645029
-3.975350 -19.706598 0.838717 1645029
-4.069210 -19.876554 1.327648 1645029
-4.006048 -19.404373 0.510185 1645029
-3.489375 -19.578323 1.253808 1645029
-4.230830 -19.229403 0.735183 1645029
-4.231681 -19.329905 0.649768 1645029
-3.820348 -19.989880 0.883987 1645029
-4.196614 -19.696468 0.882405 1645029
-3.889277 -19.960260 0.954705 1645029
-3.773021 -19.616919 0.989398 1645029
-4.210526 -19.668877 1.001786 1645029
-4.039344 -19.297905 0.910847 1645029
-4.037771 -19.052456 0.941619 1645029
-4.132556 -19.617983 1.407436 1645029
-4.031838 -19.665089 1.155691 1645029
-3.782054 -19.381952 1.267273 1645029
-3.572701 -19.421349 1.143424 1645029
-3.461221 -19.452833 1.015215 1645029
-4.224932 -19.876072 1.231116 1645029
-3.657781 -19.207155 1.044131 1645029
-3.540630 -19.561762 1.027791 1645029
-4.149274 -19.331438 0.577489 1645029
-4.012685 -19.231606 1.249927 1645029
-3.894716 -19.139767 1.052303 1645029
-3.729901 -19.334332 0.875542 1645029
-3.917510 -19.351221 0.536975 1645029
-3.587208 -19.520681 1.016640 1645029
-3.569486 -19.304981 1.202729 1645029
19.294239 -5.586746 0.611850 1690649
19.024492 -6.018127 0.776065 1690649
19.231493 -5.958516 0.713073 1690649
18.671850 -6.030451 1.301695 1690649
19.321146 -5.849568 0.483111 1690649
19.038458 -5.789366 0.592092 1690649
19.286476 -5.881816 1.014939 1690649
18.990694 -5.952785 1.058636 1690649
19.497889 -5.938422 1.284519 1690649
18.846443 -5.920321 0.935006 1690649
19.473763 -5.806148 0.530511 1690649
19.138523 -6.028062 1.749112 1690649
19.061649 -6.262162 0.195393 1690649
18.771248 -5.675143 1.081401 1690649
19.166471 -5.571838 1.028535 1690649
19.299685 -6.214982 1.161381 1690649
19.495352 -5.996192 1.022109 1690649
18.921282 -6.037682 0.575621 1690649
19.218588 -5.776383 1.402000 1690649
19.178862 -5.951477 1.125065 1690649
19.165361 -5.513165 1.727571 1690649
19.168278 -6.272062 1.185319 1690649
18.683645 -6.057315 0.864857 1690649
18.676786 -6.050859 0.881866 1690649
18.804544 -5.516118 1.526489 1690649
19.234398 -5.974196 1.844849 1690649
18.756252 -5.981392 1.410235 1690649
19.251043 -5.595014 1.837503 1690649
19.086395 -6.205568 0.632593 1690649
19.312630 -5.632452 1.229415 1690649
18.903749 -5.545639 1.431067 1690649
18.915792 -5.746970 1.593431 1690649
19.445042 -6.099164 0.975188 1690649
18.879921 -5.781606 0.757943 1690649
19.121145 -6.014941 1.064255 1690649
19.365332 -5.533558 1.119381 1690649
18.678928 -5.857117 0.533329 1690649
19.153513 -5.669339 0.608067 1690649
18.779282 -6.019928 1.288297 1690649
19.112839 -5.623098 1.868379 1690649
19.237507 -5.760759 1.065188 1690649
18.953093 -6.157545 0.355186 1690649
19.222723 -5.711760 1.903873 1690649
19.074759 -6.185927 0.981755 1690649
18.804863 -5.555882 1.911469 1690649
19.296614 -6.052042 1.141035 1690649
19.120266 -6.195176 1.434130 1690649
19.043207 -5.704954 1.016795 1690649
18.938990 -5.498960 1.040003 1690649
19.042385 -5.536825 1.350831 1690649
18.913939 -5.722865 1.243753 1690649
19.242031 -5.455740 0.418226 1690649
19.453527 -5.755749 1.501695 1690649
18.871967 -5.667943 1.014383 1690649
18.690243 -6.043839 1.843399 1690649
19.031336 -6.227987 1.714858 1690649
18.902649 -5.949351 0.810398 1690649
18.900604 -5.742563 0.569323 1690649
19.431353 -6.122012 0.916301 1690649
19.028774 -5.917535 1.473929 1690649
18.744469 -5.909034 0.934409 1690649
19.225821 -5.859313 0.132867 1690649
18.846331 -5.738573 0.197889 1690649
19.123743 -6.256828 0.173484 1690649
19.059446 -5.598130 0.989484 1690649
19.190716 -6.088045 1.736042 1690649
18.907967 -6.139180 1.657530 1690649
19.118513 -6.328385 1.781268 1690649
18.865234 -5.721497 0.231040 1690649
18.769341 -6.019356 0.349246 1690649
18.884769 -5.764589 1.356210 1690649
19.215137 -6.011390 0.675801 1690649
18.914669 -6.124491 1.641419 1690649
19.448664 -5.929347 1.141797 1690649
19.216301 -5.883106 0.102756 1690649
19.037004 -5.520922 1.225941 1690649
19.128635 -5.700899 0.224157 1690649
19.059317 -6.217474 1.103316 1690649
19.401215 -5.903274 0.733924 1690649
19.265009 -5.593945 1.181325 1690649
19.009068 -5.445124 0.219405 1690649
19.050631 -6.069808 0.460399 1690649
19.166195 -5.707860 0.887239 1690649
18.933207 -5.826301 1.770299 1690649
18.726597 -5.775427 0.686283 1690649
19.176500 -6.237517 0.207852 1690649
19.048439 -6.248086 1.474904 1690649
18.904446 -6.156888 0.146699 1690649
19.291464 -5.693573 1.512839 1690649
19.374174 -6.074802 1.256378 1690649
19.079372 -5.574233 1.688569 1690649
19.023802 -5.548067 1.102276 1690649
19.288671 -5.594853 0.777535 1690649
18.853140 -5.955032 0.162045 1690649
18.851227 -5.541780 1.270354 1690649
19.361345 -6.162078 0.585251 1690649
18.856936 -5.744345 1.657264 1690649
18.995415 -5.846304 1.890100 1690649
19.365450 -5.690254 0.497570 1690649
18.941902 -6.086618 1.646931 1690649
18.718767 -6.072309 0.967316 1690649
18.958338 -5.572006 1.741451 1690649
18.921019 -6.132349 1.468778 1690649
18.769720 -5.655615 0.613585 1690649
18.865236 -5.663415 0.134537 1690649
18.772511 -6.205598 1.118271 1690649
18.840656 -5.641386 0.616109 1690649
18.883423 -5.650561 1.068706 1690649
18.723755 -6.075046 0.767619 1690649
18.852465 -6.000602 1.276885 1690649
19.412815 -6.147643 0.118330 1690649
19.112482 -5.470430 1.864204 1690649
19.473551 -5.788432 0.965124 1690649
19.278767 -6.254382 1.837416 1690649
19.440565 -5.784946 1.440943 1690649
19.207958 -6.141005 1.050934 1690649
19.318613 -5.707511 1.358766 1690649
19.089966 -6.211767 1.137892 1690649
19.011824 -5.534562 0.760504 1690649
19.142906 -6.251597 0.153278 1690649
18.676931 -5.923547 0.972326 1690649
18.778240 -5.612512 0.295164 1690649
19.373346 -5.742422 1.314381 1690649
19.311872 -6.182512 0.101335 1690649
18.853746 -5.884121 1.060947 1690649
19.133158 -6.100159 0.264563 1690649
18.717287 -5.933071 0.958403 1690649
19.087152 -6.161861 0.474469 1690649
19.450197 -5.698725 0.685383 1690649
18.780626 -5.772865 1.857289 1690649
18.970562 -5.754906 0.232555 1690649
19.198635 -5.906236 0.463755 1690649
19.379364 -6.184109 0.891385 1690649
18.667122 -5.705817 1.412756 1690649
18.854872 -5.772540 1.538356 1690649
18.915607 -5.883048 0.318782 1690649
19.260099 -6.185776 1.452749 1690649
18.985964 -5.915030 0.495261 1690649
19.282265 -6.025766 1.328315 1690649
19.206099 -5.658112 0.202455 1690649
18.695074 -5.929513 0.657095 1690649
19.476036 -6.004103 0.771993 1690649
19.373896 -5.757431 1.295064 1690649
18.952127 -5.801843 0.886521 1690649
18.797699 -5.884676 0.647345 1690649
19.475763 -5.728747 1.193140 1690649
19.135071 -6.013609 1.289857 1690649
18.915451 -5.757946 1.677147 1690649
19.095037 -5.476943 1.198750 1690649
19.466267 -5.869035 1.261717 1690649
19.286049 -6.061741 0.509955 1690649
18.840395 -5.852922 1.003413 1690649
19.159523 -5.875941 1.206004 1690649
19.238911 -5.985566 0.695232 1690649
-4.363922 7.174947 0.465790 10053171
-5.965063 7.091331 0.407843 10053171
-4.441144 6.973136 2.349532 10053171
-5.173759 7.157887 2.888076 10053171
-3.825345 7.005936 0.304736 10053171
-6.689116 6.758420 2.457913 10053171
-4.100808 7.166994 2.543215 10053171
-3.167669 6.971358 1.347026 10053171
-4.401012 6.979923 0.492655 10053171
-3.520791 7.186096 2.573456 10053171
-3.680491 7.205507 2.492037 10053171
-3.275363 6.970771 0.851881 10053171
-3.997577 7.057379 0.169644 10053171
-4.962943 6.804849 1.171059 10053171
-6.831503 6.982950 0.183832 10053171
-4.602696 7.114291 2.215819 10053171
-6.434994 6.963856 1.197998 10053171
-4.661587 6.930589 0.453378 10053171
-6.912126 6.755202 2.817982 10053171
-6.305555 7.225419 2.886295 10053171
-6.073808 7.074891 0.772972 10053171
-6.148673 6.806748 2.827168 10053171
-3.741403 6.875238 2.206017 10053171
-4.817733 7.053851 2.527093 10053171
-6.585136 7.024854 2.642781 10053171
-6.066574 7.157207 1.111794 10053171
-3.399305 7.151781 1.442413 10053171
-4.617477 6.956328 1.346372 10053171
-5.996401 7.210986 2.428897 10053171
-6.674075 7.032962 2.945368 10053171
-6.882620 7.066823 1.115854 10053171
-5.985529 6.759280 0.171588 10053171
-6.127964 7.031794 1.964399 10053171
-3.855323 6.957958 0.573524 10053171
-4.691262 7.152173 0.111646 10053171
-5.863449 7.166817 2.072522 10053171
-4.840000 6.956391 1.422793 10053171
-5.490256 7.233824 2.747593 10053171
-5.054412 6.761135 1.302924 10053171
-6.165914 6.966107 2.551421 10053171
-4.482070 6.930615 2.127582 10053171
-4.110979 7.129186 1.103470 10053171
-3.866710 6.762575 0.876435 10053171
-4.706634 6.935095 2.254633 10053171
-5.546560 6.945716 0.639410 10053171
-3.798079 7.051988 1.178875 10053171
-3.503489 7.056632 2.107923 10053171
-4.265966 7.192296 0.705038 10053171
-4.112020 7.256464 2.563689 10053171
-5.297246 6.955314 1.618867 10053171
-6.765308 7.063228 2.633673 10053171
-5.683462 6.968194 1.202984 10053171
-5.758723 6.850178 2.779391 10053171
-3.550939 6.863886 2.708875 10053171
-3.101295 6.895508 0.619288 10053171
-5.022127 7.053927 2.163380 10053171
-3.507378 7.060995 0.815807 10053171
-5.438663 7.041737 1.620158 10053171
-3.373225 7.089443 2.169763 10053171
-6.449588 7.178620 0.007814 10053171
-6.375937 6.752110 2.587695 10053171
-4.397081 6.956816 2.936107 10053171
-6.312376 6.958516 0.857399 10053171
-3.762286 7.162787 1.053731 10053171
-3.563248 7.072586 2.693469 10053171
-4.174406 6.940516 2.147289 10053171
-6.341559 6.809813 1.043703 10053171
-3.779354 7.018730 1.945924 10053171
-3.901723 7.061988 1.247599 10053171
-5.447563 7.209544 0.696280 10053171
-5.920251 6.932568 2.519013 10053171
-3.291591 6.949679 1.497311 10053171
-6.810087 6.768302 2.287144 10053171
-3.690191 6.989959 0.992058 10053171
-6.502104 7.196481 1.582692 10053171
-5.307662 6.977390 0.870150 10053171
-6.481562 6.872558 0.441497 10053171
-4.544203 7.096210 2.283129 10053171
-6.716843 7.183334 1.131789 10053171
-4.015523 6.888489 0.252652 10053171
-5.778634 7.206138 0.691598 10053171
-6.955954 7.059973 2.917046 10053171
-3.120368 7.067160 2.155278 10053171
-4.126688 7.100867 0.054491 10053171
-4.460269 7.179020 1.349930 10053171
-6.608737 7.200050 0.416704 10053171
-5.841842 6.851762 0.159690 10053171
-3.255371 6.874048 0.154693 10053171
-6.520605 6.916788 1.304271 10053171
-5.964015 6.847678 -0.012402 10053171
-5.444218 7.052881 1.756526 10053171
-6.390326 7.005029 2.968356 10053171
-6.068545 6.809707 2.973585 10053171
-4.236558 7.218069 1.417944 10053171
-4.285102 7.082795 2.209681 10053171
-3.914413 7.177615 2.391866 10053171
-5.669145 7.219433 0.398657 10053171
-5.339925 6.902713 0.469302 10053171
-3.340400 6.953272 0.983716 10053171
-6.877392 6.949318 0.230106 10053171
-4.482352 6.816978 1.732716 10053171
-6.263100 7.227101 1.518398 10053171
-3.853470 7.196422 0.884784 10053171
-3.779535 6.957019 2.097060 10053171
-4.813675 7.146449 1.242958 10053171
-5.645774 7.246524 1.582189 10053171
-4.223142 6.963179 0.414201 10053171
-5.538521 7.219869 0.309315 10053171
-3.268185 7.070385 0.141944 10053171
-5.118471 6.779157 1.798719 10053171
-5.631826 7.044958 2.626190 10053171
-5.449081 6.886781 2.376838 10053171
-4.467673 6.918453 0.706655 10053171
-4.780583 6.947057 2.319332 10053171
-6.501062 6.992370 1.158527 10053171
-5.735838 6.781084 1.370026 10053171
-4.565076 6.909928 1.778785 10053171
-4.055327 7.069833 2.559008 10053171
-3.329309 7.021280 0.173655 10053171
-4.619322 6.761624 1.414156 10053171
-3.821389 7.196814 0.861177 10053171
-5.151596 6.841245 0.232700 10053171
-6.441197 6.753500 0.288870 10053171
-5.593255 7.015672 0.819160 10053171
-3.146898 7.179278 1.564892 10053171
-5.378454 7.052520 2.730023 10053171
-5.309834 6.934134 2.687653 10053171
-4.382670 6.895849 0.778812 10053171
-6.972482 7.121672 2.665038 10053171
-4.291328 7.044389 2.885430 10053171
-4.861378 6.982401 0.239274 10053171
-6.478593 6.897090 2.252589 10053171
-5.350562 6.910469 1.733881 10053171
-5.248471 7.041114 1.620891 10053171
-4.653118 6.832738 0.838398 10053171
-3.272527 6.823350 0.443642 10053171
-4.015328 6.957797 1.225632 10053171
-3.767629 7.229877 0.777691 10053171
-5.110747 7.037728 2.748359 10053171
-4.758327 7.154743 1.107967 10053171
-5.650877 6.792509 2.551851 10053171
-5.397738 7.159141 2.287848 10053171
-6.058121 6.985978 2.958186 10053171
-3.729184 6.946564 1.070195 10053171
-4.238493 7.087111 2.731149 10053171
-5.928587 7.039502 0.664068 10053171
-4.959247 6.813576 2.311061 10053171
-3.918156 6.819285 1.377035 10053171
-6.009321 7.205315 1.720738 10053171
-3.604503 7.198048 0.414216 10053171
-5.866853 6.922733 2.266119 10053171
-6.569756 6.873377 1.748950 10053171
-4.765100 6.787451 2.800334 10053171
-6.493362 7.172765 1.211856 10053171
-3.570926 7.015478 1.100305 10053171
-6.257783 6.817986 1.547725 10053171
-3.015974 6.859808 1.559288 10053171
-6.382807 7.241397 0.952846 10053171
-4.797896 6.992142 1.238079 10053171
-6.403443 7.087060 0.933177 10053171
-6.883441 6.885213 2.260236 10053171
-3.712180 7.200198 1.810123 10053171
-4.242394 7.186676 0.801821 10053171
-6.313542 6.792448 2.931026 10053171
-3.045261 6.751125 2.252845 10053171
-6.415119 6.923919 1.485097 10053171
-6.307400 6.979058 1.020047 10053171
-5.143857 6.776114 1.223117 10053171
-3.958917 7.167006 0.947182 10053171
-6.403623 7.083204 0.863371 10053171
-6.216893 6.755339 2.097610 10053171
-3.525014 7.024576 0.954714 10053171
-5.330981 6.962237 2.337901 10053171
-4.507851 6.782093 0.637224 10053171
-5.587388 7.216707 0.157936 10053171
-3.624529 6.914272 1.833104 10053171
-6.995453 7.158167 2.086078 10053171
-6.197493 7.178985 1.943034 10053171
-4.728137 6.898533 0.444081 10053171
-5.540833 6.964781 1.754396 10053171
-6.755969 6.767468 1.255197 10053171
-5.564823 6.818233 1.483175 10053171
-6.403424 6.854434 2.047554 10053171
-5.978240 6.786831 1.076833 10053171
-5.777814 6.764848 2.077813 10053171
-5.550786 6.803772 1.581201 10053171
-3.362214 7.060596 2.611716 10053171
-5.053649 7.032490 0.343965 10053171
-4.191385 7.170761 0.571802 10053171
-5.051061 7.124155 0.840056 10053171
-6.384006 6.915492 2.869501 10053171
-6.862772 6.824149 2.535927 10053171
-6.717814 6.770663 0.420608 10053171
-3.232855 7.105427 1.586347 10053171
-6.026765 6.751531 2.589018 10053171
-4.063776 6.930787 1.547618 10053171
-6.717243 7.236379 0.595879 10053171
-6.909346 6.969219 2.987082 10053171
-4.464394 6.932721 1.937313 10053171
-4.885473 7.093537 2.570455 10053171
-3.961417 7.105911 0.787325 10053171
-4.119681 7.248711 0.520420 10053171
-3.917837 6.787814 1.140846 10053171
-3.485808 7.223963 2.489582 10053171
-3.372305 7.151200 0.169611 10053171
-3.150110 6.788287 0.468829 10053171
-4.784506 7.209226 1.067330 10053171
-6.915725 7.094156 0.589764 10053171
-6.249885 6.787113 1.874533 10053171
-6.643662 6.918328 0.617054 10053171
-6.349705 7.185865 1.713981 10053171
-6.426881 6.821521 1.119227 10053171
-4.977860 6.837413 0.309276 10053171
-5.289574 7.026533 1.118014 10053171
-6.002379 7.074499 1.258543 10053171
-3.178649 7.020655 2.075197 10053171
-4.534813 6.926239 0.155392 10053171
-6.040943 6.824692 0.139466 10053171
-3.623012 7.162657 0.343365 10053171
-3.344878 7.189849 2.604224 10053171
-3.997557 6.889180 2.662579 10053171
-4.109926 6.830122 2.987821 10053171
-5.543556 7.097454 1.931665 10053171
-4.322342 7.152414 0.724454 10053171
-4.256410 6.932779 0.564610 10053171
-3.609581 7.145115 0.604072 10053171
-3.740699 6.955738 0.902832 10053171
-4.660150 7.018166 0.625411 10053171
-4.171476 6.951155 0.202857 10053171
-6.537773 6.785982 2.344075 10053171
-4.734894 7.147157 0.514642 10053171
-5.168196 6.986424 1.459519 10053171
-6.459710 7.255595 1.319070 10053171
-6.980107 7.031423 2.094424 10053171
-6.617122 7.249049 1.468287 10053171
-5.047528 7.112368 2.881191 10053171
-4.711607 6.833171 0.730682 10053171
-4.280983 6.927403 1.321322 10053171
-5.432593 6.825095 2.053814 10053171
-4.013838 6.752524 2.811065 10053171
-5.964218 7.026098 1.401859 10053171
-6.735760 6.767521 0.264019 10053171
-3.283059 7.134145 2.681671 10053171
-5.114202 7.083047 1.719956 10053171
-5.865950 7.177135 0.497059 10053171
-6.242503 6.876883 1.075026 10053171
-6.946845 7.076003 1.631282 10053171
-5.752284 7.222010 2.558551 10053171
-6.219933 6.934533 2.044419 10053171
-3.802927 6.956385 1.365266 10053171
-5.733609 7.157281 0.878764 10053171
-3.119358 6.814890 0.968432 10053171
-3.903126 6.846604 1.118919 10053171
-5.332197 7.161358 1.621985 10053171
-3.497099 6.754247 0.841376 10053171
-4.672321 7.249400 1.570167 10053171
-3.650661 7.011090 2.202292 10053171
-4.566387 7.124938 2.673168 10053171
-4.905371 7.087200 2.101257 10053171
-6.901900 6.791007 2.389465 10053171
-3.422008 7.112053 0.830108 10053171
-5.514707 7.066096 2.926943 10053171
-4.824996 6.920499 0.689019 10053171
-4.585484 7.005503 2.184313 10053171
-6.911948 7.041961 2.209955 10053171
-3.657221 6.838867 1.232327 10053171
-4.338237 6.941264 0.832097 10053171
-6.448028 6.768560 2.086837 10053171
-6.032881 6.789837 2.066971 10053171
-4.820752 6.754469 0.966670 10053171
-3.715283 6.866072 0.012312 10053171
-4.867723 7.122443 2.476996 10053171
-3.751323 6.988780 2.481888 10053171
-5.163372 7.085004 1.506463 10053171
-6.227942 6.843256 1.617139 10053171
-6.685510 7.177368 2.913469 10053171
-3.950601 6.901854 0.951208 10053171
-6.245794 7.047206 0.934891 10053171
-4.886762 7.176539 1.510940 10053171
-3.287815 7.209936 0.909483 10053171
-6.349397 7.088568 1.848499 10053171
-5.689862 6.809987 1.333106 10053171
-3.544749 6.904207 0.417781 10053171
-5.623044 6.793351 2.114838 10053171
-4.304707 7.249376 0.424304 10053171
-3.202289 7.002461 1.433663 10053171
-3.101222 6.936601 1.824197 10053171
-4.055073 6.760065 0.904831 10053171
-4.275550 7.188994 1.317521 10053171
-3.088469 6.842577 0.299473 10053171
-4.016472 7.119119 1.434616 10053171
-5.413548 6.920690 1.058337 10053171
-3.979035 6.962452 0.356563 10053171
-3.792058 6.936635 0.174255 10053171
-5.721146 7.243387 1.851480 10053171
-5.699418 7.219731 1.791723 10053171
-6.036644 6.768704 2.399308 10053171
-3.618034 6.945824 0.803439 10053171
-5.213553 7.115438 1.190820 10053171
-5.112187 6.831288 2.505800 10053171
-4.276296 7.188927 0.640570 10053171
-6.963901 7.221482 0.052867 10053171
-4.032226 6.796989 1.125797 10053171
-4.054327 6.795818 1.847837 10053171
-5.387373 6.869443 2.720476 10053171
-3.294868 7.032393 1.545305 10053171
-3.316862 7.206274 -0.011394 10053171
-3.227877 6.834979 1.501590 10053171
-4.653839 6.946227 1.558222 10053171
-4.968788 6.861916 0.150303 10053171
-6.804212 6.835805 1.562765 10053171
-5.555844 6.928431 0.147525 10053171
-6.928205 6.903955 1.408872 10053171
-4.184963 6.766671 1.296455 10053171
-6.380714 6.927039 0.241960 10053171
-3.365340 6.761581 2.834265 10053171
-4.113692 6.774077 1.402970 10053171
-4.752702 6.836587 1.918817 10053171
-6.151909 6.807169 0.133899 10053171
-5.185689 7.142323 1.855574 10053171
-6.269475 7.106443 2.249349 10053171
-5.135791 7.096199 1.383755 10053171
-6.448082 6.940633 1.332223 10053171
-5.471479 7.076131 0.289722 10053171
-4.951452 7.181272 1.789086 10053171
-3.870384 6.997593 1.643307 10053171
-5.416764 7.087761 2.724806 10053171
-5.702642 7.048742 2.974848 10053171
-6.836584 7.140565 0.779880 10053171
-4.912890 7.174222 1.138248 10053171
-6.976150 6.937473 0.263865 10053171
-6.733391 6.974446 1.051617 10053171
-4.316040 6.795709 1.928724 10053171
-3.977301 7.166581 0.081833 10053171
-3.106282 7.034475 1.329290 10053171
-3.865679 7.025238 0.418418 10053171
-3.103737 6.746497 1.741896 10053171
-3.460228 6.871169 0.321155 10053171
-6.622032 7.087245 1.215855 10053171
-4.082647 7.138336 0.747246 10053171
-3.804576 6.996444 2.076883 10053171
-3.803828 7.018737 1.243337 10053171
-4.618956 7.140795 2.662409 10053171
-4.597296 7.229434 2.351143 10053171
-6.241836 7.151870 0.874091 10053171
-3.104970 6.888872 0.014765 10053171
-4.388943 6.757631 0.505867 10053171
-5.186540 7.016024 2.854328 10053171
-5.335543 6.986617 2.473847 10053171
-3.664308 7.226698 1.087922 10053171
-4.825087 6.773754 0.066787 10053171
-4.738780 7.124829 0.918976 10053171
-4.077243 6.904321 1.513153 10053171
-3.531723 6.953939 0.982083 10053171
-6.974233 7.108403 0.901011 10053171
-3.904355 6.916362 1.365995 10053171
-3.597108 6.950270 2.721052 10053171
-5.491829 6.839709 2.594504 10053171
-5.399351 6.785331 2.386866 10053171
-3.030160 6.803473 2.938989 10053171
-6.163829 6.844844 2.047603 10053171
-4.440374 7.126157 0.786102 10053171
-4.518478 7.030676 0.712970 10053171
-3.181700 7.231717 2.719234 10053171
-5.893606 7.192715 2.529394 10053171
-4.241276 6.896316 2.141243 10053171
-3.196622 6.936670 0.499011 10053171
-4.987517 6.844006 1.839723 10053171
-3.711075 6.982275 0.089627 10053171
-4.324701 7.208432 0.520787 10053171
-6.206606 6.885710 1.542916 10053171
-3.864632 7.209714 0.590707 10053171
-5.452967 6.782431 1.457889 10053171
-3.231835 6.824157 2.186909 10053171
-3.449071 6.956950 0.341837 10053171
-3.958887 7.240793 2.075752 10053171
-6.171339 7.182775 0.251222 10053171
-6.567361 6.902260 0.529700 10053171
-4.617090 6.897850 1.244157 10053171
-5.140735 6.785192 0.011410 10053171
-5.451270 6.812261 0.500659 10053171
-3.764176 6.793671 0.421149 10053171
-5.343009 7.211510 0.702524 10053171
-3.171956 7.188323 1.394564 10053171
-4.956131 6.763005 2.535110 10053171
-6.730818 7.114613 1.626660 10053171
-4.834519 6.778842 1.169736 10053171
-4.073592 7.034094 1.642454 10053171
-4.085158 7.020363 1.599012 10053171
-3.488518 6.910174 2.929828 10053171
-4.063409 7.167366 2.907820 10053171
-6.613091 6.913640 1.727521 10053171
-5.196698 7.060320 1.713021 10053171
-5.112351 7.170922 2.145530 10053171
-4.503502 6.866482 0.043510 10053171
-5.336062 6.750775 2.592680 10053171
-5.179547 6.757433 1.356358 10053171
-4.077703 6.882833 0.710995 10053171
-4.396294 7.039417 1.046790 10053171
-5.228091 7.118842 0.684914 10053171
-3.737668 6.778371 1.899027 10053171
-3.647675 7.252349 2.769330 10053171
-3.369237 7.143470 1.001855 10053171
-4.064020 7.204474 2.643843 10053171
-3.091509 7.193945 2.861516 10053171
-3.578413 7.016853 1.665843 10053171
-5.317333 7.123098 0.075968 10053171
-3.936025 6.926945 2.312985 10053171
-6.402588 7.045966 2.537666 10053171
-3.110587 7.092548 2.802212 10053171
-4.855655 7.163284 0.129062 10053171
-5.891986 6.879121 0.154049 10053171
-4.285549 7.040679 0.560282 10053171
-4.639777 7.137300 0.021890 10053171
-6.591420 7.216342 1.365262 10053171
-6.063914 6.924479 0.095064 10053171
-5.825052 6.762160 2.907827 10053171
-4.475353 7.047643 2.838503 10053171
-5.615547 7.207922 2.538014 10053171
-3.115268 6.974906 0.630480 10053171
-5.756522 6.963840 0.602716 10053171
-4.086121 7.103863 1.558027 10053171
-4.693343 6.765710 1.665636 10053171
-4.979065 7.141075 1.219096 10053171
-4.421833 6.972361 0.496836 10053171
-5.294193 7.244118 0.299548 10053171
-3.869119 6.937369 0.816777 10053171
-4.245960 6.938455 2.665452 10053171
-5.255592 7.115072 1.715338 10053171
-3.029300 6.985945 0.248157 10053171
-5.428013 6.883038 1.040358 10053171
-6.567763 7.076057 2.714966 10053171
-5.110186 6.821899 1.645138 10053171
-3.040326 6.915004 0.751378 10053171
-6.578883 7.002333 1.183741 10053171
-3.071933 6.985772 0.188470 10053171
-6.249606 7.228797 1.903533 10053171
-3.659707 6.939762 1.367596 10053171
-4.176864 7.106793 0.187496 10053171
-3.859194 7.155731 1.790869 10053171
-4.163056 7.015037 1.335700 10053171
-3.083076 6.803273 0.735383 10053171
-5.604154 7.227386 0.124150 10053171
-5.674133 7.016449 2.790208 10053171
-4.806186 6.954223 1.796098 10053171
-5.941895 7.164687 2.039973 10053171
-3.341382 7.099088 0.971933 10053171
-6.492145 6.818764 0.739461 10053171
-6.581141 7.076122 1.922235 10053171
-3.743480 6.862155 0.029854 10053171
-4.636676 7.114250 2.038441 10053171
-5.606240 6.758173 2.679549 10053171
-3.965988 7.086882 0.445102 10053171
-3.906485 6.785871 1.639715 10053171
-5.391535 7.020834 0.805350 10053171
-4.831362 6.838945 1.760445 10053171
-5.780329 6.943041 1.087763 10053171
-6.601843 6.849938 0.179544 10053171
-4.526226 6.969513 1.701299 10053171
-3.712117 7.106286 2.805495 10053171
-5.700609 6.862731 0.072849 10053171
-5.664886 7.044076 0.384664 10053171
-4.258862 6.845549 0.846150 10053171
-5.880426 6.849321 2.070676 10053171
-4.908193 6.818687 2.918887 10053171
-3.160026 7.001217 2.026425 10053171
-3.614593 6.904675 1.095268 10053171
-4.764536 7.117209 2.845690 10053171
-4.525754 7.152905 1.479155 10053171
-3.433698 7.087929 1.067238 10053171
-3.154801 7.151754 0.519602 10053171
-5.409087 7.091251 0.820897 10053171
-6.655635 6.980665 2.579974 10053171
-3.296134 6.889958 2.391528 10053171
-5.828699 7.138585 2.063972 10053171
-4.683295 6.942695 1.470831 10053171
-4.309834 6.851162 2.108505 10053171
-3.005975 6.761325 2.454515 10053171
-3.045530 6.991026 1.061220 10053171
-4.373705 7.191150 0.291479 10053171
-5.494709 7.229177 2.287904 10053171
-5.591747 7.109546 1.134739 10053171
-3.860047 6.911409 1.854699 10053171
-4.673295 7.088120 2.917858 10053171
-4.737140 7.182862 2.714800 10053171
-6.295061 7.055610 1.590821 10053171
-3.120085 7.207592 0.315659 10053171
-4.524149 6.881617 2.779251 10053171
-3.050010 6.930036 1.124713 10053171
-4.460547 7.251494 2.839980 10053171
-5.022933 6.902766 2.689185 10053171
-3.209207 6.978552 0.523726 10053171
-5.996037 6.815779 0.789627 10053171
-4.678688 7.133636 0.323115 10053171
-3.000279 7.065810 0.556654 10053171
-5.429149 6.906920 1.099746 10053171
-3.950410 6.804168 0.627498 10053171
-6.083652 6.970428 2.728228 10053171
-3.310977 6.912602 0.552887 10053171
-5.724158 6.742682 2.826217 10053171
-4.194537 6.847740 0.625066 10053171
-6.589993 6.996598 2.952114 10053171
-6.905467 7.233571 2.526905 10053171
-6.894143 7.213771 0.738552 10053171
-5.275636 7.008642 2.440247 10053171
-5.202285 6.951873 1.259998 10053171
-3.178347 7.150024 1.904802 10053171
-6.389794 6.950924 1.711096 10053171
-4.072673 6.883892 0.122578 10053171
-3.510365 6.883007 0.004472 10053171
-6.108003 6.878129 1.889127 10053171
-3.096518 7.072222 0.769718 10053171
-3.570605 7.039197 2.715788 10053171
-4.229155 7.049283 2.603335 10053171
-3.437623 6.886477 2.432522 10053171
-5.108278 6.876566 2.874258 10053171
-4.458455 7.111973 1.079205 10053171
-6.599234 6.834795 2.036402 10053171
-3.834150 6.876277 2.296371 10053171
-3.554181 7.000251 1.040217 10053171
-4.281331 6.767875 0.899654 10053171
-3.845971 7.033707 1.001538 10053171
-5.342285 6.980620 2.066493 10053171
-3.240166 6.829638 0.495156 10053171
-3.387729 7.258196 0.645185 10053171
-6.380162 6.750915 1.245591 10053171
-5.800376 7.244816 1.574572 10053171
-3.781952 6.892402 0.812590 10053171
-6.552372 6.874125 1.601213 10053171
-4.372330 6.798801 0.970916 10053171
-5.667518 6.933923 0.051272 10053171
-4.415105 7.011291 1.175035 10053171
-4.183508 6.902952 2.111777 10053171
-3.258261 7.170441 1.281805 10053171
-3.746548 7.208838 2.652091 10053171
-5.873912 6.819898 0.055365 10053171
-5.675516 6.797790 1.577657 10053171
-4.947595 6.963966 2.455740 10053171
-6.079706 7.064471 1.121577 10053171
-6.764600 7.243136 2.111959 10053171
-5.446687 6.869736 1.255077 10053171
-6.178868 6.922566 2.918370 10053171
-5.566339 6.753397 2.419130 10053171
-4.499593 7.182178 1.533091 10053171
-5.309335 6.887639 0.628101 10053171
-6.035575 7.217996 1.486961 10053171
-3.521013 6.858044 2.502541 10053171
-5.673930 6.933183 2.282588 10053171
-6.058570 6.965870 1.436662 10053171
-6.582912 6.893955 1.244283 10053171
-6.740278 7.070221 2.617023 10053171
-6.586265 6.862125 1.834404 10053171
-6.075050 6.982675 2.799235 10053171
-4.219882 7.168430 2.768826 10053171
-4.897126 7.073886 2.191280 10053171
-4.888896 7.151279 0.058863 10053171
-4.111966 6.849056 1.566428 10053171
-6.972363 7.246999 0.317138 10053171
-5.481506 7.163875 0.034495 10053171
-3.509197 6.812751 0.754069 10053171
-6.086342 6.789021 0.909909 10053171
-3.550337 6.798256 2.822602 10053171
-3.528463 7.163252 0.923861 10053171
-5.209624 6.840715 2.959127 10053171
-6.953719 6.863246 2.318999 10053171
-4.322808 6.843070 0.571361 10053171
-4.585464 6.853004 0.861816 10053171
-3.505342 6.819444 0.284114 10053171
-6.435262 7.013382 1.133939 10053171
-5.286498 7.230212 1.675950 10053171
-4.217274 7.184890 1.709012 10053171
-5.743768 7.144115 0.945163 10053171
-4.617223 6.950622 2.953005 10053171
-5.845884 7.033281 1.032468 10053171
-5.215218 7.161074 0.298895 10053171
-4.817019 6.840911 2.738492 10053171
-3.332713 6.998278 0.803595 10053171
-3.893188 7.025119 1.815013 10053171
-5.789226 6.994223 1.282599 10053171
-3.318981 6.962141 1.662002 10053171
-3.002545 7.224975 0.792878 10053171
-3.201541 7.225120 2.767692 10053171
-3.179498 7.184108 2.296388 10053171
-6.056275 6.928828 2.217783 10053171
-6.806922 7.048292 2.060767 10053171
-4.069866 6.783817 1.166455 10053171
-3.203325 7.214696 1.680143 10053171
-6.935109 7.161694 1.479618 10053171
-4.295583 6.885300 1.127693 10053171
-5.302300 7.040457 0.109004 10053171
-6.776551 7.146930 2.874653 10053171
-4.215477 6.830095 2.433895 10053171
-3.447584 7.023270 2.652531 10053171
-3.074888 6.783702 1.146913 10053171
-3.494507 7.210439 0.541576 10053171
-3.459278 6.935707 2.322057 10053171
-4.079746 7.075077 2.715333 10053171
-3.751041 7.078545 2.926335 10053171
-5.745024 6.916692 0.476714 10053171
-4.763669 7.112494 1.548852 10053171
5.867780 -5.973732 1.138119 8342706
6.132943 -5.706072 1.801585 8342706
5.454663 -6.093822 3.658304 8342706
6.197741 -6.457949 0.566957 8342706
5.458128 -6.209547 3.040709 8342706
6.188152 -6.454883 4.080649 8342706
6.353622 -6.062793 4.910719 8342706
6.210334 -5.639205 0.295078 8342706
6.006411 -6.154866 4.002373 8342706
6.197633 -5.991077 0.484581 8342706
5.579961 -5.632487 2.000766 8342706
6.163138 -6.433769 3.311675 8342706
6.535117 -5.777001 4.818517 8342706
6.050195 -5.619169 2.394973 8342706
6.474117 -5.948199 1.324757 8342706
6.065251 -6.227234 2.937349 8342706
6.520697 -5.864077 0.272651 8342706
6.352031 -6.427080 2.969951 8342706
6.275965 -5.514048 2.209797 8342706
6.457015 -6.367577 2.664341 8342706
6.199608 -6.091228 2.978232 8342706
6.271719 -5.557183 2.056703 8342706
5.608866 -6.301459 3.523283 8342706
5.813732 -5.580428 0.183112 8342706
5.654413 -5.763410 0.520487 8342706
6.500266 -5.798641 1.415348 8342706
6.034761 -5.426454 0.771359 8342706
6.197048 -6.353209 1.502508 8342706
6.417455 -6.153308 1.606984 8342706
6.538295 -6.042613 3.471449 8342706
5.610265 -6.174953 3.375445 8342706
5.838470 -6.198021 4.719901 8342706
5.785027 -5.530510 2.050936 8342706
6.326763 -5.774572 2.920265 8342706
6.262864 -5.944159 3.517084 8342706
5.462077 -6.109182 0.551373 8342706
6.406656 -5.804378 1.999735 8342706
5.920419 -5.781757 1.737942 8342706
5.743334 -5.852198 3.114492 8342706
5.655261 -6.184042 1.857800 8342706
5.798290 -5.505712 0.775550 8342706
6.482347 -6.094168 0.396726 8342706
5.998799 -6.134623 4.300189 8342706
5.588836 -6.194211 4.536500 8342706
5.763710 -5.748518 4.176440 8342706
5.748272 -5.934491 3.101270 8342706
6.035115 -5.982430 1.438929 8342706
6.403401 -6.303523 2.025950 8342706
5.654034 -5.718126 3.098399 8342706
6.285830 -6.085066 3.916200 8342706
5.397686 -5.998894 4.558915 8342706
5.940845 -5.461237 4.485971 8342706
5.498405 -5.972211 3.204932 8342706
6.406109 -5.942213 1.950883 8342706
6.176829 -6.498632 4.282245 8342706
6.381460 -5.873614 1.216477 8342706
5.408982 -5.946112 2.326704 8342706
5.522528 -5.758015 4.324605 8342706
6.432710 -5.993036 2.998569 8342706
6.113016 -5.680351 4.843965 8342706
6.276994 -5.857109 2.108249 8342706
5.813477 -5.478299 2.080079 8342706
5.857684 -6.326569 3.561857 8342706
5.986036 -5.513512 3.489284 8342706
5.762303 -6.027530 4.527688 8342706
5.852040 -6.095213 1.741949 8342706
6.175006 -5.748149 2.002855 8342706
6.165906 -6.291043 1.948480 8342706
5.776306 -6.224862 1.514650 8342706
5.609436 -6.245064 1.070838 8342706
5.867677 -6.389788 1.251282 8342706
5.981240 -5.957360 3.024768 8342706
6.057334 -6.115097 4.758016 8342706
5.789737 -5.810961 0.594078 8342706
5.727164 -6.078681 2.498162 8342706
5.955912 -6.004715 3.158000 8342706
5.453483 -6.204468 1.932650 8342706
6.094409 -5.598113 0.158508 8342706
6.427228 -5.948601 1.242325 8342706
6.566893 -6.060109 3.865878 8342706
6.017939 -6.208200 3.303173 8342706
5.583069 -5.662272 1.974964 8342706
6.089690 -6.281521 4.453178 8342706
6.107211 -5.582324 4.629346 8342706
6.447609 -5.670938 0.194921 8342706
5.972882 -6.163908 2.699115 8342706
6.239452 -5.985345 2.436743 8342706
5.492552 -6.151958 3.683386 8342706
6.037054 -6.324673 1.989144 8342706
5.883014 -6.338406 1.004082 8342706
6.189247 -6.408974 4.424023 8342706
5.550203 -5.931857 3.883862 8342706
5.705645 -6.393728 2.519498 8342706
6.092048 -6.509612 1.387414 8342706
5.846580 -5.878528 4.560316 8342706
5.604000 -5.786721 2.335057 8342706
6.459033 -5.848419 2.605028 8342706
6.106522 -6.422426 0.586362 8342706
5.556056 -6.161521 1.856150 8342706
6.314460 -6.030438 1.866118 8342706
6.577210 -6.045617 3.627145 8342706
5.663815 -6.378467 0.610261 8342706
5.664872 -6.470907 0.767988 8342706
6.213394 -6.016931 2.567553 8342706
5.643950 -6.041255 3.295444 8342706
5.768927 -5.576851 4.701587 8342706
5.764787 -6.252554 4.039366 8342706
5.642608 -5.843026 1.239387 8342706
6.445063 -5.963189 4.440624 8342706
5.817362 -5.621935 3.505454 8342706
6.035765 -5.806456 0.925807 8342706
6.161122 -6.374484 1.779723 8342706
6.167715 -5.782598 1.598303 8342706
5.970201 -5.777639 4.080222 8342706
6.051095 -6.209845 4.588743 8342706
5.769946 -6.160817 0.222049 8342706
5.901659 -5.625983 1.658117 8342706
6.200072 -5.618579 3.850665 8342706
5.687909 -5.976030 3.109660 8342706
5.798040 -6.206313 2.598025 8342706
5.704477 -5.847868 2.904459 8342706
5.621645 -6.233552 3.727556 8342706
5.899618 -6.603130 1.065593 8342706
6.111970 -5.809283 1.666383 8342706
6.304857 -6.322517 0.536254 8342706
6.337336 -5.683954 2.311802 8342706
6.138186 -5.587008 3.069847 8342706
5.679749 -5.663626 1.201133 8342706
6.008303 -5.719100 3.705489 8342706
6.193633 -6.025195 4.407557 8342706
6.504834 -6.116276 2.692893 8342706
6.339319 -6.146513 3.360083 8342706
5.679527 -6.297030 4.702734 8342706
6.275779 -5.548228 4.642751 8342706
5.961453 -6.226594 3.549330 8342706
5.766921 -5.638415 2.582096 8342706
6.083060 -6.561556 4.484229 8342706
5.543217 -5.787920 4.254630 8342706
5.513549 -6.143132 2.909719 8342706
6.110220 -5.634717 2.480250 8342706
5.683315 -5.891557 4.055570 8342706
5.876359 -5.439238 3.059039 8342706
6.488965 -5.814661 0.121528 8342706
6.081486 -5.449831 0.392369 8342706
6.396415 -5.704823 0.080756 8342706
6.048247 -5.755960 0.522042 8342706
5.672316 -5.714396 3.072995 8342706
6.337115 -6.225900 1.511566 8342706
6.153899 -5.812749 2.482376 8342706
5.770087 -6.144421 1.605772 8342706
6.009857 -6.214056 0.123449 8342706
5.870286 -6.056382 3.739657 8342706
5.726598 -6.160217 3.399793 8342706
6.285506 -6.251839 4.586656 8342706
6.325931 -6.443930 3.396984 8342706
6.008231 -6.548617 4.173683 8342706
6.029939 -5.675807 4.223639 8342706
5.708600 -5.621089 4.210549 8342706
6.190914 -5.875560 1.882104 8342706
5.506987 -6.219034 4.643408 8342706
5.913619 -6.338890 4.686009 8342706
6.057521 -6.444309 1.311723 8342706
6.118908 -5.600871 2.020595 8342706
5.969461 -6.205773 1.709947 8342706
6.034456 -6.014413 4.543622 8342706
6.081160 -5.622737 1.135982 8342706
6.139039 -6.317672 1.576349 8342706
5.729321 -5.749123 0.137313 8342706
6.327666 -6.186230 3.043073 8342706
6.100691 -5.555828 2.638068 8342706
6.275797 -5.853007 1.012072 8342706
5.627258 -6.083440 1.912120 8342706
5.717955 -5.672171 2.257236 8342706
5.786379 -5.629955 2.604160 8342706
5.504094 -5.910065 3.584718 8342706
6.022850 -5.820625 1.871157 8342706
5.714572 -5.890120 1.434068 8342706
5.750298 -6.251296 2.816139 8342706
5.993264 -6.314643 4.889764 8342706
5.996164 -6.437284 4.830127 8342706
6.089528 -5.596892 3.840974 8342706
5.619691 -5.566483 2.008524 8342706
6.557616 -6.042997 4.263429 8342706
5.673306 -5.597028 1.945617 8342706
6.092451 -6.453751 1.693281 8342706
5.619920 -6.239722 1.864471 8342706
6.301662 -5.906130 3.522042 8342706
6.482252 -5.818515 3.836335 8342706
6.438131 -6.100397 3.857990 8342706
6.107268 -5.861968 3.359092 8342706
6.134275 -6.383554 1.015876 8342706
5.651236 -6.146188 3.339290 8342706
6.500458 -6.316898 0.116914 8342706
6.381584 -6.089614 4.919250 8342706
5.433918 -5.900569 3.785660 8342706
6.482479 -6.026529 0.233723 8342706
6.255392 -5.658585 3.730610 8342706
6.102343 -6.025616 2.472677 8342706
6.267632 -5.986491 0.696459 8342706
6.434833 -5.966769 2.407745 8342706
6.081730 -6.507595 2.787298 8342706
6.380463 -6.078651 1.389908 8342706
6.201615 -5.651057 1.083653 8342706
6.266421 -5.576226 4.320480 8342706
6.169164 -6.464155 0.733929 8342706
5.638440 -6.044480 3.181226 8342706
6.528408 -5.810338 1.088289 8342706
6.169276 -5.794352 2.586735 8342706
5.989452 -6.086625 2.532133 8342706
6.366206 -5.671253 1.830370 8342706
5.975707 -6.116242 3.832647 8342706
6.510952 -6.008719 1.588624 8342706
5.491673 -6.282103 0.732089 8342706
5.823601 -6.369111 4.993575 8342706
6.468830 -5.758543 3.991936 8342706
6.242012 -6.041407 0.117589 8342706
6.275661 -5.832608 3.588270 8342706
6.491642 -6.087777 4.571665 8342706
5.925807 -6.061382 3.147295 8342706
6.384773 -6.260509 1.780395 8342706
6.021235 -5.434873 1.970414 8342706
5.400009 -5.979589 4.237124 8342706
6.078864 -6.087235 2.969878 8342706
6.247473 -5.937947 3.236077 8342706
5.640757 -6.185106 3.335347 8342706
6.132318 -6.343457 4.405119 8342706
6.106446 -5.539718 4.109206 8342706
5.933146 -5.845075 2.917138 8342706
5.417924 -6.110865 2.042886 8342706
6.320944 -6.440431 4.877331 8342706
5.650927 -6.400185 2.936497 8342706
6.340239 -6.329450 2.385814 8342706
6.408010 -5.798471 1.058902 8342706
6.447806 -5.881539 2.253054 8342706
5.990938 -5.531055 2.064529 8342706
6.236408 -5.772992 0.476707 8342706
5.883240 -6.288326 1.563606 8342706
6.400815 -5.764995 2.443127 8342706
6.369723 -5.540930 4.090238 8342706
6.479044 -6.165801 1.474477 8342706
6.158830 -5.816251 3.255048 8342706
5.716388 -6.413345 3.093631 8342706
6.284241 -5.545649 4.479139 8342706
6.027528 -5.897919 0.775256 8342706
5.588647 -6.372365 4.384381 8342706
5.606645 -5.734430 4.267480 8342706
6.214680 -5.828764 1.356777 8342706
5.731152 -5.802553 1.075202 8342706
5.870774 -6.113074 0.636113 8342706
6.181374 -5.455152 1.178970 8342706
6.270334 -5.547336 1.162179 8342706
5.649489 -6.247726 4.290553 8342706
5.930881 -6.064066 4.920994 8342706
6.219337 -5.579309 3.764343 8342706
5.685059 -6.039396 4.267371 8342706
6.092464 -6.564973 4.281302 8342706
5.690591 -5.707541 3.966817 8342706
5.562832 -6.088602 3.769050 8342706
6.230436 -6.419425 1.012154 8342706
6.565784 -5.950680 0.497897 8342706
5.987833 -5.534719 2.929081 8342706
6.200125 -6.404088 1.648033 8342706
5.498148 -6.235073 3.926238 8342706
5.620486 -6.450064 2.801641 8342706
5.789691 -5.480496 2.234018 8342706
6.536416 -6.234827 2.089602 8342706
6.065989 -6.373563 0.523291 8342706
5.440313 -5.857519 2.617818 8342706
5.833652 -5.669229 2.551314 8342706
6.296971 -6.089031 0.231798 8342706
6.041746 -5.606551 4.342100 8342706
6.521601 -6.276430 4.407711 8342706
5.820632 -6.396050 4.423716 8342706
5.467098 -5.778652 4.322404 8342706
5.945733 -5.473041 1.507219 8342706
6.540694 -6.199371 4.012763 8342706
6.392788 -6.175425 1.436522 8342706
5.819764 -6.174700 3.760313 8342706
6.138274 -6.354201 1.925788 8342706
5.539886 -5.639894 3.397424 8342706
5.767276 -6.457757 3.555428 8342706
5.508457 -5.685020 3.937986 8342706
6.176538 -5.553603 0.042854 8342706
6.358478 -5.930838 2.669531 8342706
6.358906 -6.080687 1.756587 8342706
5.767416 -5.787083 3.217810 8342706
6.028906 -5.814434 3.174090 8342706
6.300776 -6.040709 2.056374 8342706
6.385067 -5.816720 2.212167 8342706
6.059524 -5.800447 0.092041 8342706
5.839130 -6.071692 0.104476 8342706
6.221712 -6.436917 0.897362 8342706
6.352998 -6.469072 0.746219 8342706
6.142637 -6.355626 4.234144 8342706
5.859046 -6.511155 1.825361 8342706
5.632425 -5.909328 0.989529 8342706
5.782688 -5.652645 2.684011 8342706
6.191086 -5.733861 0.417724 8342706
6.072373 -5.426589 2.120692 8342706
6.017814 -6.485210 1.059962 8342706
6.239681 -5.538435 1.284760 8342706
6.431209 -5.680182 3.613286 8342706
6.476712 -6.243727 0.349047 8342706
5.795730 -5.916811 4.009116 8342706
6.155705 -6.100282 1.747334 8342706
6.117052 -6.230343 3.260515 8342706
5.609179 -6.258311 3.712247 8342706
6.537481 -6.144896 1.835984 8342706
6.258909 -6.252266 1.673861 8342706
5.542442 -5.808013 2.475706 8342706
6.371208 -6.386136 2.037479 8342706
6.111150 -6.211102 3.583767 8342706
6.160743 -6.580164 4.286557 8342706
6.452585 -6.381431 3.676085 8342706
6.132658 -5.542591 2.021559 8342706
6.081773 -5.453935 0.912140 8342706
6.123096 -6.415163 1.149907 8342706
5.668314 -6.062365 0.135575 8342706
5.843224 -5.598768 2.631732 8342706
5.795950 -6.395173 2.620892 8342706
6.083608 -5.475283 3.492443 8342706
5.756036 -6.296532 3.375547 8342706
6.307049 -6.338759 1.070546 8342706
5.789303 -6.551976 4.774813 8342706
6.249555 -5.653519 4.898070 8342706
6.017781 -6.473480 1.864127 8342706
5.683367 -5.786143 0.314543 8342706
6.297702 -5.532040 4.299203 8342706
5.596073 -5.840900 4.362904 8342706
6.236031 -5.566577 0.495377 8342706
6.273638 -6.356533 3.997821 8342706
6.195330 -6.561575 0.563209 8342706
6.189041 -5.848693 1.014197 8342706
6.449296 -6.166371 2.773443 8342706
6.044747 -6.399106 3.728721 8342706
6.003604 -5.549337 2.041790 8342706
6.451341 -6.179275 3.304046 8342706
6.105503 -5.438730 0.236448 8342706
5.505348 -5.684953 4.403447 8342706
6.180481 -6.344492 1.664863 8342706
6.424558 -5.585384 1.856468 8342706
5.886561 -6.112908 0.922481 8342706
6.357566 -5.605764 3.697252 8342706
5.638255 -6.138214 3.742709 8342706
6.502675 -5.908329 1.193083 8342706
5.746845 -6.010455 2.431205 8342706
6.256540 -6.322817 2.936796 8342706
5.735451 -6.359209 4.098547 8342706
6.045501 -6.277669 3.897772 8342706
6.394084 -5.552812 4.959082 8342706
6.520429 -6.268978 4.663146 8342706
6.006496 -5.917695 3.860986 8342706
6.173213 -6.381342 4.342819 8342706
5.726532 -6.219334 2.015003 8342706
6.447090 -5.882107 2.126876 8342706
6.457087 -5.980119 2.220887 8342706
5.848564 -5.432997 1.058012 8342706
6.484486 -5.792248 0.274602 8342706
5.849247 -5.478608 1.379425 8342706
6.235836 -5.699256 4.822860 8342706
5.959960 -5.651711 1.243819 8342706
6.507768 -5.814489 2.260773 8342706
5.798063 -6.212143 3.689817 8342706
6.273617 -6.183782 1.533692 8342706
5.982258 -6.404454 3.993094 8342706
6.003472 -5.826345 2.284782 8342706
6.152313 -6.034034 4.113753 8342706
6.161004 -6.396184 4.337946 8342706
6.302574 -5.603292 4.763002 8342706
6.338461 -5.814275 3.608639 8342706
5.992950 -5.797963 3.163251 8342706
6.545133 -5.865923 3.041570 8342706
6.259137 -5.861043 2.843250 8342706
6.301807 -6.315027 2.021148 8342706
5.755013 -5.703029 3.618687 8342706
5.701726 -5.708864 3.069087 8342706
6.264699 -5.964520 1.453679 8342706
6.374523 -6.237578 1.072971 8342706
5.820266 -5.604876 2.973286 8342706
5.512473 -5.880012 0.136195 8342706
5.639156 -5.657938 0.466352 8342706
5.594235 -5.563589 2.877824 8342706
5.998302 -5.515731 2.126288 8342706
5.529616 -6.116586 1.857564 8342706
6.132623 -5.493547 3.476747 8342706
5.416247 -5.903708 4.596574 8342706
5.457973 -5.792711 2.922733 8342706
6.195556 -6.312766 1.849152 8342706
5.555542 -6.370295 0.855530 8342706
5.879281 -6.519031 1.628607 8342706
6.116112 -6.326596 3.414740 8342706
5.929685 -6.493664 4.602854 8342706
6.361608 -6.165299 0.799190 8342706
6.508132 -6.306603 1.455186 8342706
6.545679 -5.942798 3.401358 8342706
5.589121 -6.096825 1.130240 8342706
6.280262 -6.301931 1.932335 8342706
6.170825 -6.313289 2.954960 8342706
6.062573 -6.516317 4.967217 8342706
5.969558 -6.459266 0.606938 8342706
6.293916 -5.772030 1.739271 8342706
6.402588 -5.911476 1.306850 8342706
6.241112 -6.395790 0.496944 8342706
6.298938 -6.120181 2.874550 8342706
6.514777 -6.137033 0.088501 8342706
6.091943 -5.664822 1.220760 8342706
6.478914 -6.284559 4.293237 8342706
6.460570 -5.633246 4.813168 8342706
6.501608 -6.166745 3.622721 8342706
6.313631 -6.337719 1.611572 8342706
5.750947 -6.305204 0.421949 8342706
6.177386 -5.580658 2.710274 8342706
6.238051 -6.042043 3.834657 8342706
6.325669 -5.843742 0.405147 8342706
6.190181 -5.863093 3.962140 8342706
5.778682 -6.398387 3.285343 8342706
6.404150 -6.199810 -0.006788 8342706
6.355988 -5.757689 1.373503 8342706
6.276386 -6.015371 4.205279 8342706
6.338396 -6.080633 2.019793 8342706
5.805095 -5.584490 4.373998 8342706
5.829394 -6.012642 0.851947 8342706
6.053563 -5.743311 4.168458 8342706
5.507191 -5.731744 4.001683 8342706
6.480546 -6.134469 1.752599 8342706
6.305253 -6.431875 1.689957 8342706
6.278540 -6.220763 4.635184 8342706
5.546801 -6.329795 1.232802 8342706
6.009023 -6.230787 3.462549 8342706
6.211758 -5.561940 3.788407 8342706
6.035420 -6.565442 3.676717 8342706
5.932277 -6.025676 1.766892 8342706
5.814044 -5.646851 2.752099 8342706
6.177878 -6.303776 0.942899 8342706
6.164042 -5.985631 3.876990 8342706
6.113096 -6.281221 1.981662 8342706
5.752100 -6.144944 1.026957 8342706
6.571501 -6.000200 1.749474 8342706
5.724681 -6.101924 4.305429 8342706
6.464746 -5.762196 1.022733 8342706
5.567873 -5.858025 0.783031 8342706
6.310559 -5.988199 5.001005 8342706
6.178288 -6.565003 4.116309 8342706
6.099542 -6.413354 4.698165 8342706
5.993259 -5.831723 1.407637 8342706
6.525005 -6.160485 4.971648 8342706
6.150439 -6.076217 1.658873 8342706
5.821452 -5.954251 2.065012 8342706
5.729889 -5.973217 3.039731 8342706
6.487696 -6.245050 4.101062 8342706
5.482986 -5.861414 3.594498 8342706
6.164155 -6.078992 0.972292 8342706
5.871131 -6.265580 1.908819 8342706
5.944198 -5.624750 2.391449 8342706
6.315417 -6.276024 0.099120 8342706
5.822341 -5.561482 4.561664 8342706
5.988918 -5.449263 4.073791 8342706
5.770875 -5.446901 3.559057 8342706
6.410186 -6.347563 1.557681 8342706
5.506426 -6.018107 4.713172 8342706
6.054026 -6.531126 0.104008 8342706
6.544975 -5.951989 1.490845 8342706
6.351813 -5.554339 3.369468 8342706
5.781442 -5.889287 0.830502 8342706
6.021729 -5.998356 0.883085 8342706
5.610965 -5.921768 2.218872 8342706
5.707726 -5.663836 2.283694 8342706
5.790482 -6.103323 3.536818 8342706
6.323587 -5.504531 1.133963 8342706
5.642889 -5.766750 4.814534 8342706
5.901897 -5.782129 0.089316 8342706
5.653798 -6.458698 2.454984 8342706
5.874525 -6.456899 3.630131 8342706
6.025580 -6.586281 0.575500 8342706
6.050873 -5.705825 1.742991 8342706
6.101394 -5.910960 1.777921 8342706
6.163217 -5.791699 4.168795 8342706
5.494576 -6.264147 4.958514 8342706
6.559973 -5.854827 2.174973 8342706
6.236424 -6.441296 3.883965 8342706
6.244206 -5.724470 2.513368 8342706
6.215578 -6.364694 2.397497 8342706
6.064659 -5.633668 4.488912 8342706
5.643226 -6.304024 3.475400 8342706
5.975846 -6.432800 2.727247 8342706
6.575331 -6.097398 0.450431 8342706
5.697068 -5.647397 4.783027 8342706
6.298099 -5.797829 0.299066 8342706
5.958950 -5.724006 4.691488 8342706
6.073151 -5.578721 2.447549 8342706
6.350188 -5.930680 1.872639 8342706
5.826380 -6.325734 3.425684 8342706
6.085878 -5.694735 4.230125 8342706
6.476117 -5.832445 0.484697 8342706
6.382958 -5.773394 4.604875 8342706
6.251794 -6.053429 2.784965 8342706
6.331203 -6.239764 0.707451 8342706
5.438843 -6.027627 2.433313 8342706
5.692135 -5.944764 4.312029 8342706
6.272590 -5.907646 4.804577 8342706
6.294192 -5.567301 1.379004 8342706
5.833479 -6.243080 4.052015 8342706
