# .PCD v0.7 - Point Cloud Data file format
VERSION 0.7
FIELDS x y z rgb
SIZE 4 4 4 4
TYPE F F F U
COUNT 1 1 1 1
WIDTH 1262
HEIGHT 1
VIEWPOINT 0 0 0 1 0 0 0
POINTS 1262
DATA ascii
27.093744 -5.904872 0.605210 1690649
26.806276 -6.319082 0.778703 1690649
27.053051 -6.261079 0.706717 1690649
26.475918 -6.338497 1.306799 1690649
27.151876 -6.150362 0.484685 1690649
26.842037 -6.079184 0.605271 1690649
27.061190 -6.164021 0.997418 1690649
26.815506 -6.269950 1.071325 1690649
27.306770 -6.270053 1.298854 1690649
26.669117 -6.201546 0.931058 1690649
27.267361 -6.089663 0.521067 1690649
26.970051 -6.332682 1.759206 1690649
26.865120 -6.558355 0.174193 1690649
26.581360 -5.994176 1.083050 1690649
26.967171 -5.867976 1.045882 1690649
27.102089 -6.526315 1.154374 1690649
27.293451 -6.306353 1.012567 1690649
26.729752 -6.370149 0.591718 1690649
27.036200 -6.053198 1.391471 1690649
26.987614 -6.265110 1.143030 1690649
26.981956 -5.817220 1.724905 1690649
26.978090 -6.598866 1.152512 1690649
26.488194 -6.367076 0.861017 1690649
26.455757 -6.365353 0.883063 1690649
26.649767 -5.816493 1.528291 1690649
27.056536 -6.290403 1.854018 1690649
26.571619 -6.287054 1.414528 1690649
27.052931 -5.871741 1.827716 1690649
26.892288 -6.510632 0.636127 1690649
27.117107 -5.945267 1.232419 1690649
26.728542 -5.860875 1.426779 1690649
26.720173 -6.060811 1.600246 1690649
27.265350 -6.393711 0.981177 1690649
26.694832 -6.089661 0.766909 1690649
26.905334 -6.324678 1.075425 1690649
27.154638 -5.825605 1.100263 1690649
26.459799 -6.146001 0.542054 1690649
26.967897 -5.976629 0.627666 1690649
26.587383 -6.325715 1.255159 1690649
26.926487 -5.944412 1.863303 1690649
27.036757 -6.045272 1.089790 1690649
26.748253 -6.476852 0.359365 1690649
27.044853 -6.039333 1.914582 1690649
26.883226 -6.483621 1.004185 1690649
26.620497 -5.859640 1.910210 1690649
27.082550 -6.329493 1.149465 1690649
26.925907 -6.489538 1.447728 1690649
26.858789 -6.015792 1.000308 1690649
26.730448 -5.783716 1.041877 1690649
26.841198 -5.833508 1.380366 1690649
26.681931 -6.048090 1.243555 1690649
27.054266 -5.770776 0.405902 1690649
27.267456 -6.047786 1.515173 1690649
26.668442 -5.981374 1.013701 1690649
26.465157 -6.355655 1.839935 1690649
26.820148 -6.536659 1.705982 1690649
26.710068 -6.284897 0.776893 1690649
26.724016 -6.053884 0.583177 1690649
27.228231 -6.435118 0.932303 1690649
26.848204 -6.198140 1.469874 1690649
26.541868 -6.218700 0.941001 1690649
27.030312 -6.151191 0.144015 1690649
26.672895 -6.039511 0.197092 1690649
26.926441 -6.564887 0.188007 1690649
26.878302 -5.902337 0.986333 1690649
27.004625 -6.389000 1.738219 1690649
26.702696 -6.467890 1.650781 1690649
26.932631 -6.628406 1.778579 1690649
26.671585 -6.030159 0.224766 1690649
26.590178 -6.319907 0.336383 1690649
26.697315 -6.075712 1.339126 1690649
27.014555 -6.326562 0.672842 1690649
26.697376 -6.425059 1.632709 1690649
27.271978 -6.237679 1.142155 1690649
27.023355 -6.213057 0.087298 1690649
26.832977 -5.838879 1.228417 1690649
26.932459 -6.019882 0.236686 1690649
26.881718 -6.517534 1.103697 1690649
27.188206 -6.210479 0.739794 1690649
27.065292 -5.904705 1.180919 1690649
26.810991 -5.767725 0.227191 1690649
26.858078 -6.369731 0.474057 1690649
26.953453 -6.012208 0.919309 1690649
26.714224 -6.127744 1.773431 1690649
26.541132 -6.084488 0.681768 1690649
26.975630 -6.537917 0.219019 1690649
26.857807 -6.541783 1.471930 1690649
26.693537 -6.445893 0.140919 1690649
27.114515 -5.989474 1.505888 1690649
27.179781 -6.384514 1.258392 1690649
26.891262 -5.891224 1.698281 1690649
26.834707 -5.845741 1.119999 1690649
27.081322 -5.884227 0.755090 1690649
26.661060 -6.274777 0.179662 1690649
26.665550 -5.846879 1.272438 1690649
27.167789 -6.440604 0.570855 1690649
26.674818 -6.032974 1.660724 1690649
26.814392 -6.162896 1.881818 1690649
27.170925 -6.024614 0.487214 1690649
26.748903 -6.378638 1.633736 1690649
26.544239 -6.397633 0.971326 1690649
26.785988 -5.863002 1.718326 1690649
26.743927 -6.422364 1.475891 1690649
26.584404 -5.942473 0.636194 1690649
26.670214 -5.954395 0.136991 1690649
26.585054 -6.497516 1.150282 1690649
26.647049 -5.962402 0.604481 1690649
26.691414 -5.951310 1.075290 1690649
26.551315 -6.386676 0.781864 1690649
26.686111 -6.306365 1.272195 1690649
27.228699 -6.443552 0.120931 1690649
26.890614 -5.750632 1.888807 1690649
27.263300 -6.091395 0.961480 1690649
27.084698 -6.556279 1.824853 1690649
27.245771 -6.078203 1.472081 1690649
27.033733 -6.429920 1.062026 1690649
27.140923 -5.988397 1.366158 1690649
26.907475 -6.502924 1.135093 1690649
26.809381 -5.853664 0.769843 1690649
26.960947 -6.581902 0.173654 1690649
26.496805 -6.242481 0.951840 1690649
26.585627 -5.917230 0.290697 1690649
27.179609 -6.055942 1.335680 1690649
27.118784 -6.490183 0.091393 1690649
26.671032 -6.200600 1.059259 1690649
26.937502 -6.389343 0.246485 1690649
26.527115 -6.231225 0.958446 1690649
26.873259 -6.462873 0.469578 1690649
27.263462 -5.995254 0.687401 1690649
26.573944 -6.077238 1.864220 1690649
26.787401 -6.062679 0.242997 1690649
27.001043 -6.186581 0.464445 1690649
27.203011 -6.496033 0.892950 1690649
26.472038 -6.015110 1.419308 1690649
26.663164 -6.088791 1.514392 1690649
26.718822 -6.195031 0.307130 1690649
27.078991 -6.475449 1.453940 1690649
26.808981 -6.229730 0.511850 1690649
27.088263 -6.311792 1.356534 1690649
27.034426 -5.952461 0.206506 1690649
26.512554 -6.232488 0.625586 1690649
27.317255 -6.288794 0.751622 1690649
27.175198 -6.050289 1.288620 1690649
26.766367 -6.076225 0.900861 1690649
26.585945 -6.193290 0.617495 1690649
27.292725 -6.035019 1.206408 1690649
26.947134 -6.316185 1.297827 1690649
26.718323 -6.076035 1.681627 1690649
26.890284 -5.793871 1.210112 1690649
27.264309 -6.154678 1.275953 1690649
27.093882 -6.361904 0.494688 1690649
26.658686 -6.165147 1.002808 1690649
26.966835 -6.167649 1.256112 1690649
27.040625 -6.292134 0.686703 1690649
-4.364637 7.178981 0.485461 10053171
-5.948149 7.084773 0.415597 10053171
-4.440461 6.983981 2.373838 10053171
-5.162130 7.162446 2.896574 10053171
-3.843846 6.982359 0.290592 10053171
-6.678303 6.764588 2.479787 10053171
-4.096422 7.174648 2.553857 10053171
-3.191429 6.946889 1.358247 10053171
-4.391549 6.999523 0.508813 10053171
-3.503566 7.212281 2.563123 10053171
-3.663168 7.194658 2.499796 10053171
-3.264611 6.961541 0.850130 10053171
-4.010539 7.067478 0.157624 10053171
-4.976831 6.817724 1.171545 10053171
-6.811815 6.975454 0.185917 10053171
-4.600041 7.114586 2.207723 10053171
-6.433446 6.989976 1.210629 10053171
-4.655344 6.948455 0.442586 10053171
-6.898516 6.758579 2.828426 10053171
-6.306174 7.237200 2.886753 10053171
-6.060545 7.064638 0.763853 10053171
-6.153415 6.824589 2.814660 10053171
-3.722399 6.845353 2.215375 10053171
-4.815859 7.060820 2.510836 10053171
-6.559936 7.009704 2.672851 10053171
-6.049664 7.143516 1.118060 10053171
-3.381978 7.152040 1.455998 10053171
-4.605282 6.945421 1.339599 10053171
-6.002105 7.240359 2.388615 10053171
-6.667873 7.021800 2.933771 10053171
-6.870815 7.051478 1.114182 10053171
-5.979260 6.748898 0.168219 10053171
-6.127960 7.014559 1.947504 10053171
-3.881506 6.965438 0.596812 10053171
-4.717055 7.166566 0.111659 10053171
-5.857206 7.153300 2.070565 10053171
-4.816930 6.947143 1.392412 10053171
-5.495934 7.221764 2.725681 10053171
-5.051960 6.776874 1.305661 10053171
-6.179461 6.961578 2.535239 10053171
-4.466641 6.921168 2.125894 10053171
-4.104527 7.098004 1.092368 10053171
-3.868786 6.767152 0.876131 10053171
-4.723925 6.947899 2.248827 10053171
-5.526748 6.966875 0.658480 10053171
-3.782905 7.037947 1.160985 10053171
-3.491305 7.082385 2.136447 10053171
-4.273602 7.189242 0.697716 10053171
-4.115941 7.248512 2.543569 10053171
-5.294996 6.976486 1.599180 10053171
-6.758117 7.049501 2.614109 10053171
-5.675712 6.958048 1.230013 10053171
-5.768963 6.843434 2.791843 10053171
-3.559020 6.865094 2.695543 10053171
-3.083628 6.891001 0.610149 10053171
-5.040301 7.062230 2.168654 10053171
-3.524669 7.071003 0.802019 10053171
-5.448726 7.043046 1.611487 10053171
-3.355401 7.097548 2.188001 10053171
-6.459860 7.198708 0.018767 10053171
-6.373462 6.750099 2.607417 10053171
-4.393337 6.948869 2.951554 10053171
-6.306704 6.944422 0.870845 10053171
-3.762812 7.157243 1.051438 10053171
-3.560264 7.064707 2.683460 10053171
-4.176050 6.914153 2.144557 10053171
-6.360183 6.804265 1.060696 10053171
-3.766564 7.011135 1.929339 10053171
-3.883098 7.054423 1.242196 10053171
-5.441612 7.193545 0.703514 10053171
-5.920203 6.953412 2.518090 10053171
-3.297616 6.929531 1.490736 10053171
-6.805995 6.762479 2.279898 10053171
-3.702618 6.979249 1.012965 10053171
-6.517982 7.218156 1.567579 10053171
-5.293106 6.977435 0.866979 10053171
-6.484650 6.875915 0.444596 10053171
-4.522933 7.091149 2.269290 10053171
-6.744708 7.178645 1.135123 10053171
-4.028493 6.890877 0.259167 10053171
-5.796386 7.201857 0.708258 10053171
-6.967077 7.059770 2.909878 10053171
-3.120751 7.061160 2.178966 10053171
-4.127212 7.100408 0.032051 10053171
-4.434391 7.189578 1.339273 10053171
-6.605358 7.221073 0.416778 10053171
-5.845646 6.877131 0.152599 10053171
-3.243057 6.875257 0.147566 10053171
-6.525572 6.935154 1.330667 10053171
-5.979115 6.841726 0.006507 10053171
-5.438233 7.058083 1.786759 10053171
-6.384671 6.990280 2.967779 10053171
-6.088109 6.837766 2.946808 10053171
-4.247526 7.206389 1.409750 10053171
-4.311417 7.120174 2.204459 10053171
-3.909847 7.208273 2.380880 10053171
-5.678864 7.236027 0.386044 10053171
-5.341698 6.912788 0.456110 10053171
-3.319927 6.967038 0.979222 10053171
-6.867867 6.944834 0.252768 10053171
-4.467320 6.789742 1.786080 10053171
-6.242927 7.210369 1.527384 10053171
-3.832425 7.196570 0.871395 10053171
-3.793957 6.985839 2.085174 10053171
-4.794827 7.140611 1.229201 10053171
-5.649418 7.244816 1.573098 10053171
-4.235146 6.962156 0.404220 10053171
-5.519364 7.211744 0.307190 10053171
-3.281085 7.090951 0.149692 10053171
-5.119874 6.787679 1.793113 10053171
-5.617358 7.050120 2.628854 10053171
-5.434608 6.881117 2.386436 10053171
-4.452867 6.925514 0.684119 10053171
-4.792421 6.928591 2.322805 10053171
-6.495802 6.963658 1.168828 10053171
-5.725247 6.799844 1.394048 10053171
-4.598996 6.897522 1.768632 10053171
-4.071702 7.068130 2.555876 10053171
-3.343108 7.034250 0.181923 10053171
-4.634016 6.755303 1.427790 10053171
-3.803864 7.206912 0.846772 10053171
-5.157386 6.869255 0.231091 10053171
-6.430118 6.769223 0.307904 10053171
-5.592300 7.022237 0.827666 10053171
-3.141456 7.174251 1.547937 10053171
-5.372150 7.063196 2.715908 10053171
-5.299434 6.950688 2.702450 10053171
-4.388153 6.901943 0.775981 10053171
-6.973781 7.111048 2.642868 10053171
-4.278332 7.046988 2.891418 10053171
-4.853889 6.960836 0.219797 10053171
-6.480108 6.895976 2.250967 10053171
-5.341142 6.892861 1.739564 10053171
-5.250270 7.044777 1.621020 10053171
-4.658907 6.847553 0.827677 10053171
-3.287889 6.837564 0.442001 10053171
-4.001984 6.949089 1.207556 10053171
-3.759906 7.248480 0.787046 10053171
-5.134315 7.032516 2.756809 10053171
-4.746682 7.176021 1.092268 10053171
-5.662580 6.790507 2.533912 10053171
-5.405947 7.159375 2.279556 10053171
-6.055161 7.009199 2.964146 10053171
-3.714259 6.945376 1.065587 10053171
-4.256198 7.077704 2.723443 10053171
-5.938378 7.052598 0.649629 10053171
-4.973677 6.825843 2.301265 10053171
-3.929789 6.817798 1.395795 10053171
-6.010305 7.203149 1.731559 10053171
-3.626970 7.213227 0.401283 10053171
-5.858931 6.917223 2.246140 10053171
-6.558003 6.880404 1.754196 10053171
-4.771492 6.796332 2.789260 10053171
-6.508992 7.155467 1.215179 10053171
-3.578520 7.007136 1.072914 10053171
-6.267566 6.838621 1.541258 10053171
-3.019636 6.866980 1.551399 10053171
-6.399862 7.209228 0.958646 10053171
-4.795642 6.997464 1.220000 10053171
-6.383788 7.079189 0.921919 10053171
-6.868271 6.874776 2.233837 10053171
-3.714119 7.201547 1.820611 10053171
-4.237076 7.184009 0.801018 10053171
-6.322798 6.802187 2.948826 10053171
-3.039339 6.779819 2.258619 10053171
-6.423958 6.925335 1.490344 10053171
-6.304377 6.982163 0.985495 10053171
-5.143486 6.777160 1.247574 10053171
-3.969670 7.178384 0.930135 10053171
-6.415930 7.087149 0.866420 10053171
-6.218953 6.745291 2.098405 10053171
-3.523541 7.026819 0.985455 10053171
-5.322649 6.976490 2.323652 10053171
-4.482022 6.778465 0.626112 10053171
-5.568967 7.209094 0.167352 10053171
-3.637592 6.926369 1.835090 10053171
-6.994733 7.181304 2.086739 10053171
-6.183043 7.172678 1.951603 10053171
-4.702464 6.924723 0.426965 10053171
-5.530137 6.940964 1.746356 10053171
-6.743385 6.771250 1.271165 10053171
-5.580796 6.812342 1.507110 10053171
-6.423968 6.870440 2.026439 10053171
-5.974699 6.766918 1.047427 10053171
-5.785476 6.755988 2.082506 10053171
-5.541511 6.794430 1.571838 10053171
-3.383724 7.082078 2.641329 10053171
-5.037529 7.025004 0.364958 10053171
-4.189043 7.191741 0.555856 10053171
-5.043946 7.140188 0.828152 10053171
-6.398289 6.914593 2.859796 10053171
-6.861576 6.818341 2.546224 10053171
-6.718708 6.730588 0.418830 10053171
-3.250211 7.091736 1.581652 10053171
-6.031920 6.744583 2.611003 10053171
-4.064380 6.921630 1.556178 10053171
-6.728179 7.222147 0.610447 10053171
-6.920650 6.972583 2.965754 10053171
-4.481564 6.925813 1.942882 10053171
-4.886301 7.082936 2.535132 10053171
-3.974533 7.110198 0.798332 10053171
-4.129122 7.245776 0.495326 10053171
-3.928775 6.790117 1.132273 10053171
-3.461865 7.225533 2.466625 10053171
-3.380286 7.177935 0.177995 10053171
-3.144804 6.788770 0.459934 10053171
-4.799124 7.202410 1.098931 10053171
-6.903422 7.099396 0.596608 10053171
-6.263467 6.758420 1.896208 10053171
-6.646792 6.950933 0.622018 10053171
-6.359224 7.146470 1.728329 10053171
-6.406393 6.802591 1.134532 10053171
-4.985059 6.827594 0.298480 10053171
-5.300116 7.028546 1.127332 10053171
-5.999787 7.066509 1.255471 10053171
-3.190746 7.011024 2.067759 10053171
-4.532454 6.926581 0.183734 10053171
-6.041889 6.824605 0.179995 10053171
-3.634780 7.152747 0.331562 10053171
-3.325206 7.208431 2.607760 10053171
-4.021804 6.903895 2.675626 10053171
-4.111762 6.850189 2.984175 10053171
-5.535673 7.100627 1.930178 10053171
-4.329681 7.163566 0.731322 10053171
-4.255202 6.933225 0.582478 10053171
-3.605823 7.163321 0.589007 10053171
-3.733898 6.928496 0.922129 10053171
-4.641458 7.020988 0.615837 10053171
-4.182105 6.935568 0.189772 10053171
-6.532864 6.799318 2.354504 10053171
-4.731817 7.150494 0.511527 10053171
-5.162992 6.983180 1.468514 10053171
-6.469041 7.251159 1.318222 10053171
-6.981067 7.003133 2.116709 10053171
-6.600599 7.231637 1.482622 10053171
-5.038508 7.121678 2.879511 10053171
-4.743092 6.831323 0.725564 10053171
-4.286524 6.907525 1.328421 10053171
-5.442297 6.792463 2.062757 10053171
-4.017985 6.760977 2.814461 10053171
-5.944513 7.016930 1.400628 10053171
-6.734207 6.772115 0.249581 10053171
-3.315088 7.142725 2.687964 10053171
-5.103290 7.043805 1.745772 10053171
-5.856267 7.193042 0.508211 10053171
-6.241330 6.892900 1.074014 10053171
-6.974983 7.077456 1.633220 10053171
-5.751887 7.219788 2.526537 10053171
-6.225669 6.931993 2.035143 10053171
-3.815878 6.942955 1.352125 10053171
-5.704933 7.168941 0.867556 10053171
-3.119715 6.818465 0.987473 10053171
-3.886121 6.864453 1.103211 10053171
-5.339699 7.180210 1.629164 10053171
-3.518017 6.758779 0.847685 10053171
-4.677172 7.226530 1.576132 10053171
-3.645278 7.007611 2.201883 10053171
-4.579540 7.145144 2.702704 10053171
-4.916251 7.087174 2.087337 10053171
-6.914631 6.800672 2.380454 10053171
-3.392864 7.111541 0.856520 10053171
-5.533917 7.048358 2.929332 10053171
-4.818846 6.914665 0.683920 10053171
-4.612319 7.028723 2.162971 10053171
-6.917758 7.033015 2.195375 10053171
-3.637937 6.854008 1.230769 10053171
-4.316813 6.917465 0.824837 10053171
-6.428623 6.786633 2.071389 10053171
-6.034334 6.782115 2.068756 10053171
-4.839859 6.766049 0.964198 10053171
-3.721245 6.861868 0.008821 10053171
-4.863930 7.117417 2.471086 10053171
-3.743227 7.019875 2.480471 10053171
-5.180318 7.099524 1.540953 10053171
-6.231677 6.844522 1.605687 10053171
-6.683700 7.167819 2.929953 10053171
-3.942140 6.909235 0.939874 10053171
-6.240646 7.043792 0.936681 10053171
-4.879858 7.147264 1.518822 10053171
-3.272695 7.206317 0.935474 10053171
-6.357178 7.075451 1.851635 10053171
-5.680418 6.801467 1.329630 10053171
-3.555341 6.901706 0.401512 10053171
-5.658495 6.789890 2.114611 10053171
-4.308490 7.257489 0.452879 10053171
-3.209195 7.012636 1.458060 10053171
-3.104492 6.926853 1.825363 10053171
-4.063375 6.755912 0.892511 10053171
-4.268394 7.210014 1.321175 10053171
-3.084983 6.856319 0.298611 10053171
-4.018551 7.126478 1.436027 10053171
-5.474773 6.925734 1.051502 10053171
-3.986305 6.961893 0.366319 10053171
-3.792569 6.929775 0.173216 10053171
-5.716338 7.247466 1.859897 10053171
-5.702485 7.203352 1.791154 10053171
-6.032330 6.774939 2.364988 10053171
-3.586875 6.955461 0.825151 10053171
-5.225539 7.140214 1.197925 10053171
-5.141260 6.841353 2.487840 10053171
-4.290588 7.200624 0.632764 10053171
-6.970597 7.214020 0.075035 10053171
-4.018449 6.779915 1.110695 10053171
-4.053372 6.793568 1.834758 10053171
-5.392489 6.857912 2.723096 10053171
-3.283724 7.050842 1.522332 10053171
-3.299902 7.180459 0.009509 10053171
-3.246215 6.807219 1.499579 10053171
-4.644148 6.963874 1.544625 10053171
-4.950548 6.858623 0.128562 10053171
-6.802478 6.829082 1.568235 10053171
-5.542827 6.941750 0.143601 10053171
-6.931201 6.895375 1.412874 10053171
-4.188015 6.781261 1.298558 10053171
-6.397347 6.923258 0.227722 10053171
-3.350221 6.753063 2.826263 10053171
-4.111577 6.790528 1.405893 10053171
-4.749059 6.838456 1.928560 10053171
-6.156495 6.775764 0.114361 10053171
-5.201324 7.130794 1.833703 10053171
-6.276119 7.099684 2.261503 10053171
-5.138194 7.078248 1.399173 10053171
-6.452626 6.951763 1.317197 10053171
-5.485456 7.088693 0.295908 10053171
-4.951793 7.189831 1.793871 10053171
-3.869253 6.956838 1.617004 10053171
-5.423115 7.080118 2.720807 10053171
-5.694143 7.054884 2.988355 10053171
-6.814652 7.171700 0.772855 10053171
-4.894648 7.167877 1.115218 10053171
-6.968090 6.943576 0.267038 10053171
-6.735709 6.962538 1.025850 10053171
-4.298442 6.799824 1.935268 10053171
-3.991435 7.159278 0.076250 10053171
-3.128889 7.047233 1.348919 10053171
-3.855078 7.031209 0.420065 10053171
-3.110727 6.736061 1.709815 10053171
-3.459293 6.854454 0.313329 10053171
-6.634979 7.068935 1.224781 10053171
-4.079001 7.134621 0.755096 10053171
-3.783667 6.998915 2.062735 10053171
-3.798949 7.016347 1.236708 10053171
-4.635263 7.137934 2.667468 10053171
-4.627199 7.218475 2.358555 10053171
-6.240797 7.151739 0.886103 10053171
-3.094187 6.906016 0.002403 10053171
-4.404043 6.750871 0.499082 10053171
-5.197908 7.006250 2.851333 10053171
-5.346278 6.999182 2.496821 10053171
-3.671447 7.202664 1.065326 10053171
-4.848376 6.785825 0.081825 10053171
-4.744085 7.151330 0.900443 10053171
-4.093867 6.858777 1.498334 10053171
-3.545711 6.957163 0.954181 10053171
-6.958322 7.112530 0.909771 10053171
-3.901317 6.928136 1.367157 10053171
-3.596832 6.960530 2.722731 10053171
-5.508988 6.847236 2.592844 10053171
-5.410928 6.762786 2.417348 10053171
-3.027174 6.809126 2.925047 10053171
-6.140182 6.844842 2.040936 10053171
-4.437963 7.134530 0.774438 10053171
-4.517580 7.013534 0.690505 10053171
-3.198257 7.230303 2.733542 10053171
-5.886306 7.197423 2.542066 10053171
-4.215597 6.893457 2.139520 10053171
-3.203256 6.934872 0.483169 10053171
-5.010448 6.814197 1.835741 10053171
-3.737674 6.983008 0.084785 10053171
-4.312443 7.234441 0.527980 10053171
-6.193031 6.849189 1.540601 10053171
-3.870978 7.194874 0.574309 10053171
-5.436146 6.793819 1.457942 10053171
-3.216573 6.809883 2.182775 10053171
-3.459655 6.978508 0.336527 10053171
-3.948477 7.232182 2.058244 10053171
-6.164351 7.194047 0.270114 10053171
-6.553807 6.885535 0.518043 10053171
-4.623096 6.887518 1.224699 10053171
-5.129223 6.787950 -0.008030 10053171
-5.465014 6.813135 0.520138 10053171
-3.776528 6.815887 0.418308 10053171
-5.342278 7.206087 0.690184 10053171
-3.170111 7.189158 1.383373 10053171
-4.946305 6.772071 2.541184 10053171
-6.744454 7.143232 1.644060 10053171
-4.799483 6.779643 1.169406 10053171
-4.087166 7.032757 1.640489 10053171
-4.076548 7.035808 1.611956 10053171
-3.482359 6.910299 2.924680 10053171
-4.072879 7.143928 2.894445 10053171
-6.599530 6.918317 1.751764 10053171
-5.193495 7.040599 1.692569 10053171
-5.090286 7.192870 2.137140 10053171
-4.511280 6.861790 0.015447 10053171
-5.338562 6.756119 2.582103 10053171
-5.177464 6.761236 1.364945 10053171
-4.060023 6.884861 0.724588 10053171
-4.390528 7.064035 1.036404 10053171
-5.249983 7.122725 0.703120 10053171
-3.764762 6.774440 1.899221 10053171
-3.645166 7.247919 2.743254 10053171
-3.366986 7.135300 0.999241 10053171
-4.081342 7.213538 2.634807 10053171
-3.100895 7.151086 2.857800 10053171
-3.558317 7.022994 1.667052 10053171
-5.328881 7.120012 0.112070 10053171
-3.921633 6.951603 2.313794 10053171
-6.416191 7.040421 2.552529 10053171
-3.132290 7.099433 2.786723 10053171
-4.855912 7.174795 0.118853 10053171
-5.912697 6.913857 0.137085 10053171
-4.277765 7.046330 0.582550 10053171
-4.617307 7.144015 0.004743 10053171
-6.642120 7.216601 1.373663 10053171
-6.052790 6.937201 0.092888 10053171
-5.820000 6.775413 2.901935 10053171
-4.477723 7.055533 2.837701 10053171
-5.633245 7.194283 2.536086 10053171
-3.123049 6.947862 0.614149 10053171
-5.743417 6.944898 0.613923 10053171
-4.094426 7.122228 1.540255 10053171
-4.675820 6.759937 1.647136 10053171
-4.984939 7.128789 1.231726 10053171
-4.429607 6.963655 0.513645 10053171
-5.303947 7.234975 0.303224 10053171
-3.865289 6.937875 0.858439 10053171
-4.253599 6.944640 2.669449 10053171
-5.258931 7.101762 1.708863 10053171
-3.035004 6.973978 0.270184 10053171
-5.431487 6.867321 1.046532 10053171
-6.597033 7.069900 2.711878 10053171
-5.120263 6.829686 1.653201 10053171
-3.039603 6.898311 0.776941 10053171
-6.576177 6.989695 1.162946 10053171
-3.069936 6.994380 0.195845 10053171
-6.269376 7.220170 1.898061 10053171
-3.686888 6.910573 1.361375 10053171
-4.178105 7.108370 0.209491 10053171
-3.855891 7.141017 1.777422 10053171
-4.173907 7.014041 1.344934 10053171
-3.092330 6.824033 0.738137 10053171
-5.593595 7.202392 0.150329 10053171
-5.685905 7.019040 2.797360 10053171
-4.784816 6.946586 1.791096 10053171
-5.939484 7.158448 2.036121 10053171
-3.335520 7.113694 0.986279 10053171
-6.502019 6.819084 0.747716 10053171
-6.578778 7.079145 1.907735 10053171
-3.739878 6.865913 0.025884 10053171
-4.617315 7.123355 2.027819 10053171
-5.583455 6.757160 2.664307 10053171
-3.977858 7.100185 0.438057 10053171
-3.920074 6.782287 1.649109 10053171
-5.359987 7.018953 0.807915 10053171
-4.840451 6.843515 1.737495 10053171
-5.778421 6.944723 1.092181 10053171
-6.614738 6.862493 0.180720 10053171
-4.528664 6.973232 1.718530 10053171
-3.716042 7.107415 2.812635 10053171
-5.696874 6.851505 0.075873 10053171
-5.660457 7.043002 0.375126 10053171
-4.234054 6.839085 0.860871 10053171
-5.873797 6.850863 2.066336 10053171
-4.915396 6.829124 2.904058 10053171
-3.162039 7.008533 2.026088 10053171
-3.610277 6.926711 1.083761 10053171
-4.780783 7.141701 2.854286 10053171
-4.517831 7.150056 1.490865 10053171
-3.450633 7.101069 1.074088 10053171
-3.156191 7.161028 0.505677 10053171
-5.417393 7.103406 0.828710 10053171
-6.669826 6.970799 2.585306 10053171
-3.276083 6.918339 2.382942 10053171
-5.848031 7.119644 2.057146 10053171
-4.665264 6.926022 1.467950 10053171
-4.291627 6.841222 2.128230 10053171
-3.020554 6.762362 2.467043 10053171
-3.050331 6.988578 1.072943 10053171
-4.402696 7.209372 0.309557 10053171
-5.495656 7.226976 2.299890 10053171
-5.616729 7.109990 1.128701 10053171
-3.879679 6.897109 1.857346 10053171
-4.663452 7.095932 2.942639 10053171
-4.747520 7.191927 2.670702 10053171
-6.288746 7.045757 1.595036 10053171
-3.118630 7.182295 0.311022 10053171
-4.517229 6.854945 2.777920 10053171
-3.051333 6.921857 1.119944 10053171
-4.450492 7.270605 2.827339 10053171
-5.013869 6.922739 2.686676 10053171
-3.203896 6.980382 0.498901 10053171
-5.963616 6.799839 0.782677 10053171
-4.711430 7.160273 0.300463 10053171
-3.002209 7.048749 0.560624 10053171
-5.425066 6.911562 1.099087 10053171
-3.928715 6.809240 0.618924 10053171
-6.048248 6.983162 2.711583 10053171
-3.326956 6.917249 0.548457 10053171
-5.712007 6.752448 2.838122 10053171
-4.181811 6.852271 0.631091 10053171
-6.608407 6.981272 2.957242 10053171
-6.912793 7.240972 2.529749 10053171
-6.928169 7.207622 0.732835 10053171
-5.270184 7.007442 2.454576 10053171
-5.206400 6.963487 1.279774 10053171
-3.165222 7.142212 1.894252 10053171
-6.380150 6.957977 1.720033 10053171
-4.090929 6.860243 0.120796 10053171
-3.507071 6.875231 0.020496 10053171
-6.103588 6.887201 1.890603 10053171
-3.108910 7.077280 0.765625 10053171
-3.543792 7.043484 2.713373 10053171
-4.242345 7.042691 2.617534 10053171
-3.452491 6.895952 2.427432 10053171
-5.113820 6.872530 2.880778 10053171
-4.448047 7.139107 1.055357 10053171
-6.607558 6.846145 2.037144 10053171
-3.832770 6.862478 2.271175 10053171
-3.553682 6.995171 1.045257 10053171
-4.274697 6.750650 0.898476 10053171
-3.829982 7.001040 1.006234 10053171
-5.363237 6.979272 2.079219 10053171
-3.249125 6.822530 0.492366 10053171
-3.410405 7.243262 0.634597 10053171
-6.378977 6.758902 1.222851 10053171
-5.810665 7.222181 1.598606 10053171
-3.792457 6.895014 0.805077 10053171
-6.558477 6.864400 1.576897 10053171
-4.376276 6.801498 0.977474 10053171
-5.655260 6.925141 0.053529 10053171
-4.399866 7.033857 1.188658 10053171
-4.187054 6.910364 2.099444 10053171
-3.282648 7.180497 1.294247 10053171
-3.728639 7.200871 2.650129 10053171
-5.881005 6.811785 0.047008 10053171
-5.676624 6.792468 1.591727 10053171
-4.936344 6.964159 2.467150 10053171
-6.079145 7.059879 1.120402 10053171
-6.755921 7.239274 2.108339 10053171
-5.473156 6.870885 1.244616 10053171
-6.180769 6.916803 2.905943 10053171
-5.547732 6.781744 2.419214 10053171
-4.515813 7.164038 1.512766 10053171
-5.295094 6.877439 0.609384 10053171
-6.029763 7.249630 1.480290 10053171
-3.513815 6.855830 2.527680 10053171
-5.656291 6.944977 2.282333 10053171
-6.078056 6.978981 1.461170 10053171
-6.575060 6.886745 1.267884 10053171
-6.780061 7.067781 2.626827 10053171
-6.555770 6.867063 1.839453 10053171
-6.057581 6.981704 2.790433 10053171
-4.213895 7.182317 2.779351 10053171
-4.884249 7.071832 2.199491 10053171
-4.860356 7.134830 0.043393 10053171
-4.087727 6.840022 1.568016 10053171
-6.984248 7.221427 0.321672 10053171
-5.478215 7.155002 0.035108 10053171
-3.503559 6.826218 0.722778 10053171
-6.073565 6.802157 0.899253 10053171
-3.541580 6.817929 2.852345 10053171
-3.537750 7.171878 0.904697 10053171
-5.214457 6.826375 2.937857 10053171
-6.975330 6.864614 2.319218 10053171
-4.325378 6.851262 0.574054 10053171
-4.583841 6.849827 0.878984 10053171
-3.489472 6.833753 0.294015 10053171
-6.420787 6.993594 1.141492 10053171
-5.296020 7.227400 1.673169 10053171
-4.236566 7.168653 1.690969 10053171
-5.763070 7.113966 0.939349 10053171
-4.642711 6.937106 2.937062 10053171
-5.840064 7.048714 1.036286 10053171
-5.188828 7.130837 0.295979 10053171
-4.820056 6.853856 2.730187 10053171
-3.318554 6.999899 0.798344 10053171
-3.891232 7.018350 1.804787 10053171
-5.793609 7.014809 1.273818 10053171
-3.341760 6.970500 1.651860 10053171
-3.003886 7.229448 0.811474 10053171
-3.200819 7.213366 2.764897 10053171
-3.176988 7.190917 2.292705 10053171
-6.082405 6.926927 2.251339 10053171
-6.814766 7.040518 2.063669 10053171
-4.068682 6.791338 1.149895 10053171
-3.209579 7.204359 1.690621 10053171
-6.948907 7.170850 1.486244 10053171
-4.296900 6.889819 1.105314 10053171
-5.294679 7.037171 0.097765 10053171
-6.793134 7.163115 2.884467 10053171
-4.208727 6.826574 2.423568 10053171
-3.456312 7.049119 2.650989 10053171
-3.078936 6.788251 1.145564 10053171
-3.499234 7.227321 0.568743 10053171
-3.456199 6.948530 2.318055 10053171
-4.102343 7.073027 2.726356 10053171
-3.737932 7.058995 2.918518 10053171
-5.755289 6.929818 0.479491 10053171
-4.746690 7.111856 1.561768 10053171
5.874389 -5.999865 1.143875 8342706
6.115577 -5.721312 1.812881 8342706
5.439399 -6.083725 3.629876 8342706
6.174162 -6.478057 0.551702 8342706
5.443196 -6.209293 3.030566 8342706
6.179716 -6.432984 4.066093 8342706
6.360304 -6.053778 4.908070 8342706
6.212622 -5.637963 0.322754 8342706
6.000362 -6.173416 3.984890 8342706
6.170978 -6.006083 0.493092 8342706
5.568562 -5.661180 1.993440 8342706
6.174163 -6.446762 3.327165 8342706
6.552317 -5.793550 4.838066 8342706
6.044318 -5.629644 2.397950 8342706
6.464509 -5.972484 1.325247 8342706
6.103347 -6.208969 2.950753 8342706
6.531048 -5.865119 0.299484 8342706
6.327697 -6.432335 2.984561 8342706
6.322151 -5.503345 2.197170 8342706
6.466410 -6.382709 2.663821 8342706
6.206056 -6.106352 2.969736 8342706
6.265617 -5.580315 2.031163 8342706
5.619935 -6.287096 3.523897 8342706
5.795236 -5.577855 0.178683 8342706
5.643693 -5.747696 0.500592 8342706
6.506512 -5.803705 1.402602 8342706
6.033926 -5.436758 0.761517 8342706
6.218834 -6.322306 1.495272 8342706
6.435229 -6.155179 1.591214 8342706
6.529757 -6.032119 3.483463 8342706
5.609808 -6.176350 3.394336 8342706
5.835034 -6.182111 4.713625 8342706
5.798768 -5.546901 2.033910 8342706
6.326687 -5.783839 2.898128 8342706
6.242885 -5.925057 3.533338 8342706
5.431369 -6.099837 0.540082 8342706
6.383852 -5.796227 1.989328 8342706
5.918486 -5.788555 1.719589 8342706
5.738759 -5.876201 3.141064 8342706
5.656347 -6.171580 1.853919 8342706
5.786034 -5.533346 0.780906 8342706
6.462114 -6.064517 0.389443 8342706
5.983486 -6.130786 4.296352 8342706
5.583203 -6.180919 4.570057 8342706
5.724260 -5.782014 4.171208 8342706
5.747036 -5.924854 3.120886 8342706
6.015924 -5.985614 1.444786 8342706
6.407987 -6.263409 2.015377 8342706
5.676035 -5.705691 3.093475 8342706
6.266487 -6.080221 3.905762 8342706
5.395189 -5.988317 4.580273 8342706
5.956650 -5.460859 4.484047 8342706
5.494309 -5.966408 3.218714 8342706
6.414672 -5.954862 1.956465 8342706
6.175023 -6.510014 4.295053 8342706
6.379433 -5.878713 1.208036 8342706
5.402137 -5.957699 2.332205 8342706
5.514241 -5.740448 4.307880 8342706
6.427172 -5.976332 2.992930 8342706
6.096786 -5.652421 4.833198 8342706
6.280368 -5.890136 2.107358 8342706
5.806915 -5.465255 2.061830 8342706
5.877133 -6.338578 3.568682 8342706
5.999529 -5.510666 3.499804 8342706
5.773917 -6.019145 4.515850 8342706
5.859077 -6.091024 1.769120 8342706
6.162856 -5.749696 2.016695 8342706
6.168782 -6.311021 1.952922 8342706
5.783004 -6.230562 1.532985 8342706
5.622073 -6.259882 1.062300 8342706
5.849736 -6.361727 1.237474 8342706
5.970215 -5.953845 3.014298 8342706
6.060897 -6.109107 4.775556 8342706
5.793593 -5.801609 0.597125 8342706
5.743222 -6.072351 2.499782 8342706
5.959150 -5.983337 3.149841 8342706
5.478761 -6.206046 1.923157 8342706
6.095948 -5.598014 0.164526 8342706
6.430398 -5.957168 1.226817 8342706
6.554111 -6.056300 3.869416 8342706
6.022675 -6.200810 3.270630 8342706
5.579850 -5.662779 1.967485 8342706
6.102787 -6.269781 4.430726 8342706
6.105913 -5.594680 4.627775 8342706
6.430974 -5.676854 0.224057 8342706
5.963514 -6.160972 2.707894 8342706
6.238957 -5.967317 2.427658 8342706
5.496895 -6.162992 3.656611 8342706
6.051597 -6.306156 1.993163 8342706
5.885281 -6.341667 1.019027 8342706
6.200595 -6.411763 4.427888 8342706
5.565677 -5.921481 3.871318 8342706
5.682085 -6.379312 2.530129 8342706
6.116247 -6.489472 1.399763 8342706
5.836053 -5.884977 4.542073 8342706
5.611057 -5.770359 2.362973 8342706
6.455611 -5.841825 2.633888 8342706
6.101868 -6.404140 0.589347 8342706
5.568578 -6.141029 1.866034 8342706
6.311027 -6.042087 1.866045 8342706
6.569016 -6.065923 3.645963 8342706
5.668623 -6.368877 0.621096 8342706
5.672333 -6.462045 0.765928 8342706
6.211482 -6.027781 2.551811 8342706
5.642059 -6.031780 3.296563 8342706
5.759376 -5.591629 4.712704 8342706
5.764208 -6.233933 4.026737 8342706
5.627103 -5.839967 1.228061 8342706
6.407809 -5.959804 4.447245 8342706
5.813297 -5.607538 3.489444 8342706
6.018342 -5.805905 0.937706 8342706
6.150242 -6.356143 1.754836 8342706
6.151127 -5.808002 1.596374 8342706
5.971760 -5.770714 4.101936 8342706
6.046608 -6.190427 4.586264 8342706
5.768985 -6.161317 0.226726 8342706
5.907969 -5.625708 1.651984 8342706
6.202461 -5.622348 3.849218 8342706
5.713626 -5.982328 3.113280 8342706
5.828713 -6.193914 2.595469 8342706
5.690652 -5.849000 2.900515 8342706
5.610162 -6.249743 3.740231 8342706
5.908138 -6.587647 1.079350 8342706
6.108040 -5.808176 1.664029 8342706
6.294121 -6.331974 0.539056 8342706
6.367673 -5.710941 2.303969 8342706
6.138293 -5.560960 3.059899 8342706
5.680789 -5.669916 1.222501 8342706
5.995590 -5.718398 3.715389 8342706
6.203618 -6.003738 4.396636 8342706
6.491168 -6.115607 2.675749 8342706
6.345779 -6.153719 3.374044 8342706
5.677834 -6.307327 4.701715 8342706
6.288942 -5.516900 4.634626 8342706
5.996767 -6.231711 3.544324 8342706
5.749097 -5.668678 2.603284 8342706
6.093903 -6.566227 4.495564 8342706
5.535660 -5.761042 4.267111 8342706
5.522142 -6.146835 2.886560 8342706
6.108171 -5.629163 2.484861 8342706
5.680316 -5.883087 4.042506 8342706
5.880794 -5.442224 3.065296 8342706
6.516030 -5.810814 0.123695 8342706
6.045973 -5.446403 0.407905 8342706
6.383671 -5.724675 0.034845 8342706
6.034541 -5.765413 0.504136 8342706
5.667700 -5.722531 3.076760 8342706
6.344951 -6.234623 1.534538 8342706
6.137731 -5.796849 2.489211 8342706
5.767046 -6.150491 1.608067 8342706
5.997868 -6.213517 0.126767 8342706
5.857887 -6.036050 3.747546 8342706
5.722677 -6.163858 3.386637 8342706
6.304365 -6.240267 4.585510 8342706
6.328882 -6.442795 3.378857 8342706
6.019164 -6.556856 4.175785 8342706
6.027684 -5.679441 4.244602 8342706
5.692597 -5.608742 4.220414 8342706
6.196340 -5.869815 1.894199 8342706
5.512247 -6.232827 4.652988 8342706
5.907277 -6.326031 4.708540 8342706
6.060596 -6.443628 1.323311 8342706
6.114281 -5.636889 2.038463 8342706
5.955110 -6.208708 1.684937 8342706
6.034629 -6.034318 4.557247 8342706
6.090725 -5.622816 1.143504 8342706
6.129230 -6.312016 1.581013 8342706
5.744058 -5.720373 0.121274 8342706
6.349501 -6.167076 3.044934 8342706
6.085231 -5.569564 2.633005 8342706
6.268616 -5.869416 1.015339 8342706
5.618442 -6.092384 1.883767 8342706
5.716887 -5.676471 2.257540 8342706
5.795847 -5.662959 2.584598 8342706
5.525607 -5.942824 3.569954 8342706
6.017310 -5.825420 1.886040 8342706
5.713464 -5.878815 1.449296 8342706
5.722054 -6.278139 2.821517 8342706
6.003794 -6.308382 4.902740 8342706
5.981896 -6.465192 4.831707 8342706
6.080979 -5.595372 3.832200 8342706
5.629061 -5.576194 2.013831 8342706
6.539240 -6.034440 4.245064 8342706
5.662372 -5.589579 1.926566 8342706
6.100719 -6.473674 1.678748 8342706
5.602354 -6.224108 1.850347 8342706
6.314855 -5.918910 3.512824 8342706
6.465951 -5.811223 3.834891 8342706
6.440732 -6.099990 3.863628 8342706
6.106825 -5.854117 3.363823 8342706
6.133230 -6.405576 1.030668 8342706
5.652989 -6.147171 3.339559 8342706
6.510523 -6.321783 0.122408 8342706
6.389715 -6.106059 4.926394 8342706
5.436501 -5.904854 3.794920 8342706
6.500144 -6.027023 0.251653 8342706
6.235770 -5.633982 3.718330 8342706
6.101802 -6.006176 2.469360 8342706
6.269974 -5.972269 0.694020 8342706
6.421938 -5.965621 2.419241 8342706
6.085063 -6.501432 2.788494 8342706
6.394986 -6.094408 1.379316 8342706
6.218036 -5.650660 1.086049 8342706
6.240199 -5.582658 4.345461 8342706
6.176941 -6.443177 0.733444 8342706
5.624580 -6.072248 3.183532 8342706
6.540754 -5.793582 1.091536 8342706
6.165399 -5.803790 2.596085 8342706
5.985120 -6.088028 2.532594 8342706
6.367260 -5.685086 1.810154 8342706
5.965876 -6.113313 3.845630 8342706
6.506269 -6.018190 1.573212 8342706
5.517475 -6.278176 0.712659 8342706
5.809667 -6.383029 5.009842 8342706
6.477008 -5.770527 3.976403 8342706
6.223930 -6.033943 0.117713 8342706
6.261461 -5.845791 3.577709 8342706
6.472337 -6.091006 4.580948 8342706
5.927655 -6.046874 3.137995 8342706
6.416213 -6.266355 1.773728 8342706
6.032481 -5.444024 1.978559 8342706
5.419913 -5.956518 4.251529 8342706
6.069159 -6.066364 2.979535 8342706
6.255050 -5.950411 3.254208 8342706
5.641184 -6.185731 3.353255 8342706
6.147144 -6.359529 4.415989 8342706
6.085523 -5.522164 4.126095 8342706
5.927891 -5.838992 2.919652 8342706
5.427550 -6.113020 2.041810 8342706
6.306236 -6.429686 4.860428 8342706
5.640286 -6.380629 2.943413 8342706
6.316370 -6.330607 2.368005 8342706
6.419063 -5.814805 1.062921 8342706
6.458433 -5.883575 2.266835 8342706
5.981583 -5.500432 2.062911 8342706
6.218342 -5.758731 0.452575 8342706
5.891069 -6.286991 1.573738 8342706
6.407804 -5.757686 2.457968 8342706
6.360665 -5.542406 4.087464 8342706
6.449429 -6.187418 1.491564 8342706
6.158656 -5.796062 3.244747 8342706
5.737315 -6.411789 3.097204 8342706
6.269676 -5.553038 4.466942 8342706
6.032570 -5.899415 0.758422 8342706
5.579508 -6.375756 4.401986 8342706
5.609996 -5.766850 4.241066 8342706
6.219068 -5.836734 1.387431 8342706
5.745411 -5.795564 1.051075 8342706
5.867786 -6.131504 0.631746 8342706
6.185542 -5.443781 1.185026 8342706
6.284511 -5.530990 1.164728 8342706
5.671327 -6.252383 4.282018 8342706
5.948998 -6.060787 4.941679 8342706
6.208189 -5.553868 3.764753 8342706
5.664644 -6.040836 4.283183 8342706
6.098109 -6.574238 4.287314 8342706
5.704250 -5.704202 3.965572 8342706
5.537551 -6.086948 3.764834 8342706
6.207049 -6.398898 1.040112 8342706
6.571095 -5.956758 0.476125 8342706
6.003935 -5.531106 2.923122 8342706
6.202909 -6.407646 1.634434 8342706
5.513881 -6.216160 3.927105 8342706
5.584807 -6.443408 2.791778 8342706
5.802951 -5.497736 2.261198 8342706
6.532210 -6.224575 2.071975 8342706
6.054011 -6.360244 0.541416 8342706
5.431014 -5.864269 2.571835 8342706
5.853976 -5.679744 2.545739 8342706
6.289232 -6.078741 0.213826 8342706
6.047468 -5.621276 4.343241 8342706
6.537731 -6.279767 4.414555 8342706
5.812145 -6.382297 4.385238 8342706
5.445653 -5.771775 4.347807 8342706
5.945852 -5.479720 1.509403 8342706
6.534327 -6.203409 4.022128 8342706
6.396540 -6.162306 1.415097 8342706
5.848248 -6.180314 3.742914 8342706
6.127695 -6.342476 1.911683 8342706
5.530611 -5.632644 3.401961 8342706
5.769063 -6.467509 3.537153 8342706
5.511889 -5.690999 3.932142 8342706
6.170296 -5.578503 0.043632 8342706
6.355772 -5.962908 2.627155 8342706
6.378191 -6.076073 1.747500 8342706
5.799568 -5.805974 3.219620 8342706
6.004609 -5.810163 3.175430 8342706
6.310169 -6.062961 2.038940 8342706
6.355709 -5.826353 2.199001 8342706
6.038747 -5.803933 0.115731 8342706
5.814392 -6.059472 0.098493 8342706
6.227998 -6.439796 0.893400 8342706
6.352514 -6.480998 0.749498 8342706
6.152261 -6.370956 4.232706 8342706
5.874906 -6.534864 1.827054 8342706
5.644830 -5.889258 0.976122 8342706
5.762051 -5.654804 2.690857 8342706
6.204370 -5.731044 0.419096 8342706
6.092957 -5.415901 2.092932 8342706
6.017436 -6.491625 1.076510 8342706
6.259924 -5.537750 1.295218 8342706
6.446367 -5.682248 3.624731 8342706
6.466721 -6.258892 0.321866 8342706
5.783906 -5.924086 4.023678 8342706
6.174651 -6.118775 1.743090 8342706
6.105855 -6.256000 3.259967 8342706
5.608678 -6.247704 3.708228 8342706
6.534708 -6.157556 1.837023 8342706
6.265471 -6.226600 1.691339 8342706
5.562717 -5.800923 2.497673 8342706
6.397280 -6.394239 2.010895 8342706
6.103172 -6.207756 3.585774 8342706
6.166992 -6.600934 4.285211 8342706
6.439615 -6.385036 3.658261 8342706
6.115549 -5.541482 2.029171 8342706
6.079687 -5.460002 0.907561 8342706
6.130564 -6.451614 1.155819 8342706
5.666983 -6.072235 0.119350 8342706
5.836892 -5.597906 2.631444 8342706
5.792349 -6.378822 2.637915 8342706
6.084438 -5.483373 3.496682 8342706
5.765928 -6.297115 3.370418 8342706
6.320949 -6.325748 1.062746 8342706
5.802543 -6.543869 4.754822 8342706
6.254095 -5.661506 4.918996 8342706
6.014515 -6.490484 1.873856 8342706
5.693039 -5.792901 0.288951 8342706
6.283401 -5.531487 4.288604 8342706
5.590697 -5.829087 4.375478 8342706
6.227974 -5.579001 0.481475 8342706
6.275637 -6.365069 4.020707 8342706
6.180248 -6.572748 0.561267 8342706
6.148760 -5.860188 1.028650 8342706
6.460372 -6.176425 2.766208 8342706
6.034467 -6.390906 3.727900 8342706
5.994252 -5.563602 2.049536 8342706
6.462161 -6.203876 3.313917 8342706
6.117222 -5.450213 0.240101 8342706
5.475792 -5.713057 4.392729 8342706
6.173289 -6.343077 1.660438 8342706
6.421169 -5.595070 1.847969 8342706
5.873562 -6.114599 0.926787 8342706
6.343414 -5.601910 3.705365 8342706
5.619759 -6.142480 3.757967 8342706
6.534829 -5.918785 1.173120 8342706
5.712086 -6.019369 2.425169 8342706
6.245497 -6.323460 2.939637 8342706
5.719442 -6.390212 4.075822 8342706
6.040478 -6.273271 3.894148 8342706
6.391081 -5.544282 4.954949 8342706
6.545643 -6.268960 4.683010 8342706
6.027293 -5.931236 3.875618 8342706
6.169802 -6.386724 4.331606 8342706
5.724989 -6.208447 2.000354 8342706
6.438885 -5.865472 2.138154 8342706
6.449186 -5.988790 2.209409 8342706
5.863317 -5.429015 1.037066 8342706
6.491457 -5.801391 0.285875 8342706
5.840727 -5.484062 1.392096 8342706
6.223933 -5.705091 4.831814 8342706
5.963631 -5.620994 1.221373 8342706
6.500917 -5.815736 2.249398 8342706
5.788772 -6.227641 3.694036 8342706
6.268042 -6.194671 1.489611 8342706
5.970915 -6.411775 3.983610 8342706
6.012631 -5.828524 2.292037 8342706
6.143116 -6.046775 4.093973 8342706
6.168371 -6.407631 4.345909 8342706
6.307861 -5.608891 4.751268 8342706
6.364325 -5.818320 3.611984 8342706
6.005728 -5.792257 3.144634 8342706
6.549640 -5.898631 3.051540 8342706
6.274951 -5.883327 2.831925 8342706
6.303851 -6.314653 2.004561 8342706
5.747517 -5.703623 3.607135 8342706
5.710110 -5.731997 3.063949 8342706
6.260110 -5.989051 1.463376 8342706
6.388380 -6.230232 1.067955 8342706
5.833225 -5.584811 2.973945 8342706
5.502023 -5.888667 0.126563 8342706
5.629709 -5.651116 0.460280 8342706
5.620382 -5.584988 2.859699 8342706
5.994398 -5.520197 2.121190 8342706
5.538058 -6.113792 1.892254 8342706
6.124319 -5.498472 3.473824 8342706
5.438675 -5.920967 4.578831 8342706
5.442683 -5.813159 2.920350 8342706
6.205262 -6.321364 1.846983 8342706
5.562468 -6.353727 0.830209 8342706
5.865235 -6.497389 1.610328 8342706
6.092461 -6.342471 3.429576 8342706
5.950800 -6.504743 4.603366 8342706
6.359757 -6.172966 0.803224 8342706
6.509015 -6.331491 1.454361 8342706
6.546282 -5.912525 3.394266 8342706
5.590165 -6.080198 1.101752 8342706
6.274295 -6.313482 1.961030 8342706
6.158031 -6.314701 2.931410 8342706
6.067153 -6.518287 4.950378 8342706
5.990677 -6.467912 0.622109 8342706
6.277819 -5.775244 1.745857 8342706
6.394517 -5.925510 1.307183 8342706
6.228100 -6.396115 0.492518 8342706
6.311300 -6.133808 2.899300 8342706
6.481513 -6.142641 0.115146 8342706
6.095047 -5.647509 1.219735 8342706
6.479569 -6.271060 4.291758 8342706
6.442845 -5.649572 4.838248 8342706
6.492079 -6.152133 3.638867 8342706
6.325107 -6.332599 1.586985 8342706
5.745513 -6.301343 0.436032 8342706
6.164828 -5.599695 2.709472 8342706
6.218542 -6.036833 3.856085 8342706
6.326984 -5.862975 0.404404 8342706
6.188342 -5.856504 3.945546 8342706
5.793315 -6.402974 3.271504 8342706
6.418729 -6.197560 -0.003691 8342706
6.347814 -5.767139 1.365397 8342706
6.289626 -5.992530 4.216184 8342706
6.323574 -6.069154 2.039011 8342706
5.771792 -5.584259 4.390760 8342706
5.837935 -6.018761 0.846042 8342706
6.045452 -5.761696 4.178904 8342706
5.525856 -5.739346 3.991683 8342706
6.457139 -6.117757 1.757943 8342706
6.300713 -6.441739 1.702504 8342706
6.256820 -6.195106 4.646491 8342706
5.543031 -6.335376 1.239220 8342706
6.017804 -6.236424 3.460211 8342706
6.228496 -5.574860 3.755851 8342706
6.040476 -6.560038 3.685562 8342706
5.934503 -6.012449 1.726444 8342706
5.803173 -5.635426 2.735761 8342706
6.183038 -6.317861 0.925312 8342706
6.189318 -5.990516 3.880432 8342706
6.112473 -6.287588 1.991510 8342706
5.772706 -6.153408 1.008679 8342706
6.574158 -6.005135 1.755916 8342706
5.742665 -6.088009 4.307950 8342706
6.454518 -5.767115 1.014095 8342706
5.566794 -5.864225 0.768251 8342706
6.318817 -6.028395 5.005719 8342706
6.195374 -6.547441 4.114373 8342706
6.090727 -6.417818 4.698177 8342706
5.999918 -5.829615 1.400250 8342706
6.517661 -6.150064 5.005481 8342706
6.156216 -6.089735 1.663751 8342706
5.834577 -5.975285 2.079281 8342706
5.740140 -5.981236 3.051429 8342706
6.504941 -6.244724 4.109552 8342706
5.480602 -5.863435 3.603636 8342706
6.168903 -6.091227 1.003770 8342706
5.887259 -6.275492 1.917192 8342706
5.953079 -5.647042 2.391594 8342706
6.315376 -6.278188 0.088384 8342706
5.823763 -5.551929 4.547944 8342706
5.997584 -5.479958 4.049674 8342706
5.786239 -5.440294 3.567049 8342706
6.405869 -6.341381 1.541790 8342706
5.494947 -6.034871 4.724568 8342706
6.051881 -6.509091 0.117168 8342706
6.531159 -5.950743 1.483150 8342706
6.370685 -5.551553 3.370728 8342706
5.760770 -5.880802 0.825452 8342706
5.998470 -5.987553 0.908208 8342706
5.623280 -5.914959 2.225403 8342706
5.712587 -5.631164 2.274818 8342706
5.785960 -6.125803 3.532217 8342706
6.328178 -5.488271 1.143160 8342706
5.665570 -5.780664 4.825406 8342706
5.894470 -5.781226 0.109783 8342706
5.631407 -6.471540 2.458099 8342706
5.877970 -6.470661 3.653056 8342706
6.024521 -6.590377 0.569571 8342706
6.051046 -5.716326 1.738034 8342706
6.102197 -5.907473 1.767333 8342706
6.175519 -5.782094 4.167749 8342706
5.470285 -6.258317 4.946436 8342706
6.571826 -5.839503 2.156765 8342706
6.223616 -6.445557 3.896955 8342706
6.248762 -5.713866 2.525257 8342706
6.241832 -6.379503 2.412457 8342706
6.071301 -5.654868 4.497794 8342706
5.619954 -6.300828 3.474197 8342706
5.990555 -6.434361 2.710877 8342706
6.589513 -6.082618 0.436507 8342706
5.718942 -5.655906 4.792887 8342706
6.304216 -5.777956 0.284842 8342706
5.949104 -5.741811 4.696399 8342706
6.071145 -5.545681 2.439262 8342706
6.363044 -5.937149 1.875823 8342706
5.860313 -6.329100 3.420967 8342706
6.091669 -5.695632 4.226662 8342706
6.463911 -5.815009 0.468867 8342706
6.387137 -5.775222 4.626306 8342706
6.243452 -6.049779 2.742213 8342706
6.326189 -6.225626 0.720905 8342706
5.451456 -6.022614 2.426646 8342706
5.704954 -5.931892 4.322162 8342706
6.297638 -5.908421 4.822740 8342706
6.289488 -5.576164 1.380036 8342706
5.813113 -6.243283 4.061830 8342706
6.437407 -5.699800 4.592880 8342706
5.855588 -5.505384 4.358889 8342706
5.656433 -5.842688 0.456347 8342706
6.427570 -5.802197 3.475897 8342706
6.352615 -5.741876 0.656675 8342706
5.688716 -6.099066 0.742258 8342706
