# .PCD v0.7 - Point Cloud Data file format
VERSION 0.7
FIELDS x y z rgb
SIZE 4 4 4 4
TYPE F F F U
COUNT 1 1 1 1
WIDTH 1287
HEIGHT 1
VIEWPOINT 0 0 0 1 0 0 0
POINTS 1287
DATA ascii
3.187475 17.672005 1.614660 15014169
3.053711 18.222927 0.604612 15014169
2.769552 17.863636 0.616535 15014169
3.321763 17.747473 1.342159 15014169
2.989140 17.726292 1.353738 15014169
2.784775 18.213060 1.642128 15014169
3.383228 17.898323 0.341279 15014169
3.448211 17.848722 1.285000 15014169
2.983944 17.614384 1.475384 15014169
3.181180 18.119322 1.062485 15014169
3.371413 18.217951 0.303251 15014169
2.780167 17.789766 0.480631 15014169
3.228417 17.859612 1.502059 15014169
2.873733 17.903519 0.308655 15014169
3.214271 17.932869 0.477253 15014169
3.356067 18.236334 0.391950 15014169
2.767420 17.904518 1.138011 15014169
2.942551 18.055895 0.607216 15014169
3.106375 17.989468 0.951345 15014169
2.849056 17.743126 0.479409 15014169
2.957600 17.746532 1.037002 15014169
3.119917 17.900730 0.743051 15014169
3.121395 18.197264 1.488690 15014169
2.780255 17.826735 0.881812 15014169
3.219532 18.076855 0.931256 15014169
3.033806 18.148010 1.064104 15014169
3.385284 17.646433 0.813973 15014169
3.404480 18.085829 1.537998 15014169
2.900646 18.111273 0.580527 15014169
3.108660 17.771379 0.920012 15014169
3.295524 17.814011 1.164824 15014169
3.032378 18.224089 1.223751 15014169
3.185778 17.847996 1.015836 15014169
2.762326 17.674171 1.613284 15014169
2.772182 18.246235 1.310136 15014169
3.187765 18.123444 0.489857 15014169
3.290316 18.098541 1.056433 15014169
3.060530 17.942108 0.922912 15014169
3.302818 17.788055 0.393177 15014169
3.413851 17.921818 1.367109 15014169
3.207923 17.966728 0.475375 15014169
2.906568 17.907574 1.079452 15014169
3.315545 17.811836 0.846089 15014169
3.362808 18.173429 0.449791 15014169
2.856549 18.054907 1.083649 15014169
3.427047 18.110224 1.416600 15014169
2.887463 17.960724 1.186411 15014169
2.732488 17.957874 0.920072 15014169
2.981014 17.792524 1.560263 15014169
2.737603 17.816704 0.705619 15014169
3.388839 17.622730 0.940327 15014169
2.963691 18.081699 1.271269 15014169
3.217328 18.223261 1.610839 15014169
2.776579 17.689180 0.364661 15014169
3.396522 18.275238 0.816023 15014169
2.776080 17.677177 1.529535 15014169
3.059554 17.729597 1.197536 15014169
3.281513 17.907139 0.359882 15014169
2.976343 18.209822 0.440026 15014169
2.822747 18.135180 0.490873 15014169
2.818496 17.754606 0.713406 15014169
2.956463 18.144104 0.634292 15014169
2.813782 17.675465 0.797331 15014169
2.880644 18.161818 1.170947 15014169
2.912870 18.284224 0.890269 15014169
3.358023 17.807943 0.766275 15014169
3.412020 17.654362 1.524699 15014169
3.408004 17.829086 1.569776 15014169
3.359293 18.291647 0.450943 15014169
3.160674 18.134653 1.323308 15014169
3.320044 17.614983 1.621744 15014169
2.835455 17.620405 1.675341 15014169
2.872573 18.189281 0.317920 15014169
2.761343 17.646854 1.176318 15014169
2.905446 17.911058 1.623839 15014169
2.880110 17.752779 0.988787 15014169
2.925126 17.947741 0.930737 15014169
2.958178 17.581066 1.370117 15014169
3.353418 17.855093 0.952356 15014169
2.765910 18.114267 0.655291 15014169
2.827329 17.687574 0.580703 15014169
3.255369 17.884033 1.269292 15014169
2.848792 17.742910 1.460193 15014169
2.733114 17.766882 1.474954 15014169
3.213006 17.778376 1.449677 15014169
2.843289 17.956602 1.129345 15014169
3.408825 18.065004 0.793422 15014169
3.088115 17.750454 1.689585 15014169
3.015007 17.660255 1.682240 15014169
3.362520 17.960421 0.355704 15014169
3.312413 18.223425 1.200287 15014169
2.925148 18.251524 0.314464 15014169
2.976012 17.830151 1.489439 15014169
2.736950 18.065552 1.080548 15014169
2.962222 17.672688 0.512692 15014169
3.196539 17.631962 0.398538 15014169
3.069244 17.968529 0.317934 15014169
3.091805 17.689995 0.474647 15014169
3.202837 17.807226 1.386500 15014169
-0.926012 -14.331450 0.466473 1645029
-0.899494 -14.053988 1.223288 1645029
-1.411476 -14.551655 1.044641 1645029
-1.203832 -14.306358 1.007384 1645029
-1.101556 -14.233692 1.185126 1645029
-1.174316 -14.251073 1.485025 1645029
-1.175627 -14.224179 0.627953 1645029
-1.295451 -14.098117 1.265056 1645029
-1.047208 -14.283792 0.955774 1645029
-1.088069 -14.704341 0.628564 1645029
-0.575151 -14.436854 1.079978 1645029
-0.783879 -14.704590 1.280302 1645029
-1.281017 -14.427864 0.624949 1645029
-0.643638 -14.597616 1.219259 1645029
-1.233031 -14.440480 0.843018 1645029
-1.440700 -14.156618 1.163914 1645029
-1.526522 -14.693961 0.969862 1645029
-0.900859 -14.034768 1.144865 1645029
-0.823967 -14.220344 1.278908 1645029
-1.084011 -14.517293 0.912797 1645029
-0.833397 -14.624908 1.171971 1645029
-1.258163 -14.617687 1.335332 1645029
-0.905051 -14.131608 1.263267 1645029
-1.067129 -14.756693 0.692849 1645029
-0.972866 -14.853388 0.777820 1645029
-1.219975 -14.195621 1.147956 1645029
-0.996261 -14.675146 0.855714 1645029
-1.143029 -14.402276 0.923588 1645029
-0.731991 -14.382568 1.037451 1645029
-0.806476 -14.510459 1.111351 1645029
-1.267541 -14.590054 0.823029 1645029
-1.405120 -14.386793 0.634215 1645029
-1.271975 -14.388561 1.338544 1645029
-1.256127 -14.415971 0.899376 1645029
-0.687704 -14.674206 0.952884 1645029
-1.121933 -14.388254 1.065691 1645029
-1.034697 -13.993518 1.095006 1645029
-1.554000 -14.714120 1.066377 1645029
-1.046812 -14.371111 1.150143 1645029
-1.287058 -14.757817 1.085042 1645029
-1.267020 -14.582492 0.517119 1645029
-1.466521 -14.437055 0.874475 1645029
-0.867908 -14.581381 1.124760 1645029
-1.069412 -14.485323 1.191803 1645029
-1.235835 -14.274121 0.689169 1645029
-0.938812 -14.299536 0.671390 1645029
-0.941073 -14.023386 0.997426 1645029
-0.978121 -14.398803 0.884008 1645029
-1.158142 -14.447336 0.685817 1645029
-0.770595 -14.728779 0.812201 1645029
-1.168407 -14.872004 0.943630 1645029
-0.688423 -14.490982 0.958286 1645029
-1.146334 -14.611420 0.857178 1645029
-1.247513 -14.743713 1.366798 1645029
-1.150223 -14.297906 0.500543 1645029
-0.644865 -14.463484 1.259877 1645029
-1.366913 -14.111467 0.716222 1645029
-1.366602 -14.225129 0.663434 1645029
-0.958660 -14.866757 0.898393 1645029
-1.369575 -14.593995 0.856907 1645029
-1.057463 -14.855829 0.941814 1645029
-0.930395 -14.510506 0.970646 1645029
-1.361145 -14.536046 1.021636 1645029
-1.188936 -14.193470 0.905790 1645029
-1.191101 -13.959141 0.948440 1645029
-1.299911 -14.517623 1.411996 1645029
-1.186885 -14.549798 1.138220 1645029
-0.961897 -14.261906 1.254252 1645029
-0.726161 -14.329097 1.139106 1645029
-0.623029 -14.332801 1.011036 1645029
-1.397066 -14.789294 1.243637 1645029
-0.796629 -14.101796 1.032511 1645029
-0.699412 -14.426061 1.049713 1645029
-1.314538 -14.215622 0.571915 1645029
-1.167905 -14.134992 1.227141 1645029
-1.040388 -14.038194 1.093458 1645029
-0.884145 -14.259225 0.850440 1645029
-1.084387 -14.260431 0.540526 1645029
-0.785950 -14.417376 1.036093 1645029
-0.733519 -14.172341 1.205620 1645029
-4.360104 7.154397 0.466213 10053171
-5.955360 7.100749 0.437463 10053171
-4.433517 6.970679 2.369378 10053171
-5.178940 7.169014 2.898477 10053171
-3.846413 6.989309 0.303426 10053171
-6.683360 6.753524 2.479164 10053171
-4.122796 7.158762 2.547153 10053171
-3.174233 6.956056 1.330468 10053171
-4.403451 6.983831 0.504144 10053171
-3.516717 7.198330 2.565505 10053171
-3.678700 7.190481 2.500847 10053171
-3.273067 6.967592 0.852331 10053171
-3.991056 7.077104 0.157019 10053171
-4.961133 6.814124 1.159800 10053171
-6.837118 6.959179 0.167914 10053171
-4.613457 7.122797 2.211771 10053171
-6.425289 6.987234 1.221178 10053171
-4.639166 6.949471 0.455690 10053171
-6.885407 6.761740 2.815082 10053171
-6.300722 7.224424 2.884492 10053171
-6.042501 7.073707 0.757436 10053171
-6.135355 6.807188 2.808060 10053171
-3.737304 6.851062 2.220094 10053171
-4.828162 7.066490 2.511209 10053171
-6.588356 6.989502 2.634058 10053171
-6.066740 7.161899 1.094071 10053171
-3.408979 7.158564 1.435998 10053171
-4.623964 6.964586 1.337962 10053171
-6.009472 7.219152 2.397294 10053171
-6.682400 7.021553 2.945663 10053171
-6.878639 7.062598 1.113647 10053171
-5.962380 6.760365 0.159829 10053171
-6.165358 7.025062 1.956685 10053171
-3.873559 6.957765 0.585940 10053171
-4.702065 7.142593 0.116641 10053171
-5.882758 7.182135 2.069409 10053171
-4.830640 6.961220 1.401899 10053171
-5.496287 7.246506 2.742637 10053171
-5.063950 6.761870 1.292120 10053171
-6.150147 6.972657 2.525044 10053171
-4.468467 6.936834 2.110964 10053171
-4.099495 7.122259 1.117985 10053171
-3.866571 6.777778 0.889912 10053171
-4.736030 6.931314 2.272171 10053171
-5.547361 6.957600 0.643568 10053171
-3.786945 7.050978 1.166587 10053171
-3.505131 7.076725 2.124336 10053171
-4.290966 7.182831 0.680053 10053171
-4.119180 7.238448 2.566688 10053171
-5.296861 6.959378 1.591504 10053171
-6.760341 7.067341 2.631521 10053171
-5.675619 6.965765 1.207065 10053171
-5.743064 6.860751 2.776822 10053171
-3.542303 6.877264 2.691676 10053171
-3.069720 6.888585 0.630768 10053171
-5.031693 7.030880 2.147126 10053171
-3.519749 7.040770 0.789221 10053171
-5.448797 7.046972 1.603540 10053171
-3.345371 7.079399 2.181330 10053171
-6.472690 7.188303 0.037654 10053171
-6.363622 6.750520 2.586417 10053171
-4.379927 6.942274 2.928941 10053171
-6.320430 6.961850 0.877119 10053171
-3.764516 7.190315 1.054623 10053171
-3.546623 7.093046 2.696634 10053171
-4.189967 6.917543 2.154876 10053171
-6.357210 6.799057 1.060596 10053171
-3.759077 7.030475 1.933209 10053171
-3.876748 7.041249 1.233633 10053171
-5.456916 7.224142 0.701683 10053171
-5.942720 6.952112 2.527324 10053171
-3.292083 6.924630 1.496298 10053171
-6.819106 6.751099 2.287675 10053171
-3.697230 6.988455 1.008398 10053171
-6.503077 7.218772 1.575114 10053171
-5.305643 6.968253 0.861158 10053171
-6.503070 6.888108 0.444007 10053171
-4.527644 7.093225 2.261222 10053171
-6.750307 7.154226 1.131260 10053171
-4.043228 6.892141 0.237449 10053171
-5.793435 7.229118 0.696407 10053171
-6.964164 7.059707 2.896467 10053171
-3.117542 7.086231 2.173525 10053171
-4.140159 7.112696 0.052507 10053171
-4.438391 7.173759 1.356376 10053171
-6.608214 7.214446 0.441546 10053171
-5.841541 6.872591 0.184397 10053171
-3.250353 6.874969 0.154376 10053171
-6.539495 6.919188 1.324390 10053171
-5.965798 6.839942 -0.020460 10053171
-5.447225 7.047336 1.749979 10053171
-6.396242 7.016869 2.960337 10053171
-6.082826 6.827250 2.942904 10053171
-4.248991 7.233891 1.406072 10053171
-4.294074 7.093373 2.202214 10053171
-3.912258 7.199633 2.390492 10053171
-5.682015 7.196091 0.387898 10053171
-5.340552 6.913288 0.459416 10053171
-3.336819 6.938360 0.982325 10053171
-6.872736 6.927400 0.254171 10053171
-4.485581 6.807457 1.771806 10053171
-6.238328 7.213156 1.532088 10053171
-3.863808 7.187220 0.884664 10053171
-3.780528 6.971760 2.099669 10053171
-4.816447 7.130443 1.234604 10053171
-5.623669 7.247197 1.586464 10053171
-4.218977 6.969102 0.435474 10053171
-5.529006 7.193261 0.318352 10053171
-3.272148 7.056973 0.145927 10053171
-5.110393 6.763003 1.802887 10053171
-5.618968 7.053953 2.634587 10053171
-5.443117 6.892879 2.384094 10053171
-4.462352 6.910515 0.683334 10053171
-4.771032 6.948141 2.330833 10053171
-6.493824 6.950720 1.174583 10053171
-5.744985 6.787094 1.379065 10053171
-4.577601 6.919052 1.779797 10053171
-4.056656 7.063247 2.552323 10053171
-3.331370 7.036544 0.200774 10053171
-4.647126 6.770144 1.420528 10053171
-3.807230 7.199604 0.841589 10053171
-5.170290 6.873565 0.245260 10053171
-6.429586 6.759530 0.307812 10053171
-5.577573 7.017871 0.805214 10053171
-3.162552 7.191964 1.574478 10053171
-5.388158 7.078312 2.720506 10053171
-5.309214 6.938263 2.700687 10053171
-4.397919 6.919809 0.779941 10053171
-6.982659 7.101077 2.669517 10053171
-4.279500 7.042183 2.897321 10053171
-4.869355 6.980909 0.231042 10053171
-6.477474 6.900276 2.234666 10053171
-5.334038 6.910959 1.744947 10053171
-5.239329 7.060129 1.630084 10053171
-4.650651 6.840804 0.827031 10053171
-3.286212 6.831243 0.419426 10053171
-4.017419 6.957577 1.222439 10053171
-3.759213 7.241729 0.791063 10053171
-5.126882 7.038201 2.768196 10053171
-4.760707 7.170201 1.092402 10053171
-5.660328 6.770197 2.551115 10053171
-5.430242 7.188702 2.284678 10053171
-6.053579 6.996958 2.975904 10053171
-3.696841 6.941640 1.054470 10053171
-4.239563 7.086225 2.725196 10053171
-5.939430 7.046600 0.655083 10053171
-4.944081 6.817477 2.308728 10053171
-3.916752 6.806808 1.357406 10053171
-6.029883 7.208819 1.743350 10053171
-3.630932 7.209871 0.386112 10053171
-5.853539 6.934196 2.269384 10053171
-6.556871 6.875236 1.754288 10053171
-4.746115 6.798341 2.780763 10053171
-6.508431 7.168258 1.230038 10053171
-3.580206 7.003982 1.074748 10053171
-6.264648 6.811486 1.541680 10053171
-3.022800 6.870424 1.552523 10053171
-6.386835 7.230978 0.933138 10053171
-4.808062 6.995324 1.218949 10053171
-6.391118 7.097075 0.924038 10053171
-6.886439 6.897913 2.263067 10053171
-3.709509 7.220932 1.829434 10053171
-4.246294 7.184692 0.808864 10053171
-6.315917 6.803177 2.934805 10053171
-3.019617 6.761328 2.278729 10053171
-6.418152 6.916939 1.489293 10053171
-6.296696 7.003280 1.005666 10053171
-5.146194 6.779593 1.236903 10053171
-3.944982 7.187871 0.922550 10053171
-6.406732 7.079182 0.862928 10053171
-6.217226 6.728304 2.106433 10053171
-3.508558 7.031144 0.946955 10053171
-5.310607 6.979825 2.323939 10053171
-4.494763 6.759523 0.614097 10053171
-5.562490 7.217209 0.152393 10053171
-3.640249 6.911703 1.796019 10053171
-6.996997 7.156485 2.095539 10053171
-6.190266 7.152617 1.950805 10053171
-4.716369 6.906601 0.441874 10053171
-5.570902 6.970924 1.753560 10053171
-6.748280 6.771531 1.270553 10053171
-5.558723 6.811194 1.495776 10053171
-6.426954 6.878785 2.030247 10053171
-5.971266 6.777751 1.065845 10053171
-5.781781 6.761724 2.089245 10053171
-5.556911 6.800810 1.545395 10053171
-3.371243 7.079610 2.634590 10053171
-5.061768 7.027881 0.377718 10053171
-4.192648 7.192304 0.561137 10053171
-5.052512 7.136977 0.833341 10053171
-6.399588 6.907598 2.835705 10053171
-6.877294 6.836124 2.553306 10053171
-6.716048 6.768987 0.411199 10053171
-3.237313 7.093348 1.587148 10053171
-6.025809 6.748392 2.604423 10053171
-4.043337 6.911010 1.556896 10053171
-6.724832 7.232354 0.586690 10053171
-6.909391 6.971578 2.979541 10053171
-4.474376 6.935718 1.925776 10053171
-4.891648 7.063406 2.536598 10053171
-3.972848 7.100919 0.787698 10053171
-4.130090 7.220927 0.501881 10053171
-3.903558 6.770142 1.131881 10053171
-3.486071 7.210289 2.475314 10053171
-3.392350 7.188115 0.183190 10053171
-3.149185 6.788934 0.476396 10053171
-4.774806 7.204947 1.080888 10053171
-6.914639 7.096488 0.576533 10053171
-6.247703 6.753680 1.881269 10053171
-6.633246 6.918547 0.631333 10053171
-6.344531 7.165392 1.708859 10053171
-6.417511 6.825963 1.120358 10053171
-4.965683 6.815176 0.306448 10053171
-5.302231 7.031681 1.130219 10053171
-6.005593 7.071132 1.265741 10053171
-3.177012 7.017714 2.071823 10053171
-4.528668 6.911773 0.160124 10053171
-6.046379 6.822649 0.174322 10053171
-3.628026 7.144212 0.335084 10053171
-3.322842 7.184429 2.584766 10053171
-4.026774 6.907776 2.644558 10053171
-4.133506 6.835149 2.981683 10053171
-5.521485 7.110411 1.921930 10053171
-4.330598 7.146904 0.726846 10053171
-4.262775 6.963989 0.586377 10053171
-3.601837 7.146270 0.601586 10053171
-3.740866 6.938176 0.927029 10053171
-4.657113 7.007714 0.622159 10053171
-4.189376 6.946718 0.208908 10053171
-6.571967 6.780833 2.344917 10053171
-4.730422 7.145804 0.499244 10053171
-5.166294 6.992927 1.462214 10053171
-6.475683 7.250622 1.320141 10053171
-6.976278 7.027691 2.097759 10053171
-6.605422 7.234843 1.504662 10053171
-5.043497 7.124309 2.886965 10053171
-4.708123 6.831613 0.728008 10053171
-4.298704 6.927123 1.317775 10053171
-5.439499 6.831252 2.071656 10053171
-4.016464 6.762685 2.819959 10053171
-5.956669 7.012075 1.419834 10053171
-6.733078 6.758482 0.248370 10053171
-3.284780 7.135623 2.707232 10053171
-5.103792 7.049328 1.743320 10053171
-5.851831 7.209358 0.513022 10053171
-6.241466 6.892835 1.056979 10053171
-6.949505 7.108329 1.619444 10053171
-5.749820 7.226541 2.556600 10053171
-6.223292 6.928156 2.038389 10053171
-3.787834 6.950531 1.342181 10053171
-5.703658 7.154314 0.856118 10053171
-3.116382 6.806343 0.985455 10053171
-3.908260 6.847623 1.101097 10053171
-5.341616 7.173174 1.629324 10053171
-3.525936 6.760617 0.863748 10053171
-4.687835 7.238166 1.561122 10053171
-3.645328 7.005068 2.208164 10053171
-4.578631 7.121632 2.691028 10053171
-4.890018 7.078194 2.072451 10053171
-6.892763 6.799474 2.401575 10053171
-3.416135 7.124657 0.839442 10053171
-5.528400 7.053269 2.908685 10053171
-4.820612 6.944991 0.685857 10053171
-4.610754 7.016532 2.185066 10053171
-6.901660 7.044061 2.205618 10053171
-3.650046 6.860811 1.236368 10053171
-4.322823 6.919831 0.812474 10053171
-6.442351 6.777353 2.056823 10053171
-6.052469 6.780305 2.071750 10053171
-4.842255 6.753488 0.946410 10053171
-3.713163 6.846412 -0.016012 10053171
-4.891229 7.119279 2.478930 10053171
-3.751987 6.994914 2.470219 10053171
-5.172227 7.082116 1.501064 10053171
-6.234707 6.861539 1.599241 10053171
-6.666209 7.185033 2.935223 10053171
-3.933809 6.916078 0.932304 10053171
-6.243925 7.054560 0.936570 10053171
-4.883193 7.154830 1.516688 10053171
-3.278225 7.221640 0.917768 10053171
-6.362080 7.083819 1.854041 10053171
-5.704096 6.833581 1.334262 10053171
-3.549175 6.899169 0.406474 10053171
-5.642479 6.796173 2.098400 10053171
-4.281341 7.250488 0.435645 10053171
-3.210251 7.021545 1.440322 10053171
-3.110935 6.950989 1.846662 10053171
-4.075406 6.764102 0.905109 10053171
-4.269930 7.219559 1.322332 10053171
-3.069261 6.874500 0.302791 10053171
-4.000396 7.126795 1.433089 10053171
-5.448148 6.929341 1.070896 10053171
-3.978173 6.981153 0.353434 10053171
-3.781453 6.920543 0.148874 10053171
-5.731923 7.226110 1.863399 10053171
-5.699064 7.192402 1.787954 10053171
-6.046819 6.746407 2.388546 10053171
-3.591480 6.953726 0.804334 10053171
-5.215480 7.143974 1.186625 10053171
-5.111431 6.833956 2.478268 10053171
-4.288331 7.203604 0.620722 10053171
-6.985750 7.237526 0.056865 10053171
-4.013261 6.783645 1.126809 10053171
-4.045312 6.785003 1.838147 10053171
-5.400099 6.867107 2.714776 10053171
-3.266283 7.043928 1.518304 10053171
-3.298646 7.223637 0.003942 10053171
-3.225435 6.821124 1.481608 10053171
-4.616626 6.933502 1.543311 10053171
-4.967581 6.842302 0.134245 10053171
-6.782625 6.837483 1.572920 10053171
-5.567405 6.945985 0.153574 10053171
-6.934366 6.918452 1.408632 10053171
-4.183203 6.759757 1.307433 10053171
-6.377306 6.929584 0.240960 10053171
-3.354151 6.759257 2.832188 10053171
-4.118886 6.779309 1.426881 10053171
-4.756596 6.848898 1.930261 10053171
-6.176698 6.790884 0.129728 10053171
-5.216882 7.136379 1.842467 10053171
-6.279362 7.114921 2.264714 10053171
-5.161736 7.081130 1.394696 10053171
-6.473776 6.926848 1.301864 10053171
-5.468751 7.076258 0.277580 10053171
-4.952504 7.194223 1.786699 10053171
-3.863070 6.996716 1.627808 10053171
-5.429856 7.102938 2.733560 10053171
-5.714289 7.072387 2.971808 10053171
-6.825927 7.136863 0.794935 10053171
-4.894206 7.174416 1.121626 10053171
-6.961539 6.932103 0.264901 10053171
-6.739960 6.986135 1.044834 10053171
-4.315957 6.808095 1.935654 10053171
-4.001108 7.170191 0.056074 10053171
-3.090929 7.056098 1.311406 10053171
-3.852806 7.041891 0.393101 10053171
-3.114725 6.758286 1.718551 10053171
-3.470327 6.850230 0.323543 10053171
-6.627085 7.078219 1.227406 10053171
-4.094853 7.138560 0.748284 10053171
-3.795827 7.003260 2.075226 10053171
-3.790778 7.031633 1.247561 10053171
-4.634309 7.135420 2.674117 10053171
-4.616428 7.205770 2.348874 10053171
-6.250717 7.162622 0.855795 10053171
-3.107232 6.920513 0.006221 10053171
-4.393738 6.761853 0.509492 10053171
-5.187981 7.027851 2.849056 10053171
-5.351133 6.998628 2.490991 10053171
-3.672514 7.234795 1.063034 10053171
-4.833143 6.782328 0.077734 10053171
-4.745727 7.123496 0.922823 10053171
-4.087802 6.871282 1.519061 10053171
-3.548176 6.965252 0.986703 10053171
-6.955491 7.106487 0.899730 10053171
-3.904330 6.926722 1.347156 10053171
-3.579275 6.953425 2.714887 10053171
-5.512480 6.816932 2.613503 10053171
-5.395175 6.760141 2.417101 10053171
-3.034355 6.806603 2.927951 10053171
-6.140552 6.859067 2.039088 10053171
-4.444905 7.135286 0.784440 10053171
-4.526970 7.021084 0.687824 10053171
-3.180240 7.231407 2.725241 10053171
-5.858620 7.201018 2.535670 10053171
-4.213392 6.911574 2.116861 10053171
-3.185668 6.927481 0.500153 10053171
-4.994042 6.820292 1.819729 10053171
-3.751742 6.970416 0.088334 10053171
-4.325850 7.216876 0.533476 10053171
-6.191581 6.871316 1.531343 10053171
-3.863448 7.196554 0.580632 10053171
-5.463839 6.767062 1.452840 10053171
-3.210289 6.819165 2.173594 10053171
-3.451523 6.959240 0.308383 10053171
-3.932046 7.275459 2.064275 10053171
-6.175352 7.200763 0.266122 10053171
-6.543519 6.914485 0.535290 10053171
-4.624774 6.896723 1.244347 10053171
-5.131719 6.788696 0.005650 10053171
-5.444337 6.800010 0.507389 10053171
-3.765025 6.788520 0.415768 10053171
-5.336983 7.211596 0.701832 10053171
-3.169403 7.175206 1.387981 10053171
-4.945038 6.757526 2.568765 10053171
-6.727505 7.128904 1.612645 10053171
-4.808764 6.771201 1.169513 10053171
-4.120742 7.050162 1.620700 10053171
-4.085758 7.025019 1.616157 10053171
-3.498478 6.921162 2.929391 10053171
-4.094139 7.151481 2.904717 10053171
-6.616241 6.917871 1.744495 10053171
-5.176642 7.060077 1.672409 10053171
-5.111777 7.162015 2.145924 10053171
-4.517538 6.872018 0.046029 10053171
-5.331101 6.757799 2.600191 10053171
-5.178803 6.759058 1.377737 10053171
-4.069171 6.889510 0.738842 10053171
-4.381542 7.057001 1.046930 10053171
-5.224597 7.134747 0.687189 10053171
-3.763464 6.785012 1.915546 10053171
-3.658569 7.250880 2.725231 10053171
-3.363773 7.143650 0.974252 10053171
-4.069479 7.190893 2.651153 10053171
-3.099089 7.170011 2.867408 10053171
-3.578238 7.036231 1.663347 10053171
-5.306199 7.129504 0.086157 10053171
-3.926533 6.944643 2.283498 10053171
-6.415245 7.025625 2.534885 10053171
-3.116190 7.091832 2.785748 10053171
-4.854340 7.160652 0.124353 10053171
-5.904271 6.894841 0.151290 10053171
-4.284389 7.056316 0.569085 10053171
-4.619981 7.143381 0.005782 10053171
-6.618670 7.203359 1.384739 10053171
-6.049211 6.935936 0.089562 10053171
-5.836179 6.749723 2.896943 10053171
-4.470621 7.040541 2.827796 10053171
-5.617775 7.188951 2.540587 10053171
-3.117273 6.937527 0.624506 10053171
-5.754963 6.954524 0.601642 10053171
-4.088380 7.097969 1.532596 10053171
-4.696387 6.775225 1.669238 10053171
-4.981356 7.133330 1.234891 10053171
-4.425642 6.961830 0.508787 10053171
-5.280882 7.241255 0.302919 10053171
-3.868225 6.960602 0.828954 10053171
-4.250695 6.950065 2.673263 10053171
-5.250847 7.095358 1.734394 10053171
-3.027801 6.971286 0.256254 10053171
-5.429214 6.858843 1.047323 10053171
-6.589223 7.090197 2.725834 10053171
-5.117702 6.832221 1.636477 10053171
-3.021162 6.916590 0.743646 10053171
-6.580904 6.977715 1.166421 10053171
-3.071805 6.997478 0.201766 10053171
-6.276432 7.224346 1.896015 10053171
-3.699318 6.929968 1.371166 10053171
-4.175939 7.114607 0.201812 10053171
-3.858274 7.154994 1.819364 10053171
-4.164411 7.012350 1.337834 10053171
-3.104063 6.796717 0.727035 10053171
-5.618057 7.205588 0.144701 10053171
-5.676478 7.023814 2.805418 10053171
-4.790503 6.930964 1.802114 10053171
-5.956465 7.157210 2.037852 10053171
-3.337523 7.107059 0.992241 10053171
-6.495612 6.812839 0.730749 10053171
-6.582850 7.078792 1.910737 10053171
-3.731442 6.863765 0.033665 10053171
-4.628388 7.116076 2.044492 10053171
-5.594637 6.766948 2.658182 10053171
-3.970810 7.080568 0.442458 10053171
-3.910640 6.778644 1.644732 10053171
-5.389111 7.035451 0.798011 10053171
-4.844400 6.831997 1.746473 10053171
-5.777729 6.938196 1.073231 10053171
-6.601674 6.860975 0.166272 10053171
-4.538599 6.987837 1.714617 10053171
-3.701589 7.118107 2.821094 10053171
-5.716149 6.856338 0.097735 10053171
-5.664065 7.052854 0.369771 10053171
-4.255322 6.857189 0.862608 10053171
-5.865483 6.841397 2.055342 10053171
-4.903381 6.854910 2.917708 10053171
-3.177613 6.995625 2.034419 10053171
-3.616704 6.920202 1.080441 10053171
-4.788112 7.125310 2.850263 10053171
-4.522583 7.149499 1.484048 10053171
-3.479936 7.094993 1.070140 10053171
-3.156807 7.149707 0.491548 10053171
-5.438731 7.095184 0.821143 10053171
-6.658236 6.954430 2.567760 10053171
-3.296232 6.905688 2.386463 10053171
-5.853248 7.129276 2.054307 10053171
-4.668638 6.928276 1.461471 10053171
-4.293073 6.833066 2.131001 10053171
-3.009283 6.767059 2.450899 10053171
-3.059157 6.967200 1.070794 10053171
-4.379525 7.202171 0.278094 10053171
-5.479264 7.229949 2.301702 10053171
-5.603816 7.128187 1.128455 10053171
-3.881298 6.889405 1.867020 10053171
-4.682662 7.079245 2.933580 10053171
-4.745622 7.170366 2.685747 10053171
-6.283519 7.050436 1.600711 10053171
-3.123282 7.185638 0.309190 10053171
-4.511263 6.880754 2.790518 10053171
-3.035844 6.919889 1.116375 10053171
-4.451931 7.256312 2.837600 10053171
-5.026258 6.927740 2.684515 10053171
-3.201355 6.970215 0.513309 10053171
-5.982120 6.818261 0.805403 10053171
-4.700146 7.146923 0.301379 10053171
-3.017499 7.060423 0.558315 10053171
-5.436867 6.901607 1.079625 10053171
-3.933714 6.808336 0.611638 10053171
-6.063761 6.989999 2.706649 10053171
-3.319154 6.937745 0.545413 10053171
-5.714746 6.746004 2.856495 10053171
-4.198492 6.845235 0.640860 10053171
-6.599464 6.991369 2.975098 10053171
-6.916597 7.237882 2.511858 10053171
-6.910314 7.210353 0.739490 10053171
-5.273230 7.006227 2.457975 10053171
-5.207911 6.984875 1.254305 10053171
-3.178199 7.141945 1.909778 10053171
-6.385973 6.955775 1.710593 10053171
-4.058302 6.859577 0.131095 10053171
-3.502402 6.883198 0.030458 10053171
-6.125784 6.881254 1.910518 10053171
-3.110145 7.079698 0.766169 10053171
-3.575290 7.015275 2.715185 10053171
-4.248982 7.047186 2.636700 10053171
-3.448821 6.892487 2.414875 10053171
-5.110303 6.896423 2.874466 10053171
-4.447473 7.104447 1.069557 10053171
-6.605233 6.854455 2.029466 10053171
-3.840168 6.872844 2.272860 10053171
-3.558280 7.000288 1.027845 10053171
-4.265185 6.765795 0.884434 10053171
-3.879843 7.012819 1.019559 10053171
-5.359401 6.965353 2.073934 10053171
-3.236751 6.840834 0.501843 10053171
-3.400210 7.243645 0.660591 10053171
-6.364508 6.751215 1.215228 10053171
-5.800134 7.216746 1.611657 10053171
-3.805260 6.883407 0.818895 10053171
-6.568893 6.868115 1.598029 10053171
-4.369075 6.809809 0.988783 10053171
-5.658404 6.916808 0.069507 10053171
-4.406130 7.028439 1.165429 10053171
-4.189401 6.898782 2.117098 10053171
-3.274193 7.194875 1.299651 10053171
-3.742841 7.219007 2.651331 10053171
-5.908909 6.833035 0.036478 10053171
-5.685318 6.818310 1.552956 10053171
-4.950943 6.941585 2.471047 10053171
-6.086558 7.058041 1.123873 10053171
-6.783225 7.254735 2.122926 10053171
-5.462591 6.869750 1.237591 10053171
-6.161617 6.898270 2.894981 10053171
-5.555983 6.793645 2.412415 10053171
-4.520834 7.178150 1.521014 10053171
-5.317141 6.886487 0.616655 10053171
-6.029222 7.245927 1.499456 10053171
-3.522719 6.841664 2.532879 10053171
-5.677788 6.957929 2.285089 10053171
-6.057832 6.983617 1.458649 10053171
-6.577990 6.874612 1.242404 10053171
-6.772156 7.069244 2.629109 10053171
-6.573884 6.863040 1.839796 10053171
-6.066317 6.977514 2.780200 10053171
-4.228801 7.189270 2.771006 10053171
-4.878268 7.060848 2.199580 10053171
-4.858059 7.145934 0.050529 10053171
-4.099396 6.836418 1.578346 10053171
-6.990864 7.242734 0.323318 10053171
-5.491463 7.167560 0.024272 10053171
-3.506074 6.825515 0.740918 10053171
-6.078609 6.788536 0.914796 10053171
-3.540817 6.819176 2.838356 10053171
-3.540808 7.164029 0.910537 10053171
-5.190611 6.832691 2.973218 10053171
-6.964157 6.870213 2.339644 10053171
-4.339111 6.869334 0.583338 10053171
-4.563227 6.852330 0.882768 10053171
-3.492708 6.836893 0.302091 10053171
-6.415516 6.995727 1.127707 10053171
-5.303374 7.234574 1.687147 10053171
-4.226723 7.176451 1.708465 10053171
-5.733797 7.146072 0.935174 10053171
-4.647970 6.939200 2.958612 10053171
-5.831097 7.023113 1.038580 10053171
-5.202371 7.141292 0.273826 10053171
-4.794713 6.852246 2.737692 10053171
-3.320620 7.007777 0.816710 10053171
-3.879036 7.026236 1.816487 10053171
-5.792402 7.009127 1.292601 10053171
-3.339299 6.966877 1.641760 10053171
-2.990192 7.227796 0.793254 10053171
-3.207057 7.214383 2.787572 10053171
-3.174073 7.169199 2.292782 10053171
-6.078056 6.940725 2.250667 10053171
-6.815610 7.036268 2.065037 10053171
-4.082130 6.771448 1.160887 10053171
-3.185094 7.224581 1.678143 10053171
-6.941674 7.142938 1.488296 10053171
-4.295529 6.888339 1.120984 10053171
-5.310457 7.020803 0.092373 10053171
-6.798239 7.160872 2.878186 10053171
-4.205786 6.806149 2.433899 10053171
-3.446602 7.031556 2.642256 10053171
-3.075693 6.772438 1.150927 10053171
-3.495585 7.215739 0.558023 10053171
-3.451608 6.947002 2.310500 10053171
-4.090566 7.078819 2.699159 10053171
-3.748842 7.039030 2.906991 10053171
-5.743523 6.929461 0.477756 10053171
-4.736948 7.122798 1.566773 10053171
5.883896 -5.984485 1.149635 8342706
6.136769 -5.720972 1.811945 8342706
5.441238 -6.080232 3.632621 8342706
6.165147 -6.477665 0.567001 8342706
5.463115 -6.208538 3.051709 8342706
6.160284 -6.441570 4.080687 8342706
6.350459 -6.041961 4.910491 8342706
6.211174 -5.641319 0.333924 8342706
6.014498 -6.165808 3.999990 8342706
6.177235 -5.982614 0.465405 8342706
5.580287 -5.653718 2.021041 8342706
6.159091 -6.441308 3.299351 8342706
6.532109 -5.809862 4.829373 8342706
6.039892 -5.611897 2.402596 8342706
6.472399 -5.961719 1.323292 8342706
6.083682 -6.229407 2.939896 8342706
6.536346 -5.854494 0.282942 8342706
6.338018 -6.435675 2.967435 8342706
6.292389 -5.519998 2.205456 8342706
6.458928 -6.386991 2.658564 8342706
6.190602 -6.106373 2.967983 8342706
6.291716 -5.564012 2.053436 8342706
5.631912 -6.302697 3.513376 8342706
5.829579 -5.539022 0.175205 8342706
5.642941 -5.767550 0.529257 8342706
6.509419 -5.793909 1.418602 8342706
6.048800 -5.427398 0.771045 8342706
6.202849 -6.332767 1.490375 8342706
6.430878 -6.152071 1.616343 8342706
6.529659 -6.045450 3.476878 8342706
5.609335 -6.180534 3.360285 8342706
5.834538 -6.190919 4.700101 8342706
5.808667 -5.531762 2.042008 8342706
6.324085 -5.780901 2.908252 8342706
6.245998 -5.931313 3.528781 8342706
5.455064 -6.122380 0.534096 8342706
6.404684 -5.808488 1.990774 8342706
5.920428 -5.779688 1.730275 8342706
5.742995 -5.858135 3.129106 8342706
5.660707 -6.188283 1.848774 8342706
5.801565 -5.511325 0.789113 8342706
6.459939 -6.083161 0.385386 8342706
5.995504 -6.141352 4.301503 8342706
5.583833 -6.195963 4.550523 8342706
5.742527 -5.742403 4.167897 8342706
5.747874 -5.913362 3.127552 8342706
6.036430 -5.987937 1.442991 8342706
6.416942 -6.280210 2.005592 8342706
5.656153 -5.736996 3.089097 8342706
6.272106 -6.095311 3.889256 8342706
5.409532 -6.000607 4.570331 8342706
5.957247 -5.462457 4.493122 8342706
5.500853 -5.951793 3.218036 8342706
6.414217 -5.943688 1.949135 8342706
6.181230 -6.470667 4.272368 8342706
6.384342 -5.878434 1.204301 8342706
5.410156 -5.953728 2.352242 8342706
5.517926 -5.759582 4.322427 8342706
6.443934 -5.991185 2.996629 8342706
6.126166 -5.676740 4.827307 8342706
6.283886 -5.868638 2.134997 8342706
5.793141 -5.476098 2.078980 8342706
5.873508 -6.332769 3.536452 8342706
5.998044 -5.495088 3.493096 8342706
5.781626 -6.030118 4.513126 8342706
5.860630 -6.070466 1.738911 8342706
6.164052 -5.751290 2.005288 8342706
6.161914 -6.303228 1.955487 8342706
5.777234 -6.222923 1.542334 8342706
5.615166 -6.256392 1.051756 8342706
5.854984 -6.381900 1.248237 8342706
5.961575 -5.970861 3.017744 8342706
6.061907 -6.113477 4.749356 8342706
5.815466 -5.811282 0.608563 8342706
5.713606 -6.087574 2.494636 8342706
5.957587 -5.990345 3.142061 8342706
5.482269 -6.192719 1.928296 8342706
6.087617 -5.603147 0.147229 8342706
6.438720 -5.922015 1.236684 8342706
6.549493 -6.080025 3.875000 8342706
6.020607 -6.197214 3.283450 8342706
5.575017 -5.634675 1.956308 8342706
6.105994 -6.264170 4.457341 8342706
6.096932 -5.592167 4.638733 8342706
6.428120 -5.691884 0.221695 8342706
5.966944 -6.176640 2.699070 8342706
6.233372 -5.983259 2.436333 8342706
5.500136 -6.163432 3.685942 8342706
6.053142 -6.325109 2.018185 8342706
5.891266 -6.322024 1.002282 8342706
6.187250 -6.436883 4.423594 8342706
5.538682 -5.939357 3.850780 8342706
5.694160 -6.389106 2.507049 8342706
6.101869 -6.503502 1.404155 8342706
5.838857 -5.885586 4.549409 8342706
5.605873 -5.792006 2.351800 8342706
6.445066 -5.848356 2.609843 8342706
6.120834 -6.434916 0.588644 8342706
5.558580 -6.129520 1.874006 8342706
6.315073 -6.038343 1.901348 8342706
6.576838 -6.051282 3.633180 8342706
5.647341 -6.371622 0.623208 8342706
5.678286 -6.467623 0.785248 8342706
6.219457 -6.013070 2.562387 8342706
5.649899 -6.027437 3.307371 8342706
5.756910 -5.591345 4.699647 8342706
5.770157 -6.264433 4.018537 8342706
5.632483 -5.845592 1.222866 8342706
6.421264 -6.002349 4.442659 8342706
5.839034 -5.633235 3.511659 8342706
6.022511 -5.788466 0.942869 8342706
6.151514 -6.358492 1.763411 8342706
6.148814 -5.792243 1.593757 8342706
5.978462 -5.756517 4.079647 8342706
6.043852 -6.203688 4.585111 8342706
5.776213 -6.155802 0.229126 8342706
5.931486 -5.659174 1.680659 8342706
6.200972 -5.624257 3.865768 8342706
5.708212 -5.986607 3.109153 8342706
5.833653 -6.189588 2.612508 8342706
5.690404 -5.842887 2.899973 8342706
5.608021 -6.236872 3.727504 8342706
5.912563 -6.581486 1.056778 8342706
6.115635 -5.815741 1.672570 8342706
6.298508 -6.327844 0.549135 8342706
6.342902 -5.702572 2.296345 8342706
6.139112 -5.565790 3.075780 8342706
5.687683 -5.687599 1.209279 8342706
5.989685 -5.729861 3.696686 8342706
6.190484 -6.045206 4.389315 8342706
6.530360 -6.106814 2.703127 8342706
6.328469 -6.141344 3.359829 8342706
5.682578 -6.303763 4.696611 8342706
6.279270 -5.531410 4.625740 8342706
5.979532 -6.227003 3.543312 8342706
5.753613 -5.654052 2.618479 8342706
6.082473 -6.555534 4.506958 8342706
5.535817 -5.757897 4.266752 8342706
5.527478 -6.140472 2.906068 8342706
6.102068 -5.648230 2.485564 8342706
5.680586 -5.886653 4.062772 8342706
5.871513 -5.444642 3.049564 8342706
6.501573 -5.820976 0.110066 8342706
6.035929 -5.443186 0.410515 8342706
6.398172 -5.737000 0.066860 8342706
6.046535 -5.752859 0.505755 8342706
5.648187 -5.717594 3.085561 8342706
6.340982 -6.229370 1.526651 8342706
6.120424 -5.792476 2.503243 8342706
5.773629 -6.155310 1.610055 8342706
6.000509 -6.209249 0.115117 8342706
5.849336 -6.046703 3.738603 8342706
5.727309 -6.163053 3.388108 8342706
6.290473 -6.259794 4.593688 8342706
6.334740 -6.457356 3.364202 8342706
6.006864 -6.554275 4.173135 8342706
6.008051 -5.677891 4.215908 8342706
5.719662 -5.625568 4.235008 8342706
6.184354 -5.880890 1.890570 8342706
5.490942 -6.226697 4.647808 8342706
5.903383 -6.333936 4.692824 8342706
6.044681 -6.427010 1.311422 8342706
6.116672 -5.619061 2.029414 8342706
5.948837 -6.197576 1.693454 8342706
6.011502 -6.024418 4.523017 8342706
6.093846 -5.631070 1.131355 8342706
6.127408 -6.299180 1.579261 8342706
5.738648 -5.756399 0.120200 8342706
6.342506 -6.153428 3.032640 8342706
6.101634 -5.581648 2.652249 8342706
6.275851 -5.845458 1.011952 8342706
5.609622 -6.082964 1.905262 8342706
5.730394 -5.665840 2.243332 8342706
5.800880 -5.640995 2.596514 8342706
5.511326 -5.938946 3.581357 8342706
6.012277 -5.841030 1.892360 8342706
5.704169 -5.862651 1.472428 8342706
5.719316 -6.257824 2.817297 8342706
6.012782 -6.298992 4.894587 8342706
5.976284 -6.457787 4.815969 8342706
6.074794 -5.592622 3.834404 8342706
5.621432 -5.585998 2.017803 8342706
6.558472 -6.044485 4.261557 8342706
5.665208 -5.582480 1.946794 8342706
6.090987 -6.460867 1.686226 8342706
5.588593 -6.236010 1.868418 8342706
6.337883 -5.887597 3.505061 8342706
6.481443 -5.824950 3.824043 8342706
6.445240 -6.097154 3.883714 8342706
6.134739 -5.856576 3.342268 8342706
6.136611 -6.380416 1.016504 8342706
5.664690 -6.141675 3.345311 8342706
6.508038 -6.319050 0.141349 8342706
6.407854 -6.089017 4.922788 8342706
5.452340 -5.910099 3.804482 8342706
6.486864 -6.033257 0.233015 8342706
6.240774 -5.660644 3.713576 8342706
6.102447 -6.014124 2.471478 8342706
6.252001 -5.999007 0.693796 8342706
6.437351 -5.960056 2.413712 8342706
6.080657 -6.516142 2.778040 8342706
6.398382 -6.091062 1.396921 8342706
6.198574 -5.639814 1.104871 8342706
6.257529 -5.582294 4.316898 8342706
6.157723 -6.449898 0.756636 8342706
5.649476 -6.060833 3.180143 8342706
6.534201 -5.798786 1.106850 8342706
6.161456 -5.785585 2.616170 8342706
6.005893 -6.080416 2.519261 8342706
6.362318 -5.683449 1.815483 8342706
5.976538 -6.103473 3.837133 8342706
6.492168 -6.000838 1.597498 8342706
5.506005 -6.275093 0.751397 8342706
5.820898 -6.370839 4.985051 8342706
6.472320 -5.768776 3.982544 8342706
6.233004 -6.010620 0.111967 8342706
6.269086 -5.832200 3.585271 8342706
6.480766 -6.068677 4.571302 8342706
5.905256 -6.055212 3.131669 8342706
6.403093 -6.258827 1.783248 8342706
6.042333 -5.430412 1.974203 8342706
5.419615 -5.956057 4.253776 8342706
6.099992 -6.065363 2.967660 8342706
6.254654 -5.930131 3.246695 8342706
5.641562 -6.207393 3.367089 8342706
6.129466 -6.356309 4.409823 8342706
6.090012 -5.533202 4.119041 8342706
5.944397 -5.855203 2.943029 8342706
5.422709 -6.095399 2.060724 8342706
6.303722 -6.423818 4.886620 8342706
5.623823 -6.398300 2.907164 8342706
6.316001 -6.343837 2.365957 8342706
6.428282 -5.806660 1.058799 8342706
6.448974 -5.857464 2.287179 8342706
5.988050 -5.523440 2.041917 8342706
6.219453 -5.735809 0.458708 8342706
5.898656 -6.265760 1.566426 8342706
6.385292 -5.759732 2.454165 8342706
6.388371 -5.535936 4.069688 8342706
6.478873 -6.153722 1.478765 8342706
6.164468 -5.794178 3.236574 8342706
5.706472 -6.379668 3.098923 8342706
6.294909 -5.558685 4.472399 8342706
6.022396 -5.884015 0.778369 8342706
5.594547 -6.365271 4.414370 8342706
5.601157 -5.733849 4.260964 8342706
6.191198 -5.827273 1.366391 8342706
5.746201 -5.784516 1.072129 8342706
5.865622 -6.096808 0.627586 8342706
6.183026 -5.464741 1.184192 8342706
6.287931 -5.534501 1.153049 8342706
5.648208 -6.266611 4.274570 8342706
5.922557 -6.062619 4.913044 8342706
6.205641 -5.583827 3.750972 8342706
5.665512 -6.032635 4.276157 8342706
6.095932 -6.571728 4.287324 8342706
5.692822 -5.716344 3.980024 8342706
5.555333 -6.097691 3.766494 8342706
6.208790 -6.421591 1.026934 8342706
6.551262 -5.964979 0.503186 8342706
5.985260 -5.532339 2.911031 8342706
6.192029 -6.395394 1.654205 8342706
5.507433 -6.230596 3.917730 8342706
5.601285 -6.448121 2.811517 8342706
5.815335 -5.510395 2.262436 8342706
6.526784 -6.218583 2.083924 8342706
6.068318 -6.361682 0.525993 8342706
5.434576 -5.850364 2.602185 8342706
5.835832 -5.666900 2.550053 8342706
6.277740 -6.072979 0.219800 8342706
6.045880 -5.590898 4.361275 8342706
6.512707 -6.290126 4.426602 8342706
5.819597 -6.398526 4.413348 8342706
5.439020 -5.767253 4.336227 8342706
5.933782 -5.496968 1.506617 8342706
6.536703 -6.197436 4.015333 8342706
6.382671 -6.170907 1.413767 8342706
5.816213 -6.174126 3.757471 8342706
6.113671 -6.324427 1.919171 8342706
5.552189 -5.642805 3.371653 8342706
5.800442 -6.456001 3.548222 8342706
5.496284 -5.687469 3.926320 8342706
6.173954 -5.557107 0.034329 8342706
6.359315 -5.959326 2.640194 8342706
6.374761 -6.085620 1.744773 8342706
5.781427 -5.785390 3.226126 8342706
6.016889 -5.830550 3.169297 8342706
6.306103 -6.067464 2.033058 8342706
6.358085 -5.809321 2.193002 8342706
6.076847 -5.800124 0.095152 8342706
5.816294 -6.074074 0.105928 8342706
6.219053 -6.440681 0.882821 8342706
6.346186 -6.486498 0.739508 8342706
6.134806 -6.370038 4.243186 8342706
5.854304 -6.540631 1.816936 8342706
5.630762 -5.918647 0.971481 8342706
5.771538 -5.675598 2.697667 8342706
6.205735 -5.750081 0.407655 8342706
6.077368 -5.427582 2.074311 8342706
6.014029 -6.498100 1.058931 8342706
6.237778 -5.570136 1.288064 8342706
6.451424 -5.666583 3.618189 8342706
6.494065 -6.259947 0.304891 8342706
5.792238 -5.932098 4.024968 8342706
6.180253 -6.105568 1.733105 8342706
6.106412 -6.237718 3.220009 8342706
5.606874 -6.248921 3.705933 8342706
6.528488 -6.154479 1.842094 8342706
6.260158 -6.231590 1.696157 8342706
5.562183 -5.801274 2.474090 8342706
6.379203 -6.413151 2.036522 8342706
6.112006 -6.211722 3.587449 8342706
6.139306 -6.580112 4.292198 8342706
6.448244 -6.372248 3.669933 8342706
6.105210 -5.536149 2.017133 8342706
6.107045 -5.482859 0.921110 8342706
6.126748 -6.435923 1.169089 8342706
5.677410 -6.061383 0.136821 8342706
5.852556 -5.613066 2.628600 8342706
5.794013 -6.401339 2.629885 8342706
6.091368 -5.474304 3.484745 8342706
5.758627 -6.275188 3.376466 8342706
6.311977 -6.335317 1.087191 8342706
5.829106 -6.529210 4.758478 8342706
6.254445 -5.681643 4.901526 8342706
6.022986 -6.486190 1.867642 8342706
5.705357 -5.777385 0.299581 8342706
6.312313 -5.531651 4.300526 8342706
5.596863 -5.835553 4.360840 8342706
6.241602 -5.578887 0.492233 8342706
6.273545 -6.367031 4.014682 8342706
6.176538 -6.553274 0.560100 8342706
6.194462 -5.869109 1.040800 8342706
6.456468 -6.141596 2.794974 8342706
6.060968 -6.393844 3.732260 8342706
6.004925 -5.557561 2.037833 8342706
6.452992 -6.198737 3.305691 8342706
6.112037 -5.436170 0.235925 8342706
5.494842 -5.716261 4.408917 8342706
6.182805 -6.334718 1.673303 8342706
6.410833 -5.608217 1.852214 8342706
5.884180 -6.099725 0.925223 8342706
6.363482 -5.614025 3.708079 8342706
5.639318 -6.127869 3.751647 8342706
6.522860 -5.907986 1.162919 8342706
5.729460 -5.997873 2.437170 8342706
6.257164 -6.336691 2.952708 8342706
5.705396 -6.395675 4.089163 8342706
6.067749 -6.277446 3.906219 8342706
6.397253 -5.553407 4.928635 8342706
6.524590 -6.272356 4.677841 8342706
6.021024 -5.935565 3.881432 8342706
6.171861 -6.385417 4.369486 8342706
5.738140 -6.209042 1.992413 8342706
6.452137 -5.912492 2.119945 8342706
6.446165 -5.967671 2.221014 8342706
5.868542 -5.440938 1.057129 8342706
6.473114 -5.793076 0.277969 8342706
5.842278 -5.459904 1.381635 8342706
6.228251 -5.688083 4.838093 8342706
5.972792 -5.632039 1.222485 8342706
6.495319 -5.804727 2.241949 8342706
5.792896 -6.230996 3.685061 8342706
6.263459 -6.199332 1.518087 8342706
5.964996 -6.408823 3.981073 8342706
5.997603 -5.815117 2.292138 8342706
6.153002 -6.042978 4.116630 8342706
6.152951 -6.414976 4.359413 8342706
6.299121 -5.602531 4.741361 8342706
6.339652 -5.823187 3.613234 8342706
5.999556 -5.778890 3.166876 8342706
6.536060 -5.878222 3.055443 8342706
6.283441 -5.861173 2.852462 8342706
6.299469 -6.320735 2.005882 8342706
5.740790 -5.714472 3.628661 8342706
5.698400 -5.716907 3.039277 8342706
6.280489 -5.963608 1.447534 8342706
6.384754 -6.213806 1.085547 8342706
5.815636 -5.587643 2.984719 8342706
5.506726 -5.895473 0.109321 8342706
5.647097 -5.670392 0.445818 8342706
5.618839 -5.565630 2.868320 8342706
5.993552 -5.514959 2.130389 8342706
5.515310 -6.119470 1.894530 8342706
6.115121 -5.480124 3.482577 8342706
5.453876 -5.904205 4.595481 8342706
5.459952 -5.808038 2.933024 8342706
6.181484 -6.308525 1.839085 8342706
5.552089 -6.388825 0.836492 8342706
5.896903 -6.524812 1.626319 8342706
6.080421 -6.314923 3.442203 8342706
5.957454 -6.476832 4.608406 8342706
6.359705 -6.169546 0.802758 8342706
6.504827 -6.314735 1.443874 8342706
6.531426 -5.915821 3.399667 8342706
5.579339 -6.091224 1.110647 8342706
6.278824 -6.293238 1.949244 8342706
6.182086 -6.290405 2.964401 8342706
6.064610 -6.509018 4.969001 8342706
5.961343 -6.454769 0.620741 8342706
6.287321 -5.769044 1.743607 8342706
6.401116 -5.933308 1.325716 8342706
6.246341 -6.386202 0.486935 8342706
6.278991 -6.115107 2.916882 8342706
6.463196 -6.134738 0.084284 8342706
6.081955 -5.675813 1.236539 8342706
6.488601 -6.262198 4.298359 8342706
6.442189 -5.645349 4.818452 8342706
6.497612 -6.168016 3.630238 8342706
6.303177 -6.320628 1.587703 8342706
5.741445 -6.281360 0.422617 8342706
6.167031 -5.594553 2.712342 8342706
6.240028 -6.037873 3.850814 8342706
6.309821 -5.839497 0.375954 8342706
6.194996 -5.865045 3.945159 8342706
5.788935 -6.407752 3.285579 8342706
6.400574 -6.211042 0.003918 8342706
6.343331 -5.758430 1.367152 8342706
6.284756 -6.016387 4.214479 8342706
6.364220 -6.080305 2.020049 8342706
5.778440 -5.560306 4.398884 8342706
5.829690 -6.039167 0.855734 8342706
6.028049 -5.750058 4.181149 8342706
5.520305 -5.719956 3.992057 8342706
6.463071 -6.135281 1.751557 8342706
6.294319 -6.450662 1.716567 8342706
6.276276 -6.200581 4.645711 8342706
5.532090 -6.343053 1.222636 8342706
6.011146 -6.234512 3.471653 8342706
6.230522 -5.561319 3.769240 8342706
6.051332 -6.588985 3.669664 8342706
5.931535 -6.015020 1.741758 8342706
5.801199 -5.651567 2.740884 8342706
6.174514 -6.333319 0.918419 8342706
6.163476 -5.979341 3.900896 8342706
6.112571 -6.291543 1.986821 8342706
5.774524 -6.145083 1.044952 8342706
6.604885 -6.005025 1.736134 8342706
5.743947 -6.114738 4.311854 8342706
6.468210 -5.768147 1.009171 8342706
5.576617 -5.861197 0.785937 8342706
6.325215 -6.014505 5.001900 8342706
6.177204 -6.560167 4.114999 8342706
6.099451 -6.416544 4.713121 8342706
5.995636 -5.809251 1.397949 8342706
6.507401 -6.162755 4.992987 8342706
6.143270 -6.078771 1.651201 8342706
5.835290 -5.969671 2.068442 8342706
5.733487 -5.960416 3.036333 8342706
6.500370 -6.261313 4.096686 8342706
5.458500 -5.885526 3.592972 8342706
6.179399 -6.096456 0.991343 8342706
5.878788 -6.253981 1.903914 8342706
5.960790 -5.662673 2.396957 8342706
6.322049 -6.260761 0.079609 8342706
5.801146 -5.565662 4.544163 8342706
5.985319 -5.471998 4.061519 8342706
5.778224 -5.439242 3.570958 8342706
6.390453 -6.358246 1.556092 8342706
5.505409 -6.021712 4.723301 8342706
6.047155 -6.545628 0.110000 8342706
6.533988 -5.946466 1.493574 8342706
6.355971 -5.550475 3.365665 8342706
5.798671 -5.879355 0.841850 8342706
6.012083 -6.000408 0.890536 8342706
5.621764 -5.921340 2.221262 8342706
5.720151 -5.624602 2.280410 8342706
5.793767 -6.120883 3.511497 8342706
6.324228 -5.519352 1.131563 8342706
5.639643 -5.781033 4.814859 8342706
5.873442 -5.798082 0.091609 8342706
5.638649 -6.463439 2.446870 8342706
5.884523 -6.479239 3.655586 8342706
6.040005 -6.605475 0.580237 8342706
6.068588 -5.719572 1.732571 8342706
6.087587 -5.917540 1.784433 8342706
6.163496 -5.762816 4.179165 8342706
5.489477 -6.272690 4.964219 8342706
6.559050 -5.824478 2.148392 8342706
6.223644 -6.434235 3.907488 8342706
6.249354 -5.713132 2.544946 8342706
6.224605 -6.375574 2.406879 8342706
6.084449 -5.659634 4.496916 8342706
5.633968 -6.309951 3.481175 8342706
5.999557 -6.442069 2.719508 8342706
6.592996 -6.090414 0.448292 8342706
5.700881 -5.650380 4.809405 8342706
6.298182 -5.779524 0.297744 8342706
5.947802 -5.724027 4.695146 8342706
6.071850 -5.547112 2.441579 8342706
6.349391 -5.931510 1.861706 8342706
5.855852 -6.323811 3.425764 8342706
6.114069 -5.694906 4.234356 8342706
6.448959 -5.824879 0.455162 8342706
6.382548 -5.781840 4.620280 8342706
6.258916 -6.060637 2.765980 8342706
6.318536 -6.247721 0.708307 8342706
5.450592 -6.012876 2.401754 8342706
5.690876 -5.947805 4.300870 8342706
6.281707 -5.900275 4.799748 8342706
6.307695 -5.565452 1.374121 8342706
5.818347 -6.250648 4.049424 8342706
6.453860 -5.684034 4.587772 8342706
5.866796 -5.494770 4.368455 8342706
5.667340 -5.846800 0.488966 8342706
6.428859 -5.816702 3.485784 8342706
6.362023 -5.754470 0.656569 8342706
5.690165 -6.108943 0.741563 8342706
