# .PCD v0.7 - Point Cloud Data file format
VERSION 0.7
FIELDS x y z rgb
SIZE 4 4 4 4
TYPE F F F U
COUNT 1 1 1 1
WIDTH 1307
HEIGHT 1
VIEWPOINT 0 0 0 1 0 0 0
POINTS 1307
DATA ascii
-0.802940 11.128604 1.551368 15014169
-1.289769 11.141521 0.594182 15014169
-1.080313 10.819781 0.906358 15014169
-0.904621 10.869001 1.158018 15014169
-1.162423 11.282153 1.222276 15014169
-1.016415 10.897554 1.036610 15014169
-1.435679 10.714444 1.582492 15014169
-1.427722 11.286530 1.312060 15014169
-1.035766 11.180156 0.484325 15014169
-0.921665 11.159917 1.068037 15014169
-1.129074 10.970913 0.929934 15014169
-0.899381 10.844833 0.388934 15014169
-0.807460 10.974557 1.340164 15014169
-0.981791 11.026153 0.484803 15014169
-1.289094 10.947223 1.083418 15014169
-0.923795 10.881249 0.848356 15014169
-0.849308 11.221889 0.442265 15014169
-1.375636 11.098436 1.110660 15014169
-0.775898 11.160544 1.422798 15014169
-1.310905 11.016400 1.192736 15014169
-1.462404 11.020514 0.933104 15014169
-1.224013 10.839829 1.583196 15014169
-1.439047 10.864320 0.705911 15014169
-0.806331 10.654109 0.948585 15014169
-1.250681 11.132506 1.282044 15014169
-0.986542 11.259378 1.619909 15014169
-1.423616 10.729307 0.351595 15014169
-0.824328 11.335047 0.841714 15014169
-1.439814 10.747092 1.527826 15014169
-1.150220 10.786850 1.193069 15014169
-0.923766 10.988901 0.370600 15014169
-1.203297 11.244239 0.439143 15014169
-1.384539 11.193087 0.506219 15014169
-1.378874 10.813950 0.709135 15014169
-1.229019 11.207191 0.649732 15014169
-1.396953 10.725080 0.795646 15014169
-1.308716 11.204716 1.158474 15014169
-1.261656 11.362961 0.880558 15014169
-0.862882 10.841484 0.724703 15014169
-0.768057 10.703752 1.529511 15014169
-0.799069 10.889752 1.576256 15014169
-0.829303 11.328477 0.467884 15014169
-1.049902 11.185661 1.317159 15014169
-0.904578 10.671000 1.630691 15014169
-1.346370 10.689932 1.684444 15014169
-1.327661 11.224321 0.304862 15014169
-1.453814 10.686415 1.191409 15014169
-1.297902 10.936335 1.646760 15014169
-1.318431 10.796416 0.969616 15014169
-1.296731 11.009436 0.935082 15014169
-1.252584 10.659588 1.351596 15014169
-0.847161 10.882576 0.968685 15014169
-1.409714 11.156209 0.625991 15014169
-1.378068 10.757607 0.584076 15014169
-0.972935 10.944949 1.265949 15014169
-1.375674 10.789759 1.460800 15014169
-1.467861 10.794297 1.480239 15014169
-0.990443 10.837343 1.428138 15014169
-1.368302 11.004589 1.147747 15014169
-0.781539 11.125166 0.794543 15014169
-1.113160 10.821266 1.690047 15014169
-1.172919 10.709757 1.675986 15014169
-0.861415 11.039412 0.354677 15014169
-0.907451 11.262752 1.193655 15014169
-1.278631 11.292514 0.327366 15014169
-1.255075 10.897058 1.491683 15014169
-1.486151 11.097812 1.085837 15014169
-1.231374 10.709374 0.515429 15014169
-1.008076 10.673177 0.379820 15014169
-1.153450 11.008947 0.321037 15014169
-1.091739 10.742031 0.467659 15014169
-0.987318 10.864487 1.381071 15014169
3.290959 -8.174679 0.478918 1645029
3.305968 -7.871002 1.215551 1645029
2.782079 -8.394860 1.046276 1645029
2.989518 -8.168094 1.012757 1645029
3.088987 -8.077698 1.176724 1645029
3.015045 -8.102496 1.479144 1645029
3.025281 -8.062861 0.619370 1645029
2.909635 -7.935390 1.279712 1645029
3.154687 -8.108033 0.945799 1645029
3.107872 -8.533528 0.615943 1645029
3.630822 -8.283715 1.075903 1645029
3.399933 -8.555826 1.269088 1645029
2.921318 -8.280824 0.622555 1645029
3.573894 -8.425786 1.223794 1645029
2.970928 -8.272497 0.836836 1645029
2.757546 -7.985751 1.138237 1645029
2.695731 -8.506798 0.949402 1645029
3.309505 -7.898997 1.167669 1645029
3.379910 -8.055098 1.277965 1645029
3.119190 -8.344426 0.920859 1645029
3.336517 -8.452322 1.173646 1645029
2.932479 -8.461319 1.314219 1645029
3.283331 -7.970823 1.272090 1645029
3.137830 -8.597400 0.682044 1645029
3.209733 -8.698790 0.781946 1645029
2.995637 -8.015583 1.133918 1645029
3.217586 -8.523625 0.844919 1645029
3.040928 -8.244898 0.923183 1645029
3.462781 -8.212129 1.052086 1645029
3.403183 -8.363571 1.118116 1645029
2.922473 -8.423736 0.848409 1645029
2.783816 -8.206457 0.641602 1645029
2.943628 -8.203430 1.327337 1645029
2.961609 -8.242139 0.905226 1645029
3.504595 -8.539704 0.963755 1645029
3.104859 -8.223214 1.073884 1645029
3.198801 -7.847850 1.054500 1645029
2.644938 -8.548826 1.071952 1645029
3.167004 -8.193022 1.153022 1645029
2.898190 -8.577368 1.071240 1645029
2.954588 -8.404918 0.508075 1645029
2.724881 -8.292731 0.882423 1645029
3.349774 -8.431574 1.143828 1645029
3.147732 -8.339253 1.203526 1645029
2.980189 -8.135343 0.675623 1645029
3.265157 -8.144094 0.698216 1645029
3.260313 -7.883192 0.993915 1645029
3.225295 -8.243464 0.898650 1645029
3.030052 -8.281648 0.673655 1645029
3.424650 -8.551980 0.813588 1645029
3.032439 -8.709115 0.964774 1645029
3.519047 -8.334268 0.983476 1645029
3.038358 -8.439401 0.856353 1645029
2.985918 -8.573682 1.356055 1645029
3.063130 -8.144249 0.502004 1645029
3.555160 -8.295520 1.277526 1645029
2.805795 -7.973905 0.737545 1645029
2.814922 -8.067327 0.668598 1645029
3.235108 -8.725365 0.917133 1645029
2.859000 -8.426491 0.888242 1645029
3.156301 -8.691029 0.936951 1645029
3.261920 -8.357480 0.978515 1645029
2.830422 -8.404625 1.011860 1645029
3.002903 -8.006200 0.911334 1645029
2.996519 -7.791509 0.962751 1645029
2.888314 -8.335384 1.395626 1645029
3.016906 -8.390789 1.167721 1645029
3.251312 -8.107907 1.271681 1645029
3.460939 -8.149660 1.146509 1645029
3.578024 -8.199575 1.007512 1645029
2.810546 -8.622559 1.239618 1645029
3.367853 -7.943552 1.040964 1645029
3.505089 -8.271860 1.020079 1645029
2.871319 -8.047658 0.579502 1645029
3.025698 -7.963044 1.245468 1645029
3.129644 -7.857861 1.063306 1645029
3.310016 -8.073954 0.849946 1645029
3.142754 -8.092492 0.542963 1645029
3.429973 -8.261058 1.022495 1645029
3.456116 -8.037140 1.209199 1645029
6.604711 -7.152722 0.621436 1690649
6.358634 -7.593797 0.765742 1690649
6.552844 -7.542763 0.714174 1690649
5.991436 -7.619237 1.312873 1690649
6.651066 -7.432669 0.489073 1690649
6.371065 -7.363358 0.605224 1690649
6.592266 -7.448873 1.010358 1690649
6.338672 -7.527475 1.083150 1690649
6.826155 -7.551811 1.316274 1690649
6.169816 -7.485827 0.940578 1690649
6.830115 -7.382674 0.532906 1690649
6.477859 -7.601812 1.759508 1690649
6.395979 -7.858388 0.183734 1690649
6.112314 -7.271962 1.083692 1690649
6.497389 -7.159534 1.039658 1690649
6.629426 -7.805567 1.159886 1690649
6.813149 -7.592420 1.033157 1690649
6.252514 -7.635686 0.547951 1690649
6.565194 -7.354137 1.401132 1690649
6.501908 -7.534087 1.146410 1690649
6.506647 -7.088643 1.741700 1690649
6.492453 -7.876474 1.165526 1690649
6.009579 -7.638368 0.869205 1690649
5.988107 -7.638589 0.887437 1690649
6.146155 -7.100121 1.539078 1690649
6.580244 -7.584443 1.849700 1690649
6.087635 -7.585840 1.421855 1690649
6.595143 -7.156892 1.832916 1690649
6.408040 -7.774067 0.627660 1690649
6.647464 -7.232342 1.229082 1690649
6.242332 -7.137852 1.405627 1690649
6.262928 -7.339909 1.612704 1690649
6.780550 -7.665454 0.967414 1690649
6.201937 -7.382552 0.749156 1690649
6.423872 -7.591734 1.054865 1690649
6.685848 -7.116922 1.103417 1690649
6.005894 -7.437930 0.543172 1690649
6.470830 -7.268105 0.615500 1690649
6.126607 -7.602669 1.267818 1690649
6.439321 -7.213991 1.859588 1690649
6.566717 -7.314649 1.082648 1690649
6.250405 -7.778693 0.342456 1690649
6.574845 -7.287229 1.903279 1690649
6.401385 -7.759778 1.013448 1690649
6.129347 -7.152228 1.904179 1690649
6.617914 -7.662829 1.134738 1690649
6.438189 -7.789711 1.442158 1690649
6.368697 -7.293600 0.991015 1690649
6.230767 -7.053909 1.043912 1690649
6.381668 -7.123373 1.370659 1690649
6.217394 -7.304085 1.229707 1690649
6.568734 -7.067512 0.421241 1690649
6.770378 -7.360047 1.511514 1690649
6.195478 -7.260069 1.027221 1690649
6.009855 -7.644280 1.834502 1690649
6.347708 -7.791154 1.700691 1690649
6.233586 -7.553967 0.802687 1690649
6.215986 -7.324559 0.568180 1690649
6.756957 -7.711657 0.914188 1690649
6.393782 -7.501541 1.466884 1690649
6.057561 -7.475294 0.925539 1690649
6.555168 -7.435960 0.125354 1690649
6.181738 -7.337495 0.174691 1690649
6.434566 -7.847569 0.164496 1690649
6.379981 -7.198673 0.964160 1690649
6.504206 -7.670247 1.761731 1690649
6.234013 -7.729902 1.667509 1690649
6.461878 -7.883832 1.772443 1690649
6.206740 -7.296489 0.229287 1690649
6.103392 -7.600203 0.348461 1690649
6.225880 -7.356275 1.335436 1690649
6.535877 -7.608181 0.657751 1690649
6.213672 -7.679402 1.627838 1690649
6.786543 -7.529432 1.148322 1690649
6.538349 -7.495113 0.107007 1690649
6.365724 -7.086441 1.211056 1690649
6.448083 -7.293970 0.231450 1690649
6.395187 -7.810976 1.122533 1690649
6.699389 -7.497662 0.709427 1690649
6.583778 -7.177034 1.188278 1690649
6.336140 -7.037361 0.222924 1690649
6.391350 -7.666068 0.462405 1690649
6.470827 -7.288395 0.916532 1690649
6.269664 -7.409563 1.780952 1690649
6.049412 -7.359932 0.670359 1690649
6.519932 -7.799486 0.192218 1690649
6.380272 -7.833817 1.446612 1690649
6.224804 -7.739267 0.146828 1690649
6.620848 -7.283092 1.499417 1690649
6.713847 -7.647933 1.283832 1690649
6.429295 -7.182052 1.685927 1690649
6.353459 -7.121341 1.108841 1690649
6.607641 -7.162595 0.741696 1690649
6.175926 -7.564885 0.171060 1690649
6.195101 -7.128150 1.279223 1690649
6.704155 -7.740050 0.583167 1690649
6.191877 -7.326233 1.665285 1690649
6.323621 -7.419263 1.896632 1690649
6.683321 -7.293158 0.486499 1690649
6.262845 -7.674911 1.626055 1690649
6.057127 -7.669641 0.964351 1690649
6.283314 -7.154396 1.717379 1690649
6.253023 -7.689686 1.475514 1690649
6.102247 -7.221429 0.620011 1690649
6.184535 -7.252924 0.150183 1690649
6.083006 -7.779530 1.128808 1690649
6.190434 -7.233946 0.638769 1690649
6.219746 -7.220880 1.052624 1690649
6.047912 -7.653534 0.754737 1690649
6.189804 -7.586234 1.284307 1690649
6.725213 -7.737929 0.124497 1690649
6.438488 -7.042769 1.881312 1690649
6.804965 -7.379199 0.966038 1690649
6.604710 -7.825819 1.825293 1690649
6.761723 -7.365210 1.468958 1690649
6.541987 -7.734328 1.054605 1690649
6.654582 -7.267756 1.367884 1690649
6.438114 -7.798992 1.142662 1690649
6.358668 -7.132511 0.768112 1690649
6.464565 -7.843210 0.158266 1690649
6.027789 -7.512372 0.978728 1690649
6.113877 -7.222067 0.293714 1690649
6.700528 -7.337191 1.324696 1690649
6.632219 -7.751568 0.097358 1690649
6.162623 -7.460778 1.063090 1690649
6.449794 -7.660278 0.249003 1690649
6.039624 -7.492085 0.951860 1690649
6.419020 -7.756230 0.466036 1690649
6.768379 -7.279707 0.690264 1690649
6.099190 -7.375216 1.853683 1690649
6.277591 -7.340749 0.226585 1690649
6.524988 -7.484747 0.454683 1690649
6.718035 -7.765409 0.907704 1690649
5.977185 -7.281284 1.413514 1690649
6.143933 -7.377290 1.540051 1690649
6.225604 -7.472005 0.322448 1690649
6.582553 -7.738454 1.449551 1690649
6.345057 -7.510821 0.509475 1690649
6.630556 -7.614069 1.354652 1690649
6.553908 -7.252032 0.189693 1690649
6.025476 -7.483047 0.658639 1690649
6.816483 -7.590909 0.763870 1690649
6.703613 -7.329465 1.299989 1690649
6.282774 -7.380578 0.910131 1690649
6.111706 -7.460109 0.639107 1690649
6.818909 -7.303051 1.190163 1690649
6.472096 -7.603992 1.289449 1690649
6.242610 -7.369177 1.658908 1690649
6.425153 -7.062469 1.222150 1690649
6.816453 -7.432718 1.279259 1690649
6.618906 -7.653222 0.519685 1690649
6.174657 -7.452277 1.009599 1690649
6.490895 -7.459483 1.222198 1690649
6.562874 -7.562192 0.708383 1690649
-4.371246 7.162131 0.452827 10053171
-5.970188 7.103791 0.424663 10053171
-4.440331 6.962555 2.368726 10053171
-5.169361 7.147184 2.887393 10053171
-3.836449 6.983470 0.293519 10053171
-6.705404 6.761281 2.488090 10053171
-4.097538 7.138340 2.560289 10053171
-3.172434 6.956048 1.359078 10053171
-4.397200 6.980870 0.524344 10053171
-3.508001 7.200337 2.550016 10053171
-3.669010 7.170534 2.497193 10053171
-3.268685 6.941300 0.847379 10053171
-3.997490 7.069372 0.153983 10053171
-4.969803 6.816759 1.156632 10053171
-6.836711 6.971771 0.177652 10053171
-4.610332 7.112292 2.187939 10053171
-6.424266 6.975921 1.220044 10053171
-4.664307 6.918635 0.440338 10053171
-6.904454 6.775029 2.810560 10053171
-6.286904 7.225357 2.881815 10053171
-6.068883 7.062223 0.764732 10053171
-6.146532 6.785254 2.796417 10053171
-3.717161 6.865673 2.222659 10053171
-4.836784 7.047219 2.519435 10053171
-6.593728 7.005199 2.655205 10053171
-6.059296 7.147171 1.107098 10053171
-3.392415 7.158740 1.425075 10053171
-4.594484 6.952100 1.360271 10053171
-5.999337 7.215591 2.397348 10053171
-6.654181 7.013281 2.954652 10053171
-6.876571 7.063106 1.108988 10053171
-5.974080 6.771156 0.144317 10053171
-6.118451 7.018413 1.960326 10053171
-3.862437 6.985826 0.588078 10053171
-4.704265 7.149057 0.108792 10053171
-5.847515 7.175628 2.081486 10053171
-4.839805 6.953189 1.405724 10053171
-5.498495 7.234928 2.755830 10053171
-5.075561 6.772449 1.313611 10053171
-6.156207 6.974508 2.543163 10053171
-4.455485 6.927212 2.119507 10053171
-4.102664 7.107646 1.105228 10053171
-3.870220 6.754830 0.892069 10053171
-4.727653 6.931886 2.228487 10053171
-5.548535 6.959715 0.638322 10053171
-3.812461 7.059820 1.162234 10053171
-3.494887 7.069216 2.135067 10053171
-4.286955 7.192606 0.689740 10053171
-4.137878 7.251505 2.575749 10053171
-5.308462 6.960458 1.621879 10053171
-6.748894 7.069487 2.607931 10053171
-5.653563 6.967330 1.217043 10053171
-5.771806 6.854375 2.790335 10053171
-3.523440 6.872392 2.698560 10053171
-3.083270 6.895358 0.632636 10053171
-5.056773 7.039927 2.177962 10053171
-3.516379 7.046845 0.812229 10053171
-5.447307 7.039610 1.620789 10053171
-3.340896 7.079963 2.186146 10053171
-6.462592 7.174614 0.016176 10053171
-6.358584 6.740848 2.594145 10053171
-4.410977 6.950603 2.928135 10053171
-6.322141 6.937506 0.870224 10053171
-3.749269 7.171884 1.031942 10053171
-3.545215 7.060483 2.669454 10053171
-4.186500 6.917093 2.146067 10053171
-6.351434 6.829602 1.064719 10053171
-3.769752 7.036066 1.931666 10053171
-3.880267 7.056798 1.230925 10053171
-5.449025 7.208934 0.694836 10053171
-5.936076 6.946352 2.525273 10053171
-3.291209 6.930410 1.491106 10053171
-6.808416 6.757610 2.292907 10053171
-3.697300 6.970793 1.000788 10053171
-6.515113 7.209282 1.577484 10053171
-5.302358 6.977774 0.865151 10053171
-6.490375 6.882446 0.450598 10053171
-4.530149 7.081503 2.251296 10053171
-6.732309 7.182004 1.141875 10053171
-4.030454 6.888124 0.248261 10053171
-5.785789 7.223490 0.706959 10053171
-6.971570 7.084937 2.892334 10053171
-3.138213 7.072909 2.162844 10053171
-4.140804 7.093369 0.020226 10053171
-4.464465 7.159467 1.357699 10053171
-6.585451 7.204145 0.407731 10053171
-5.849317 6.867263 0.158684 10053171
-3.273920 6.887657 0.169186 10053171
-6.528273 6.913103 1.335138 10053171
-5.967746 6.851922 0.008512 10053171
-5.445691 7.045849 1.759297 10053171
-6.381075 7.009577 2.960921 10053171
-6.077975 6.835231 2.921879 10053171
-4.251782 7.209483 1.420298 10053171
-4.276525 7.111458 2.188725 10053171
-3.913606 7.188631 2.399107 10053171
-5.681754 7.216640 0.400584 10053171
-5.360207 6.922180 0.454335 10053171
-3.332116 6.967845 0.979694 10053171
-6.853372 6.965749 0.219548 10053171
-4.490174 6.802212 1.758720 10053171
-6.230844 7.225963 1.525480 10053171
-3.851235 7.188077 0.866735 10053171
-3.795316 6.963136 2.078423 10053171
-4.816830 7.138787 1.255766 10053171
-5.631362 7.249177 1.571803 10053171
-4.218813 6.958464 0.411910 10053171
-5.529074 7.217249 0.320700 10053171
-3.276623 7.081332 0.144282 10053171
-5.127837 6.795401 1.808405 10053171
-5.610653 7.048626 2.626680 10053171
-5.463212 6.885419 2.379357 10053171
-4.452010 6.936684 0.679296 10053171
-4.771470 6.921257 2.321827 10053171
-6.479363 6.942617 1.173994 10053171
-5.745628 6.783475 1.371135 10053171
-4.565645 6.918582 1.771616 10053171
-4.042467 7.062822 2.547871 10053171
-3.324343 7.062201 0.177024 10053171
-4.641746 6.756270 1.416088 10053171
-3.816773 7.208683 0.836388 10053171
-5.165641 6.852335 0.226874 10053171
-6.428846 6.772149 0.296418 10053171
-5.588230 7.002481 0.834994 10053171
-3.137664 7.174963 1.551159 10053171
-5.364985 7.088891 2.729541 10053171
-5.318550 6.936355 2.679701 10053171
-4.385105 6.906174 0.773961 10053171
-6.963776 7.112194 2.665923 10053171
-4.272760 7.052333 2.901189 10053171
-4.860611 6.962019 0.241255 10053171
-6.487520 6.902051 2.241772 10053171
-5.338196 6.886600 1.734686 10053171
-5.255378 7.051363 1.639205 10053171
-4.645861 6.845759 0.834014 10053171
-3.277975 6.845629 0.434199 10053171
-4.005219 6.965652 1.191071 10053171
-3.755593 7.242834 0.798262 10053171
-5.123914 7.039153 2.738396 10053171
-4.747011 7.174663 1.079152 10053171
-5.635204 6.786459 2.538252 10053171
-5.388533 7.172680 2.282314 10053171
-6.040099 7.019479 2.967150 10053171
-3.717282 6.922604 1.074901 10053171
-4.248376 7.083668 2.717460 10053171
-5.936450 7.043257 0.668442 10053171
-4.960253 6.821197 2.306467 10053171
-3.920445 6.825592 1.371233 10053171
-6.015927 7.196731 1.746235 10053171
-3.616941 7.215788 0.409399 10053171
-5.861389 6.928525 2.264943 10053171
-6.571296 6.858147 1.772838 10053171
-4.761731 6.805210 2.790608 10053171
-6.485065 7.166820 1.207461 10053171
-3.584683 7.013600 1.088832 10053171
-6.256332 6.832484 1.545381 10053171
-3.012283 6.867883 1.566468 10053171
-6.392402 7.228688 0.956795 10053171
-4.785575 6.990890 1.215098 10053171
-6.393702 7.102689 0.902902 10053171
-6.876420 6.886813 2.248273 10053171
-3.708273 7.223711 1.814119 10053171
-4.227265 7.186341 0.795359 10053171
-6.332597 6.796510 2.926259 10053171
-3.038904 6.755667 2.289495 10053171
-6.427375 6.910167 1.494944 10053171
-6.296758 6.982613 1.006172 10053171
-5.143761 6.795482 1.223423 10053171
-3.954586 7.177498 0.940751 10053171
-6.422346 7.098770 0.851881 10053171
-6.247228 6.746699 2.097771 10053171
-3.535728 7.042737 0.937284 10053171
-5.311248 6.970440 2.325099 10053171
-4.504553 6.778548 0.628511 10053171
-5.578207 7.224996 0.176900 10053171
-3.599436 6.933692 1.813959 10053171
-6.991249 7.173885 2.123338 10053171
-6.180398 7.166121 1.942043 10053171
-4.702608 6.890578 0.435368 10053171
-5.539454 6.950940 1.759917 10053171
-6.750436 6.780688 1.265696 10053171
-5.576695 6.826925 1.475613 10053171
-6.418579 6.883957 2.023845 10053171
-5.989821 6.797138 1.056727 10053171
-5.780877 6.771156 2.060010 10053171
-5.555178 6.805006 1.565980 10053171
-3.370644 7.070007 2.631909 10053171
-5.041810 7.035064 0.365309 10053171
-4.184241 7.185830 0.535072 10053171
-5.080605 7.139460 0.844334 10053171
-6.392668 6.911725 2.845602 10053171
-6.854600 6.839312 2.543721 10053171
-6.719090 6.739827 0.437368 10053171
-3.249497 7.101597 1.578055 10053171
-6.027065 6.752240 2.596982 10053171
-4.056136 6.922060 1.541885 10053171
-6.737177 7.209001 0.601081 10053171
-6.925657 6.973107 2.960330 10053171
-4.472977 6.927694 1.928487 10053171
-4.895912 7.077821 2.555440 10053171
-3.968147 7.110625 0.797651 10053171
-4.124104 7.235283 0.485790 10053171
-3.912065 6.774686 1.156684 10053171
-3.467527 7.207061 2.446896 10053171
-3.373294 7.179434 0.187073 10053171
-3.148856 6.786847 0.442123 10053171
-4.782898 7.195553 1.091127 10053171
-6.911718 7.101804 0.577630 10053171
-6.272094 6.751472 1.867156 10053171
-6.643421 6.941737 0.635167 10053171
-6.356839 7.176714 1.698924 10053171
-6.412351 6.805445 1.113403 10053171
-4.964561 6.832379 0.297720 10053171
-5.294132 7.028987 1.122467 10053171
-6.009505 7.080021 1.260102 10053171
-3.178506 7.009346 2.074097 10053171
-4.527997 6.939574 0.172797 10053171
-6.052380 6.833146 0.169641 10053171
-3.643016 7.152112 0.340414 10053171
-3.339001 7.205460 2.603372 10053171
-4.022157 6.887435 2.669968 10053171
-4.127390 6.834877 2.971771 10053171
-5.537720 7.093482 1.946497 10053171
-4.321404 7.152029 0.730513 10053171
-4.258661 6.944647 0.572442 10053171
-3.619714 7.136440 0.603229 10053171
-3.733849 6.935803 0.917653 10053171
-4.650686 7.026426 0.615876 10053171
-4.184987 6.936847 0.193629 10053171
-6.532551 6.807528 2.343795 10053171
-4.712214 7.169243 0.499312 10053171
-5.164351 6.967699 1.451535 10053171
-6.448914 7.236351 1.320697 10053171
-6.966571 7.026695 2.089641 10053171
-6.601909 7.232042 1.471274 10053171
-5.028836 7.122434 2.900711 10053171
-4.729788 6.840949 0.722539 10053171
-4.283995 6.914936 1.329203 10053171
-5.439399 6.814372 2.056365 10053171
-4.015112 6.765651 2.825737 10053171
-5.952182 7.006316 1.385434 10053171
-6.737076 6.754920 0.247491 10053171
-3.287608 7.163800 2.715890 10053171
-5.108430 7.047792 1.744890 10053171
-5.856645 7.189452 0.507917 10053171
-6.243245 6.895240 1.084627 10053171
-6.954317 7.086321 1.629521 10053171
-5.756835 7.230662 2.560928 10053171
-6.232494 6.930062 2.016215 10053171
-3.795624 6.953320 1.366163 10053171
-5.692591 7.177394 0.871342 10053171
-3.124527 6.811014 0.963187 10053171
-3.914719 6.852498 1.106185 10053171
-5.346320 7.155900 1.623412 10053171
-3.502655 6.734449 0.851603 10053171
-4.698258 7.244251 1.556780 10053171
-3.651565 7.003304 2.216594 10053171
-4.568397 7.134705 2.676856 10053171
-4.890273 7.105393 2.090592 10053171
-6.902055 6.786211 2.399655 10053171
-3.410159 7.108389 0.862712 10053171
-5.521061 7.084821 2.905188 10053171
-4.817440 6.940497 0.684981 10053171
-4.585820 7.022582 2.185437 10053171
-6.935608 7.024682 2.210432 10053171
-3.667426 6.858195 1.220641 10053171
-4.319971 6.912049 0.834549 10053171
-6.422549 6.765169 2.068789 10053171
-6.022924 6.791207 2.077595 10053171
-4.822759 6.758575 0.935551 10053171
-3.713573 6.847953 0.014430 10053171
-4.883373 7.104809 2.473026 10053171
-3.742976 6.999561 2.458107 10053171
-5.177967 7.083302 1.509450 10053171
-6.229512 6.850916 1.603227 10053171
-6.667482 7.170071 2.921948 10053171
-3.953939 6.924715 0.940015 10053171
-6.242123 7.063195 0.963638 10053171
-4.885033 7.142391 1.522331 10053171
-3.286163 7.225677 0.929634 10053171
-6.342116 7.055114 1.859153 10053171
-5.676745 6.827613 1.347284 10053171
-3.562207 6.891669 0.432062 10053171
-5.650572 6.795909 2.108728 10053171
-4.306674 7.239617 0.446668 10053171
-3.204022 7.002287 1.428631 10053171
-3.112321 6.945376 1.814243 10053171
-4.069467 6.753427 0.908831 10053171
-4.286108 7.193658 1.318950 10053171
-3.095291 6.857762 0.307367 10053171
-4.004353 7.114688 1.427082 10053171
-5.433650 6.919818 1.056597 10053171
-3.982596 6.952677 0.379584 10053171
-3.795264 6.948968 0.174032 10053171
-5.715128 7.246497 1.885175 10053171
-5.683780 7.190525 1.781497 10053171
-6.048387 6.753592 2.369936 10053171
-3.602755 6.958923 0.813291 10053171
-5.204450 7.132996 1.189907 10053171
-5.124031 6.831619 2.501367 10053171
-4.289200 7.203364 0.624968 10053171
-6.980506 7.224375 0.060654 10053171
-4.006633 6.795801 1.107745 10053171
-4.057064 6.770128 1.853060 10053171
-5.395666 6.868563 2.733995 10053171
-3.271191 7.036325 1.531634 10053171
-3.308908 7.206929 -0.017390 10053171
-3.231318 6.815636 1.489229 10053171
-4.633731 6.976547 1.551738 10053171
-4.981088 6.839242 0.127922 10053171
-6.799325 6.825860 1.546076 10053171
-5.557524 6.916965 0.159421 10053171
-6.923292 6.900723 1.411649 10053171
-4.186566 6.759409 1.304765 10053171
-6.406083 6.902390 0.232527 10053171
-3.356893 6.762282 2.834550 10053171
-4.108091 6.792502 1.396376 10053171
-4.749649 6.858130 1.931502 10053171
-6.158918 6.784044 0.149022 10053171
-5.216240 7.143092 1.839561 10053171
-6.243658 7.105314 2.250075 10053171
-5.142528 7.074019 1.385123 10053171
-6.475296 6.932609 1.317696 10053171
-5.459937 7.078617 0.269578 10053171
-4.951162 7.172532 1.799105 10053171
-3.858122 6.969456 1.647552 10053171
-5.424534 7.084909 2.719786 10053171
-5.712178 7.056286 2.955353 10053171
-6.846174 7.131020 0.780291 10053171
-4.902830 7.169627 1.132512 10053171
-6.973549 6.945893 0.281485 10053171
-6.737909 6.959759 1.022502 10053171
-4.311293 6.784942 1.937608 10053171
-3.985993 7.164336 0.058422 10053171
-3.108652 7.035840 1.316826 10053171
-3.853956 7.023227 0.438903 10053171
-3.105780 6.748690 1.704399 10053171
-3.455959 6.865517 0.318493 10053171
-6.653036 7.101408 1.206685 10053171
-4.085978 7.130775 0.748829 10053171
-3.795496 7.015606 2.074309 10053171
-3.759857 7.015836 1.237674 10053171
-4.621204 7.138183 2.682462 10053171
-4.604094 7.231682 2.339614 10053171
-6.242906 7.126343 0.852122 10053171
-3.109648 6.905312 0.017748 10053171
-4.393742 6.754515 0.494211 10053171
-5.194705 7.027888 2.869597 10053171
-5.334846 7.014918 2.480199 10053171
-3.667556 7.222344 1.066620 10053171
-4.834743 6.784109 0.072527 10053171
-4.745525 7.104821 0.921050 10053171
-4.065780 6.864717 1.527400 10053171
-3.538379 6.975254 0.996360 10053171
-6.978415 7.116302 0.908486 10053171
-3.893367 6.924612 1.367464 10053171
-3.611638 6.926116 2.706594 10053171
-5.487824 6.838049 2.596337 10053171
-5.393761 6.760151 2.407750 10053171
-3.046597 6.807322 2.949447 10053171
-6.159891 6.826733 2.046197 10053171
-4.443046 7.123963 0.761265 10053171
-4.524127 7.031745 0.692315 10053171
-3.183126 7.228385 2.725131 10053171
-5.881489 7.220527 2.527494 10053171
-4.219566 6.895326 2.128945 10053171
-3.200299 6.945065 0.482707 10053171
-5.004543 6.843160 1.848310 10053171
-3.734352 6.966727 0.102973 10053171
-4.328889 7.215261 0.537982 10053171
-6.165799 6.868419 1.558305 10053171
-3.867226 7.190830 0.583393 10053171
-5.442779 6.772710 1.445780 10053171
-3.214442 6.823771 2.194325 10053171
-3.446522 6.985979 0.343880 10053171
-3.949420 7.241224 2.061249 10053171
-6.175409 7.186605 0.279591 10053171
-6.537418 6.885120 0.520612 10053171
-4.623708 6.887238 1.237979 10053171
-5.114763 6.803022 -0.008402 10053171
-5.437332 6.814889 0.528772 10053171
-3.759624 6.803173 0.404253 10053171
-5.341423 7.206409 0.661932 10053171
-3.180185 7.185096 1.380364 10053171
-4.953121 6.755407 2.546229 10053171
-6.746950 7.132873 1.625807 10053171
-4.823744 6.765946 1.155336 10053171
-4.077695 7.045730 1.631395 10053171
-4.071260 7.033559 1.600132 10053171
-3.507745 6.924221 2.940886 10053171
-4.076863 7.160369 2.906940 10053171
-6.614214 6.926717 1.742336 10053171
-5.188694 7.037084 1.692364 10053171
-5.102496 7.168707 2.150876 10053171
-4.505456 6.849527 0.036651 10053171
-5.348866 6.761993 2.593726 10053171
-5.157791 6.778968 1.359544 10053171
-4.067532 6.887919 0.727185 10053171
-4.376511 7.029421 1.041157 10053171
-5.233293 7.115313 0.721711 10053171
-3.743213 6.764958 1.913050 10053171
-3.660382 7.244268 2.738639 10053171
-3.369718 7.156695 0.997887 10053171
-4.078461 7.204561 2.637009 10053171
-3.109950 7.166396 2.847740 10053171
-3.583098 7.033583 1.674770 10053171
-5.329411 7.117832 0.100071 10053171
-3.920132 6.944872 2.302250 10053171
-6.425828 7.031950 2.534407 10053171
-3.115887 7.089000 2.794260 10053171
-4.839108 7.163651 0.102252 10053171
-5.901369 6.885794 0.145971 10053171
-4.279314 7.037551 0.572140 10053171
-4.619276 7.150641 -0.002804 10053171
-6.635407 7.197115 1.407650 10053171
-6.066105 6.942867 0.083714 10053171
-5.818793 6.749920 2.888740 10053171
-4.474004 7.035977 2.836007 10053171
-5.615514 7.204796 2.528757 10053171
-3.130370 6.957908 0.606088 10053171
-5.733469 6.954292 0.583065 10053171
-4.082691 7.106704 1.531445 10053171
-4.699718 6.780679 1.649191 10053171
-4.987411 7.116547 1.224977 10053171
-4.423168 6.961648 0.521611 10053171
-5.277106 7.230377 0.315649 10053171
-3.863667 6.959962 0.840364 10053171
-4.241198 6.925015 2.656668 10053171
-5.248563 7.113117 1.708909 10053171
-3.025246 6.973731 0.270849 10053171
-5.439009 6.836194 1.038048 10053171
-6.588631 7.069574 2.701290 10053171
-5.113603 6.820095 1.652417 10053171
-3.047456 6.916058 0.776510 10053171
-6.585701 6.962589 1.178242 10053171
-3.081857 7.000608 0.182528 10053171
-6.250336 7.215187 1.913956 10053171
-3.689535 6.929028 1.366343 10053171
-4.179371 7.104009 0.224511 10053171
-3.849487 7.140179 1.800521 10053171
-4.179107 7.020215 1.359710 10053171
-3.088053 6.812887 0.739214 10053171
-5.596642 7.232353 0.132546 10053171
-5.674810 7.013616 2.788268 10053171
-4.783185 6.935237 1.798814 10053171
-5.940250 7.170764 2.039576 10053171
-3.334672 7.099642 0.986801 10053171
-6.492856 6.804421 0.736334 10053171
-6.596777 7.056514 1.914503 10053171
-3.727230 6.853560 0.044813 10053171
-4.622455 7.141501 2.025164 10053171
-5.610289 6.755522 2.683806 10053171
-3.961386 7.087735 0.447201 10053171
-3.912495 6.773843 1.635550 10053171
-5.394406 7.006999 0.791209 10053171
-4.841987 6.848764 1.766000 10053171
-5.762955 6.941466 1.080609 10053171
-6.632563 6.847374 0.162814 10053171
-4.515899 6.973734 1.730072 10053171
-3.721153 7.118768 2.800851 10053171
-5.699001 6.846192 0.080129 10053171
-5.657985 7.057313 0.383880 10053171
-4.254533 6.839899 0.848068 10053171
-5.858367 6.861528 2.079535 10053171
-4.920418 6.836263 2.923286 10053171
-3.169039 6.986219 2.027138 10053171
-3.608807 6.918489 1.079368 10053171
-4.804949 7.160352 2.864608 10053171
-4.509408 7.178429 1.468668 10053171
-3.432305 7.105839 1.053251 10053171
-3.150278 7.150443 0.508309 10053171
-5.415277 7.098699 0.819159 10053171
-6.664545 6.981874 2.565508 10053171
-3.298169 6.897183 2.370265 10053171
-5.842654 7.169692 2.065455 10053171
-4.668121 6.910966 1.466260 10053171
-4.319934 6.829845 2.114592 10053171
-3.020798 6.759682 2.457891 10053171
-3.033061 6.975772 1.062763 10053171
-4.392929 7.203503 0.292743 10053171
-5.494469 7.238231 2.287276 10053171
-5.615258 7.133118 1.129935 10053171
-3.886552 6.905755 1.852230 10053171
-4.669161 7.111816 2.943259 10053171
-4.764985 7.181563 2.685243 10053171
-6.282177 7.041316 1.597505 10053171
-3.114973 7.209925 0.300460 10053171
-4.510828 6.874893 2.788147 10053171
-3.045793 6.915150 1.105383 10053171
-4.452055 7.259530 2.837960 10053171
-5.028176 6.924763 2.689324 10053171
-3.208417 6.971079 0.503083 10053171
-5.969795 6.793659 0.803182 10053171
-4.696679 7.138629 0.303771 10053171
-2.999939 7.061047 0.552415 10053171
-5.429585 6.907757 1.085543 10053171
-3.914976 6.802605 0.619153 10053171
-6.068113 6.983714 2.720772 10053171
-3.307831 6.920148 0.548222 10053171
-5.734721 6.751811 2.835039 10053171
-4.186054 6.850888 0.623968 10053171
-6.593999 6.968932 2.926955 10053171
-6.920621 7.232388 2.518503 10053171
-6.922079 7.217732 0.753435 10053171
-5.290099 6.993963 2.459330 10053171
-5.204872 6.964707 1.273526 10053171
-3.156936 7.175954 1.911282 10053171
-6.377301 6.969738 1.726139 10053171
-4.081232 6.868047 0.134932 10053171
-3.507164 6.892145 0.021073 10053171
-6.107642 6.880991 1.884673 10053171
-3.110195 7.070052 0.766251 10053171
-3.569001 7.043790 2.727563 10053171
-4.235556 7.039485 2.654669 10053171
-3.423314 6.906001 2.418358 10053171
-5.119100 6.890957 2.877946 10053171
-4.465850 7.124692 1.051517 10053171
-6.590322 6.845638 2.037545 10053171
-3.836791 6.879214 2.286092 10053171
-3.582041 6.977570 1.026262 10053171
-4.278631 6.756575 0.885029 10053171
-3.859189 7.022499 0.997038 10053171
-5.368110 6.957914 2.077191 10053171
-3.238411 6.848059 0.482696 10053171
-3.387314 7.247430 0.622725 10053171
-6.360287 6.746561 1.235936 10053171
-5.822881 7.221621 1.578735 10053171
-3.786689 6.900033 0.808520 10053171
-6.565235 6.860944 1.586215 10053171
-4.376311 6.804470 0.999711 10053171
-5.651105 6.925253 0.060766 10053171
-4.402676 7.001854 1.194664 10053171
-4.189761 6.899472 2.111898 10053171
-3.260704 7.163904 1.284925 10053171
-3.739283 7.229620 2.676820 10053171
-5.894185 6.836668 0.017625 10053171
-5.673835 6.791021 1.557896 10053171
-4.939961 6.967170 2.465735 10053171
-6.086302 7.053380 1.117852 10053171
-6.767425 7.229422 2.112480 10053171
-5.447042 6.858238 1.235364 10053171
-6.167703 6.932254 2.912646 10053171
-5.548592 6.782760 2.418229 10053171
-4.504428 7.182286 1.522400 10053171
-5.293372 6.882035 0.619255 10053171
-6.036549 7.243052 1.477854 10053171
-3.535232 6.838573 2.528670 10053171
-5.675119 6.924717 2.299101 10053171
-6.077938 6.959102 1.445204 10053171
-6.576271 6.883249 1.258325 10053171
-6.769385 7.068903 2.611511 10053171
-6.579082 6.884868 1.834293 10053171
-6.065485 6.966393 2.782149 10053171
-4.216846 7.197940 2.778602 10053171
-4.922470 7.064145 2.199688 10053171
-4.848897 7.147089 0.054923 10053171
-4.087102 6.832039 1.582575 10053171
-6.987859 7.234612 0.315207 10053171
-5.465835 7.165037 0.038459 10053171
-3.505535 6.819072 0.732606 10053171
-6.069862 6.792538 0.903148 10053171
-3.551032 6.798906 2.843554 10053171
-3.540978 7.180717 0.906356 10053171
-5.202090 6.831141 2.927924 10053171
-6.958400 6.857315 2.320034 10053171
-4.321151 6.840453 0.592499 10053171
-4.572581 6.868894 0.854474 10053171
-3.483596 6.818683 0.291242 10053171
-6.419290 6.980212 1.148994 10053171
-5.287545 7.214357 1.656879 10053171
-4.224950 7.178902 1.713397 10053171
-5.744549 7.126677 0.923752 10053171
-4.642964 6.953202 2.929537 10053171
-5.851413 7.022116 1.025721 10053171
-5.189116 7.129427 0.294662 10053171
-4.813027 6.850660 2.736762 10053171
-3.332837 6.999961 0.796280 10053171
-3.896294 7.018798 1.812080 10053171
-5.778548 6.991327 1.286074 10053171
-3.330589 6.958634 1.649268 10053171
-2.987925 7.231102 0.809275 10053171
-3.182382 7.204986 2.779886 10053171
-3.170715 7.188829 2.284682 10053171
-6.061414 6.933245 2.257959 10053171
-6.807905 7.054915 2.048975 10053171
-4.067025 6.797565 1.151228 10053171
-3.208889 7.222354 1.688739 10053171
-6.935285 7.162028 1.474804 10053171
-4.304594 6.882638 1.103322 10053171
-5.298053 7.035049 0.086210 10053171
-6.811295 7.153828 2.887962 10053171
-4.235721 6.820264 2.414031 10053171
-3.450849 7.044072 2.651555 10053171
-3.068655 6.787444 1.151152 10053171
-3.510312 7.235497 0.578273 10053171
-3.452287 6.932884 2.312061 10053171
-4.107781 7.071732 2.691181 10053171
-3.741882 7.059042 2.894106 10053171
-5.754096 6.932649 0.470035 10053171
-4.734957 7.101189 1.555916 10053171
5.882380 -5.979623 1.152611 8342706
6.134116 -5.725102 1.811301 8342706
5.454367 -6.114197 3.647738 8342706
6.178295 -6.486039 0.563977 8342706
5.444725 -6.198308 3.038344 8342706
6.179020 -6.462703 4.074636 8342706
6.362302 -6.051933 4.895833 8342706
6.200038 -5.628761 0.316421 8342706
5.997053 -6.183479 3.991466 8342706
6.179947 -5.969908 0.459226 8342706
5.588318 -5.651510 1.986243 8342706
6.162608 -6.410040 3.293441 8342706
6.541070 -5.791207 4.842099 8342706
6.055192 -5.619044 2.398377 8342706
6.484593 -5.953792 1.313920 8342706
6.100563 -6.222690 2.940001 8342706
6.557927 -5.860058 0.289666 8342706
6.350792 -6.419001 2.965674 8342706
6.301421 -5.517618 2.202806 8342706
6.473032 -6.368597 2.670053 8342706
6.199835 -6.114731 2.960090 8342706
6.280915 -5.580374 2.029777 8342706
5.618443 -6.275257 3.517124 8342706
5.800918 -5.550889 0.190933 8342706
5.654577 -5.760317 0.509598 8342706
6.492959 -5.801271 1.398628 8342706
6.020483 -5.437229 0.769664 8342706
6.226624 -6.349216 1.488500 8342706
6.418448 -6.146612 1.602674 8342706
6.534202 -6.046605 3.491586 8342706
5.606007 -6.174476 3.374371 8342706
5.818823 -6.187259 4.704690 8342706
5.781024 -5.530821 2.033725 8342706
6.319661 -5.781215 2.894481 8342706
6.257507 -5.943803 3.528565 8342706
5.465057 -6.112346 0.543500 8342706
6.388060 -5.815887 1.974349 8342706
5.892247 -5.801020 1.720438 8342706
5.728900 -5.851918 3.159188 8342706
5.649781 -6.156075 1.870780 8342706
5.806903 -5.527549 0.776209 8342706
6.460775 -6.091954 0.391473 8342706
6.003006 -6.143798 4.299941 8342706
5.585192 -6.191247 4.556186 8342706
5.744949 -5.761773 4.175707 8342706
5.760925 -5.922275 3.126271 8342706
6.028998 -5.983396 1.444188 8342706
6.417461 -6.296021 2.007658 8342706
5.660637 -5.735642 3.080550 8342706
6.291467 -6.073558 3.896436 8342706
5.413338 -5.989788 4.569026 8342706
5.961508 -5.461291 4.487392 8342706
5.484409 -5.965521 3.222460 8342706
6.432349 -5.939784 1.951037 8342706
6.152512 -6.480472 4.291007 8342706
6.388636 -5.877711 1.217994 8342706
5.420605 -5.961944 2.346902 8342706
5.519342 -5.765996 4.327533 8342706
6.448208 -6.007142 2.990797 8342706
6.115036 -5.645370 4.838633 8342706
6.262687 -5.874504 2.128377 8342706
5.814836 -5.484605 2.070581 8342706
5.865081 -6.325090 3.502137 8342706
6.002821 -5.493920 3.495858 8342706
5.754405 -6.032532 4.509807 8342706
5.861445 -6.084073 1.749362 8342706
6.172758 -5.741187 1.995675 8342706
6.165164 -6.287943 1.949079 8342706
5.760043 -6.241929 1.522725 8342706
5.609834 -6.238737 1.064927 8342706
5.854129 -6.382567 1.259857 8342706
5.967430 -5.932852 3.025308 8342706
6.058681 -6.119811 4.752615 8342706
5.803766 -5.804235 0.600422 8342706
5.734239 -6.062822 2.493034 8342706
5.964458 -6.000670 3.179933 8342706
5.479117 -6.178680 1.916291 8342706
6.094567 -5.607993 0.144257 8342706
6.443893 -5.933229 1.239826 8342706
6.564543 -6.082773 3.863161 8342706
6.044046 -6.209514 3.268289 8342706
5.574609 -5.644778 1.958858 8342706
6.111482 -6.280801 4.440041 8342706
6.132941 -5.607823 4.631958 8342706
6.430487 -5.697352 0.225793 8342706
5.965693 -6.157294 2.701478 8342706
6.239758 -5.986547 2.430135 8342706
5.490462 -6.167673 3.666710 8342706
6.060269 -6.310135 2.015017 8342706
5.879268 -6.328387 1.002932 8342706
6.183288 -6.422398 4.430137 8342706
5.562829 -5.930699 3.870842 8342706
5.702806 -6.390089 2.530337 8342706
6.116208 -6.502875 1.404130 8342706
5.842075 -5.885766 4.540636 8342706
5.605547 -5.760343 2.328138 8342706
6.468314 -5.839248 2.614659 8342706
6.110179 -6.418674 0.592014 8342706
5.567402 -6.132385 1.880245 8342706
6.298757 -6.070230 1.873950 8342706
6.580083 -6.054089 3.638874 8342706
5.655694 -6.368627 0.621025 8342706
5.671557 -6.451431 0.778094 8342706
6.217500 -6.026042 2.573397 8342706
5.640741 -6.030926 3.293357 8342706
5.764927 -5.601883 4.711054 8342706
5.764822 -6.241256 4.029535 8342706
5.646978 -5.817695 1.216629 8342706
6.409029 -5.954593 4.446096 8342706
5.832894 -5.635486 3.511451 8342706
6.014261 -5.791709 0.928153 8342706
6.171142 -6.375628 1.760579 8342706
6.151347 -5.778275 1.594102 8342706
5.973360 -5.759028 4.085883 8342706
6.038479 -6.202403 4.597813 8342706
5.778477 -6.141201 0.226431 8342706
5.913795 -5.642362 1.662277 8342706
6.180081 -5.635389 3.836541 8342706
5.715330 -5.972800 3.096222 8342706
5.805712 -6.196444 2.607214 8342706
5.674163 -5.862924 2.906214 8342706
5.621664 -6.240738 3.723636 8342706
5.897518 -6.577264 1.071699 8342706
6.110005 -5.815003 1.672174 8342706
6.307120 -6.335357 0.545720 8342706
6.357603 -5.681312 2.299504 8342706
6.132402 -5.565306 3.071939 8342706
5.653697 -5.663964 1.219354 8342706
6.018100 -5.720505 3.693604 8342706
6.193702 -6.034447 4.400380 8342706
6.511102 -6.114087 2.682221 8342706
6.351562 -6.153049 3.367904 8342706
5.688462 -6.324128 4.697980 8342706
6.298381 -5.539764 4.637655 8342706
5.983524 -6.206020 3.551790 8342706
5.765515 -5.669696 2.612432 8342706
6.066276 -6.557368 4.493775 8342706
5.531853 -5.777085 4.278319 8342706
5.534820 -6.154155 2.900551 8342706
6.129425 -5.623461 2.473254 8342706
5.685303 -5.883049 4.030072 8342706
5.878940 -5.439203 3.056550 8342706
6.486546 -5.824955 0.130113 8342706
6.032801 -5.435325 0.396610 8342706
6.381834 -5.747982 0.052466 8342706
6.060576 -5.767315 0.529155 8342706
5.644830 -5.733482 3.077070 8342706
6.349552 -6.235209 1.523949 8342706
6.117891 -5.787527 2.484131 8342706
5.776126 -6.146869 1.613009 8342706
6.006203 -6.202337 0.113901 8342706
5.856763 -6.048847 3.750168 8342706
5.716779 -6.146751 3.387687 8342706
6.297710 -6.244780 4.584043 8342706
6.315540 -6.457026 3.385899 8342706
6.033199 -6.559685 4.165743 8342706
6.005408 -5.670077 4.223792 8342706
5.700588 -5.641799 4.233419 8342706
6.185118 -5.864401 1.877015 8342706
5.511884 -6.222837 4.663608 8342706
5.899388 -6.340456 4.720056 8342706
6.054473 -6.438745 1.323488 8342706
6.117974 -5.624277 2.036452 8342706
5.962432 -6.207119 1.699512 8342706
6.035155 -6.026748 4.539301 8342706
6.107455 -5.630227 1.151923 8342706
6.157787 -6.300714 1.570018 8342706
5.730699 -5.732716 0.140134 8342706
6.343188 -6.162797 3.033785 8342706
6.102450 -5.571001 2.622884 8342706
6.269960 -5.858610 1.010153 8342706
5.618843 -6.102508 1.912967 8342706
5.732595 -5.683771 2.228204 8342706
5.795431 -5.640185 2.591246 8342706
5.493082 -5.939044 3.578691 8342706
6.029197 -5.844742 1.853563 8342706
5.719157 -5.887673 1.458202 8342706
5.733047 -6.249945 2.822980 8342706
5.994887 -6.313116 4.886755 8342706
5.984111 -6.438431 4.844007 8342706
6.095117 -5.579129 3.823867 8342706
5.636570 -5.580204 1.993412 8342706
6.548232 -6.046921 4.255553 8342706
5.673604 -5.584388 1.942718 8342706
6.103041 -6.453059 1.682669 8342706
5.603813 -6.223475 1.856552 8342706
6.326170 -5.907358 3.507334 8342706
6.478099 -5.811923 3.835252 8342706
6.422646 -6.092321 3.836817 8342706
6.144906 -5.854911 3.352410 8342706
6.150004 -6.375154 1.026220 8342706
5.646338 -6.153400 3.339875 8342706
6.507727 -6.300045 0.130319 8342706
6.391014 -6.096443 4.931319 8342706
5.424722 -5.919356 3.779701 8342706
6.492599 -6.029349 0.239388 8342706
6.236090 -5.666916 3.722532 8342706
6.104684 -5.997381 2.470369 8342706
6.263781 -5.998787 0.703024 8342706
6.432646 -5.952702 2.437509 8342706
6.075607 -6.491037 2.763225 8342706
6.405526 -6.087193 1.398610 8342706
6.213646 -5.643114 1.074101 8342706
6.249824 -5.593024 4.315794 8342706
6.171042 -6.465357 0.723611 8342706
5.627691 -6.052209 3.186609 8342706
6.514276 -5.787491 1.089687 8342706
6.173353 -5.793105 2.595735 8342706
6.022580 -6.085429 2.521049 8342706
6.386998 -5.689925 1.813803 8342706
5.983946 -6.108367 3.849488 8342706
6.490122 -6.003816 1.581683 8342706
5.507009 -6.275473 0.726958 8342706
5.814520 -6.376108 4.983168 8342706
6.471338 -5.785344 3.985380 8342706
6.226521 -6.037837 0.099401 8342706
6.255449 -5.813323 3.573267 8342706
6.504956 -6.082302 4.563030 8342706
5.910701 -6.046611 3.113678 8342706
6.399109 -6.251834 1.781864 8342706
6.025935 -5.424483 1.971067 8342706
5.429508 -5.962114 4.233852 8342706
6.100333 -6.075492 2.975684 8342706
6.239453 -5.952586 3.262561 8342706
5.671672 -6.176516 3.351489 8342706
6.149389 -6.363128 4.415627 8342706
6.097595 -5.523698 4.108607 8342706
5.936106 -5.851456 2.910377 8342706
5.405986 -6.103546 2.064624 8342706
6.287799 -6.430917 4.871542 8342706
5.642510 -6.376702 2.927877 8342706
6.338395 -6.343355 2.359482 8342706
6.424216 -5.811811 1.050773 8342706
6.435180 -5.865812 2.276247 8342706
5.984829 -5.524575 2.062515 8342706
6.214759 -5.746469 0.479614 8342706
5.883450 -6.271884 1.567153 8342706
6.381972 -5.760823 2.450185 8342706
6.373203 -5.535016 4.091240 8342706
6.473228 -6.190216 1.480971 8342706
6.170173 -5.791762 3.248078 8342706
5.745854 -6.402593 3.101218 8342706
6.257143 -5.552370 4.473941 8342706
6.042552 -5.893734 0.776456 8342706
5.585830 -6.362265 4.397234 8342706
5.604700 -5.740848 4.262305 8342706
6.225654 -5.849511 1.373889 8342706
5.757097 -5.800747 1.064269 8342706
5.865823 -6.094851 0.619175 8342706
6.176426 -5.450291 1.194356 8342706
6.289970 -5.507107 1.169934 8342706
5.659461 -6.251940 4.270951 8342706
5.926260 -6.047140 4.917435 8342706
6.209337 -5.564284 3.780282 8342706
5.677535 -6.034451 4.255081 8342706
6.108751 -6.585351 4.277083 8342706
5.670649 -5.726629 3.968297 8342706
5.548543 -6.078280 3.751060 8342706
6.206473 -6.402982 1.052364 8342706
6.566325 -5.960995 0.511078 8342706
6.003237 -5.530286 2.917696 8342706
6.198713 -6.392888 1.670645 8342706
5.506571 -6.221658 3.930318 8342706
5.600454 -6.465308 2.810664 8342706
5.803943 -5.487768 2.234332 8342706
6.535971 -6.214743 2.090272 8342706
6.068667 -6.375914 0.537135 8342706
5.437935 -5.856327 2.601143 8342706
5.839972 -5.645284 2.557803 8342706
6.275776 -6.079221 0.214739 8342706
6.041078 -5.616724 4.360742 8342706
6.530278 -6.277246 4.442546 8342706
5.825829 -6.380894 4.421418 8342706
5.459283 -5.757236 4.333229 8342706
5.960205 -5.493355 1.506484 8342706
6.521208 -6.185852 4.022254 8342706
6.377867 -6.152971 1.426470 8342706
5.815261 -6.178052 3.758612 8342706
6.113545 -6.354286 1.904545 8342706
5.552034 -5.625982 3.385961 8342706
5.786585 -6.449657 3.536159 8342706
5.505301 -5.683217 3.915715 8342706
6.170991 -5.566331 0.033503 8342706
6.356421 -5.949777 2.649058 8342706
6.375025 -6.090586 1.749335 8342706
5.780214 -5.795527 3.208408 8342706
6.012527 -5.813965 3.177459 8342706
6.310607 -6.061957 2.037170 8342706
6.361971 -5.830429 2.215122 8342706
6.044047 -5.790653 0.099764 8342706
5.830130 -6.071377 0.097862 8342706
6.227309 -6.463431 0.877616 8342706
6.354738 -6.473660 0.727655 8342706
6.160958 -6.356587 4.236627 8342706
5.865024 -6.529813 1.820416 8342706
5.631114 -5.924211 0.983126 8342706
5.778437 -5.670686 2.680482 8342706
6.212306 -5.754750 0.419723 8342706
6.081150 -5.427649 2.098752 8342706
6.007873 -6.503778 1.067106 8342706
6.234881 -5.550203 1.295482 8342706
6.460952 -5.681491 3.595959 8342706
6.493486 -6.243915 0.324875 8342706
5.784021 -5.918598 4.009362 8342706
6.195237 -6.102599 1.742095 8342706
6.094170 -6.241373 3.234246 8342706
5.591930 -6.265732 3.703629 8342706
6.532566 -6.142009 1.848229 8342706
6.269023 -6.216953 1.676216 8342706
5.556053 -5.804951 2.501512 8342706
6.364764 -6.396367 2.019611 8342706
6.124087 -6.205643 3.582258 8342706
6.169392 -6.582839 4.283493 8342706
6.431723 -6.389233 3.673268 8342706
6.138718 -5.564173 2.032009 8342706
6.094320 -5.462082 0.896317 8342706
6.146691 -6.433708 1.182422 8342706
5.658545 -6.076209 0.130929 8342706
5.845941 -5.593704 2.641220 8342706
5.786953 -6.368474 2.620425 8342706
6.093938 -5.486710 3.483839 8342706
5.757387 -6.282170 3.384398 8342706
6.306110 -6.344797 1.088695 8342706
5.802569 -6.517540 4.765473 8342706
6.248161 -5.683981 4.908596 8342706
5.998291 -6.472783 1.862187 8342706
5.675179 -5.778921 0.307188 8342706
6.286689 -5.514579 4.280320 8342706
5.596227 -5.848582 4.365635 8342706
6.225059 -5.583697 0.482888 8342706
6.287596 -6.378495 4.005487 8342706
6.187845 -6.545236 0.566866 8342706
6.172688 -5.840879 1.020870 8342706
6.436335 -6.159297 2.766708 8342706
6.047300 -6.386862 3.739921 8342706
5.993248 -5.548572 2.035511 8342706
6.459132 -6.188097 3.292354 8342706
6.110152 -5.435666 0.235887 8342706
5.479363 -5.724971 4.400231 8342706
6.183118 -6.352935 1.662278 8342706
6.430490 -5.605827 1.845170 8342706
5.881612 -6.114453 0.926333 8342706
6.366212 -5.599368 3.681236 8342706
5.631832 -6.124612 3.755475 8342706
6.526977 -5.913122 1.175562 8342706
5.740658 -5.996417 2.447216 8342706
6.254866 -6.349324 2.947679 8342706
5.718733 -6.375706 4.092411 8342706
6.050338 -6.298820 3.890319 8342706
6.386313 -5.566365 4.965017 8342706
6.535760 -6.267852 4.665743 8342706
6.022532 -5.928079 3.871773 8342706
6.167484 -6.397031 4.335701 8342706
5.747645 -6.194955 1.996545 8342706
6.436609 -5.867822 2.111829 8342706
6.444290 -5.979947 2.200350 8342706
5.858836 -5.442901 1.053489 8342706
6.482320 -5.785996 0.266029 8342706
5.849875 -5.474349 1.391111 8342706
6.230014 -5.707735 4.828026 8342706
5.977770 -5.645882 1.228542 8342706
6.487754 -5.809109 2.263105 8342706
5.776876 -6.217343 3.686222 8342706
6.275144 -6.198972 1.511665 8342706
5.961226 -6.396650 3.977732 8342706
5.998247 -5.807752 2.276783 8342706
6.171534 -6.047165 4.097871 8342706
6.162060 -6.406662 4.350180 8342706
6.281235 -5.596184 4.756256 8342706
6.332418 -5.815610 3.599163 8342706
5.999763 -5.780188 3.175163 8342706
6.534952 -5.876186 3.039946 8342706
6.266500 -5.867382 2.843383 8342706
6.295530 -6.314529 1.983587 8342706
5.763616 -5.711294 3.608791 8342706
5.724607 -5.705259 3.056951 8342706
6.272248 -5.974344 1.458214 8342706
6.372732 -6.250990 1.084372 8342706
5.830503 -5.599782 2.970661 8342706
5.533266 -5.923245 0.124673 8342706
5.646887 -5.654075 0.447469 8342706
5.611938 -5.576815 2.851478 8342706
5.989539 -5.491475 2.121913 8342706
5.516738 -6.127901 1.892360 8342706
6.122360 -5.501287 3.470866 8342706
5.447433 -5.915832 4.583834 8342706
5.454055 -5.790827 2.932829 8342706
6.197670 -6.322693 1.854602 8342706
5.556049 -6.375838 0.834298 8342706
5.871930 -6.497880 1.614369 8342706
6.097233 -6.338501 3.437111 8342706
5.941134 -6.477667 4.592221 8342706
6.353869 -6.163004 0.798982 8342706
6.506925 -6.325436 1.450134 8342706
6.563396 -5.918190 3.408492 8342706
5.567706 -6.101316 1.103374 8342706
6.284208 -6.286172 1.955562 8342706
6.152243 -6.314021 2.938615 8342706
6.076466 -6.513889 4.951597 8342706
5.991097 -6.451543 0.603193 8342706
6.285258 -5.749446 1.744953 8342706
