# .PCD v0.7 - Point Cloud Data file format
VERSION 0.7
FIELDS x y z rgb
SIZE 4 4 4 4
TYPE F F F U
COUNT 1 1 1 1
WIDTH 1309
HEIGHT 1
VIEWPOINT 0 0 0 1 0 0 0
POINTS 1309
DATA ascii
-1.240137 10.016147 1.531092 15014169
-1.287409 10.194981 1.589539 15014169
-1.324290 10.640694 0.462238 15014169
-1.545979 10.511075 1.303032 15014169
-1.374891 9.957729 1.618732 15014169
-1.836434 9.983951 1.677531 15014169
-1.819200 10.554193 0.306672 15014169
-1.946673 9.989200 1.189171 15014169
-1.774407 10.252143 1.631081 15014169
-1.806161 10.121061 0.996944 15014169
-1.753801 10.327851 0.925163 15014169
-1.719117 9.968233 1.365422 15014169
-1.323840 10.208777 0.941243 15014169
-1.925678 10.496017 0.637250 15014169
-1.868107 10.054214 0.592455 15014169
-1.435447 10.267715 1.265283 15014169
-1.852117 10.103970 1.481893 15014169
-1.939579 10.131365 1.481862 15014169
-1.475237 10.143032 1.449057 15014169
-1.838920 10.328081 1.131694 15014169
-1.260038 10.432084 0.796949 15014169
-1.606607 10.137542 1.667620 15014169
-1.663840 10.021380 1.669166 15014169
-1.319113 10.338297 0.353631 15014169
-1.370979 10.587682 1.197583 15014169
-1.753713 10.615143 0.325404 15014169
-1.735082 10.193937 1.490196 15014169
-1.947482 10.420641 1.099738 15014169
-1.719279 10.014858 0.525209 15014169
-1.499962 9.980640 0.405705 15014169
-1.615104 10.326303 0.308834 15014169
-1.568011 10.028253 0.466954 15014169
-1.468637 10.196801 1.411523 15014169
3.744300 -7.575364 0.474660 1645029
3.788440 -7.282929 1.215200 1645029
3.245594 -7.786727 1.070084 1645029
3.458278 -7.556450 1.015732 1645029
3.560029 -7.465896 1.172893 1645029
3.492282 -7.509909 1.486822 1645029
3.513109 -7.436590 0.602623 1645029
3.381760 -7.336342 1.279852 1645029
3.633100 -7.524524 0.964063 1645029
3.592640 -7.957295 0.610058 1645029
4.115979 -7.667321 1.073520 1645029
3.892172 -7.953450 1.275829 1645029
3.383498 -7.657514 0.635999 1645029
4.042427 -7.823887 1.244339 1645029
3.449093 -7.667241 0.838806 1645029
3.260599 -7.382028 1.148943 1645029
3.176024 -7.919032 0.965350 1645029
3.795849 -7.271508 1.154563 1645029
3.853941 -7.454612 1.284441 1645029
3.586355 -7.748871 0.916479 1645029
3.839329 -7.860951 1.162362 1645029
3.426179 -7.859971 1.318971 1645029
3.758132 -7.359666 1.278082 1645029
3.608116 -8.003742 0.686036 1645029
3.716850 -8.076143 0.789022 1645029
3.457723 -7.414568 1.134271 1645029
3.697179 -7.897424 0.867761 1645029
3.525305 -7.623794 0.927512 1645029
3.942792 -7.604881 1.039514 1645029
3.855238 -7.769032 1.123503 1645029
3.410613 -7.839882 0.842721 1645029
3.254775 -7.627007 0.643565 1645029
3.404911 -7.623164 1.342404 1645029
3.426878 -7.643777 0.905304 1645029
3.980315 -7.931527 0.940594 1645029
3.574649 -7.623847 1.073388 1645029
3.649982 -7.249872 1.074076 1645029
3.135309 -7.951236 1.063346 1645029
3.642461 -7.619799 1.159344 1645029
3.388929 -7.996644 1.076883 1645029
3.429806 -7.816638 0.526102 1645029
3.210159 -7.707049 0.871107 1645029
3.842274 -7.817514 1.138583 1645029
3.607341 -7.723941 1.225618 1645029
3.470488 -7.509987 0.682901 1645029
3.737914 -7.526759 0.668698 1645029
3.734772 -7.261356 1.020421 1645029
3.702050 -7.653585 0.873404 1645029
3.523407 -7.682142 0.679320 1645029
3.903272 -7.949329 0.803427 1645029
3.501526 -8.100163 0.964938 1645029
3.984928 -7.735997 0.981216 1645029
3.550878 -7.834335 0.834191 1645029
3.444452 -7.973174 1.339181 1645029
3.512990 -7.541108 0.533584 1645029
4.035676 -7.696504 1.278871 1645029
3.293864 -7.346172 0.742455 1645029
3.312644 -7.455514 0.664122 1645029
3.717232 -8.126447 0.902966 1645029
3.339003 -7.839830 0.879947 1645029
3.620231 -8.079075 0.941203 1645029
3.733772 -7.745719 0.951940 1645029
3.307343 -7.802585 1.014285 1645029
3.493241 -7.419529 0.891182 1645029
3.487506 -7.193213 0.960019 1645029
3.384047 -7.755095 1.401570 1645029
3.500974 -7.792609 1.149718 1645029
3.723594 -7.501821 1.238232 1645029
3.967251 -7.566893 1.145350 1645029
4.041003 -7.552530 1.013160 1645029
3.278157 -8.018112 1.233038 1645029
3.860743 -7.365439 1.042254 1645029
3.984633 -7.675977 1.027117 1645029
3.357059 -7.449709 0.600855 1645029
3.500664 -7.358288 1.218792 1645029
3.618863 -7.276244 1.073755 1645029
3.792176 -7.494002 0.860354 1645029
3.599862 -7.479236 0.556023 1645029
3.931923 -7.661072 1.001708 1645029
3.950726 -7.424241 1.213431 1645029
5.978090 -7.396082 0.597741 1690649
5.695431 -7.807788 0.782892 1690649
5.916343 -7.762018 0.698543 1690649
5.367899 -7.833700 1.310046 1690649
6.017597 -7.643515 0.484547 1690649
5.723354 -7.590404 0.609102 1690649
5.971764 -7.664306 1.000402 1690649
5.684023 -7.764389 1.070790 1690649
6.183002 -7.739169 1.306124 1690649
5.546286 -7.725562 0.964079 1690649
6.171978 -7.601503 0.526259 1690649
5.848317 -7.829469 1.765164 1690649
5.749506 -8.062691 0.179957 1690649
5.463509 -7.510890 1.065147 1690649
5.847793 -7.378778 1.048725 1690649
5.970304 -8.001124 1.156189 1690649
6.178555 -7.803041 1.023391 1690649
5.599424 -7.853744 0.565235 1690649
5.930465 -7.587414 1.392737 1690649
5.853981 -7.768444 1.131910 1690649
5.881837 -7.308336 1.720758 1690649
5.841450 -8.081237 1.158540 1690649
5.363536 -7.854019 0.882449 1690649
5.332061 -7.860781 0.875603 1690649
5.511002 -7.313136 1.536233 1690649
5.928115 -7.794476 1.828605 1690649
5.447128 -7.800828 1.403803 1690649
5.952536 -7.399497 1.821637 1690649
5.769994 -8.009645 0.625584 1690649
6.009958 -7.450116 1.226989 1690649
5.612381 -7.340965 1.403455 1690649
5.590739 -7.563678 1.599290 1690649
6.150683 -7.888142 0.983446 1690649
5.567479 -7.588997 0.737822 1690649
5.790253 -7.822474 1.050665 1690649
6.047405 -7.342087 1.073020 1690649
5.356502 -7.651483 0.544047 1690649
5.846112 -7.507777 0.628047 1690649
5.479084 -7.809301 1.284842 1690649
5.810538 -7.433542 1.872021 1690649
5.913337 -7.546547 1.058609 1690649
5.622867 -7.995644 0.354486 1690649
5.908734 -7.522246 1.907581 1690649
5.762379 -7.982179 0.984505 1690649
5.512352 -7.368880 1.890914 1690649
5.975246 -7.836337 1.136932 1690649
5.803507 -7.987695 1.426645 1690649
5.716165 -7.522909 0.993096 1690649
5.604467 -7.297682 1.022131 1690649
5.745234 -7.337423 1.361243 1690649
5.594881 -7.564659 1.239533 1690649
5.914989 -7.266007 0.433728 1690649
6.139520 -7.559975 1.530823 1690649
5.563708 -7.470913 1.030452 1690649
5.367793 -7.846116 1.844197 1690649
5.701018 -8.012197 1.691729 1690649
5.582341 -7.769653 0.813269 1690649
5.612484 -7.546525 0.574412 1690649
6.124007 -7.938647 0.907671 1690649
5.747857 -7.716168 1.476827 1690649
5.419750 -7.710814 0.909889 1690649
5.940325 -7.645998 0.125383 1690649
5.530634 -7.556762 0.187988 1690649
5.800319 -8.057426 0.191806 1690649
5.738088 -7.440504 0.977910 1690649
5.898223 -7.892839 1.754597 1690649
5.591304 -7.954448 1.658824 1690649
5.786773 -8.109698 1.786304 1690649
5.553692 -7.523801 0.212881 1690649
5.443367 -7.813554 0.336472 1690649
5.574166 -7.548496 1.350428 1690649
5.911829 -7.819317 0.657588 1690649
5.593914 -7.948327 1.627491 1690649
6.137269 -7.724861 1.140711 1690649
5.900839 -7.698307 0.094911 1690649
5.733833 -7.347198 1.230474 1690649
5.808131 -7.528348 0.223528 1690649
5.747527 -8.026533 1.125281 1690649
6.084680 -7.722715 0.711811 1690649
5.937149 -7.409393 1.198832 1690649
5.696767 -7.262843 0.231761 1690649
5.738217 -7.875839 0.463207 1690649
5.826649 -7.497163 0.907466 1690649
5.612883 -7.630248 1.789559 1690649
5.426804 -7.564744 0.698958 1690649
5.862509 -8.040625 0.199068 1690649
5.727576 -8.021386 1.469998 1690649
5.573736 -7.952822 0.145832 1690649
5.991965 -7.496872 1.502972 1690649
6.073703 -7.885438 1.272389 1690649
5.762072 -7.371193 1.677368 1690649
5.710303 -7.367413 1.145803 1690649
5.979140 -7.385664 0.748376 1690649
5.564274 -7.767709 0.184537 1690649
5.551123 -7.356355 1.256852 1690649
6.050373 -7.958080 0.577928 1690649
5.561974 -7.555572 1.667129 1690649
5.681372 -7.649640 1.883346 1690649
6.047472 -7.511029 0.483701 1690649
5.622479 -7.904068 1.619245 1690649
5.424274 -7.877992 0.984183 1690649
5.651428 -7.392839 1.732655 1690649
5.602715 -7.946494 1.460223 1690649
5.457819 -7.441707 0.595428 1690649
5.556798 -7.481836 0.145370 1690649
5.459751 -7.993711 1.108619 1690649
5.519359 -7.450222 0.599823 1690649
5.576132 -7.443882 1.070444 1690649
5.409353 -7.880178 0.787603 1690649
5.552979 -7.831870 1.272967 1690649
6.103285 -7.968030 0.135601 1690649
5.765604 -7.288275 1.899287 1690649
6.162011 -7.593526 0.961261 1690649
5.955406 -8.064478 1.830647 1690649
6.149431 -7.571589 1.464145 1690649
5.889715 -7.950139 1.063269 1690649
6.019387 -7.510037 1.355983 1690649
5.811944 -8.020491 1.134313 1690649
5.699405 -7.350038 0.772080 1690649
5.833369 -8.088720 0.153900 1690649
5.367310 -7.726848 0.938788 1690649
5.467439 -7.414700 0.300188 1690649
6.066248 -7.557925 1.304777 1690649
5.985468 -7.954516 0.107401 1690649
5.526711 -7.672476 1.053684 1690649
5.818439 -7.895531 0.251754 1690649
5.404105 -7.719994 0.943236 1690649
5.750584 -7.972080 0.460509 1690649
6.143700 -7.505152 0.684225 1690649
5.467504 -7.598294 1.893244 1690649
5.661764 -7.561716 0.244970 1690649
5.884937 -7.711017 0.471685 1690649
6.076350 -7.984428 0.878848 1690649
5.351616 -7.512861 1.403899 1690649
5.548946 -7.580032 1.522713 1690649
5.599923 -7.700382 0.332337 1690649
5.974459 -7.971859 1.459161 1690649
5.681584 -7.731455 0.494269 1690649
5.987519 -7.825676 1.358304 1690649
5.907789 -7.460457 0.195443 1690649
5.401296 -7.703400 0.650735 1690649
6.183774 -7.805962 0.755009 1690649
6.061562 -7.579364 1.316013 1690649
5.656992 -7.599647 0.905439 1690649
5.476367 -7.702929 0.640239 1690649
6.194209 -7.537666 1.198972 1690649
5.820450 -7.821568 1.283322 1690649
5.611973 -7.570426 1.673022 1690649
5.797745 -7.275743 1.191415 1690649
6.180305 -7.661154 1.278752 1690649
5.983948 -7.887429 0.519138 1690649
5.527126 -7.701795 1.007260 1690649
5.847285 -7.685819 1.247644 1690649
5.938612 -7.763764 0.681394 1690649
-4.354162 7.165001 0.471560 10053171
-5.949611 7.088367 0.407404 10053171
-4.441562 6.957780 2.357744 10053171
-5.162007 7.161307 2.877285 10053171
-3.838420 6.982990 0.300232 10053171
-6.676738 6.748273 2.478133 10053171
-4.114454 7.158604 2.547142 10053171
-3.173508 6.933983 1.346395 10053171
-4.391572 6.970788 0.480631 10053171
-3.499546 7.198491 2.552720 10053171
-3.680671 7.178608 2.497497 10053171
-3.282782 6.966701 0.862055 10053171
-3.992496 7.082747 0.165741 10053171
-4.963868 6.811069 1.150370 10053171
-6.837611 6.960153 0.184690 10053171
-4.629016 7.099313 2.198381 10053171
-6.424034 6.963030 1.199273 10053171
-4.661138 6.935663 0.455083 10053171
-6.902366 6.760839 2.845392 10053171
-6.311081 7.217644 2.903423 10053171
-6.066206 7.067045 0.752040 10053171
-6.132506 6.819628 2.804136 10053171
-3.729729 6.852661 2.212203 10053171
-4.816999 7.046016 2.503789 10053171
-6.567945 7.002391 2.638505 10053171
-6.036056 7.158010 1.130578 10053171
-3.398423 7.147975 1.446994 10053171
-4.627832 6.967512 1.344015 10053171
-5.996125 7.243006 2.392818 10053171
-6.675698 7.015496 2.951506 10053171
-6.862553 7.062971 1.102498 10053171
-5.983099 6.765719 0.157446 10053171
-6.115211 7.023266 1.955431 10053171
-3.859931 6.969507 0.591640 10053171
-4.723683 7.161240 0.116630 10053171
-5.871914 7.176764 2.080343 10053171
-4.819817 6.935383 1.395328 10053171
-5.504821 7.243943 2.735798 10053171
-5.054281 6.761197 1.329621 10053171
-6.165720 6.993397 2.536939 10053171
-4.486066 6.918916 2.121954 10053171
-4.115140 7.103465 1.098728 10053171
-3.856260 6.777811 0.888785 10053171
-4.713295 6.942574 2.236141 10053171
-5.538343 6.956372 0.639167 10053171
-3.799775 7.053543 1.163059 10053171
-3.503936 7.063312 2.143017 10053171
-4.297736 7.194472 0.694156 10053171
-4.128918 7.256032 2.563522 10053171
-5.277076 6.965832 1.617376 10053171
-6.758515 7.060969 2.614153 10053171
-5.680666 6.970758 1.218035 10053171
-5.775341 6.858102 2.800475 10053171
-3.551417 6.868591 2.687810 10053171
-3.086556 6.889488 0.627019 10053171
-5.030737 7.021569 2.159910 10053171
-3.526493 7.076398 0.801788 10053171
-5.436952 7.056479 1.597058 10053171
-3.343971 7.065917 2.164351 10053171
-6.444654 7.190069 0.044468 10053171
-6.356713 6.759182 2.590776 10053171
-4.372186 6.941237 2.942217 10053171
-6.313393 6.956822 0.880226 10053171
-3.780651 7.180042 1.049708 10053171
-3.569631 7.070432 2.685615 10053171
-4.152583 6.902039 2.135604 10053171
-6.340963 6.819098 1.076897 10053171
-3.794969 7.016721 1.940499 10053171
-3.892772 7.069511 1.235869 10053171
-5.442699 7.205377 0.710207 10053171
-5.937105 6.947465 2.508293 10053171
-3.270835 6.915984 1.499989 10053171
-6.807708 6.764670 2.273728 10053171
-3.689644 6.976466 0.990690 10053171
-6.505572 7.206338 1.595516 10053171
-5.290041 6.976028 0.859756 10053171
-6.496174 6.887573 0.444161 10053171
-4.522814 7.082966 2.288970 10053171
-6.749100 7.165764 1.131371 10053171
-4.027821 6.898500 0.250168 10053171
-5.793210 7.228952 0.682226 10053171
-6.980042 7.078570 2.918478 10053171
-3.135190 7.056355 2.185539 10053171
-4.151708 7.112400 0.035021 10053171
-4.435674 7.183434 1.345622 10053171
-6.615371 7.202151 0.408469 10053171
-5.836904 6.856082 0.178288 10053171
-3.249264 6.877208 0.157863 10053171
-6.535635 6.927495 1.306303 10053171
-5.968369 6.838193 -0.010960 10053171
-5.463356 7.051383 1.763368 10053171
-6.383548 7.008111 2.972632 10053171
-6.078957 6.854725 2.953902 10053171
-4.251916 7.229109 1.421099 10053171
-4.274992 7.113851 2.180916 10053171
-3.911805 7.199420 2.397057 10053171
-5.675895 7.247350 0.394369 10053171
-5.338786 6.904988 0.458929 10053171
-3.338112 6.972435 0.981410 10053171
-6.860457 6.951266 0.238247 10053171
-4.483661 6.768422 1.783030 10053171
-6.232507 7.228272 1.520232 10053171
-3.855690 7.193413 0.863018 10053171
-3.789748 6.954824 2.087460 10053171
-4.807930 7.137151 1.237393 10053171
-5.645173 7.240455 1.585711 10053171
-4.232186 6.987928 0.421581 10053171
-5.524943 7.192104 0.311694 10053171
-3.263289 7.066523 0.134358 10053171
-5.119069 6.791439 1.791845 10053171
-5.612731 7.052057 2.632726 10053171
-5.453766 6.884684 2.374097 10053171
-4.463982 6.952007 0.684731 10053171
-4.772835 6.939764 2.310511 10053171
-6.490037 6.948075 1.162643 10053171
-5.741111 6.781245 1.399589 10053171
-4.576718 6.921258 1.784370 10053171
-4.068699 7.064184 2.557260 10053171
-3.318561 7.021536 0.181819 10053171
-4.623796 6.761196 1.399958 10053171
-3.799655 7.210851 0.828686 10053171
-5.161291 6.845111 0.228584 10053171
-6.429887 6.755920 0.304735 10053171
-5.584407 7.018188 0.816174 10053171
-3.159265 7.190774 1.549175 10053171
-5.370494 7.070975 2.731330 10053171
-5.316366 6.932960 2.702526 10053171
-4.401217 6.910705 0.774288 10053171
-6.973243 7.107234 2.660573 10053171
-4.281345 7.037661 2.884806 10053171
-4.841364 6.969729 0.256563 10053171
-6.474060 6.894277 2.250678 10053171
-5.356849 6.884366 1.734975 10053171
-5.262211 7.056238 1.650524 10053171
-4.637181 6.829428 0.847032 10053171
-3.289718 6.829147 0.451935 10053171
-4.018318 6.943922 1.206254 10053171
-3.745292 7.194496 0.787644 10053171
-5.099229 7.039455 2.743543 10053171
-4.755260 7.181836 1.090311 10053171
-5.646035 6.790238 2.536952 10053171
-5.413955 7.152968 2.270882 10053171
-6.045965 7.016540 2.969486 10053171
-3.709738 6.943765 1.063817 10053171
-4.236411 7.104455 2.723182 10053171
-5.924244 7.057706 0.642954 10053171
-4.952039 6.814092 2.307889 10053171
-3.937077 6.819155 1.357811 10053171
-6.011383 7.180179 1.735315 10053171
-3.620965 7.197481 0.387390 10053171
-5.864335 6.925816 2.275675 10053171
-6.567354 6.861904 1.762526 10053171
-4.762254 6.800727 2.787447 10053171
-6.494853 7.139463 1.215014 10053171
-3.577245 7.009568 1.078734 10053171
-6.266257 6.812697 1.534395 10053171
-3.015445 6.848287 1.563069 10053171
-6.398840 7.218405 0.948906 10053171
-4.776135 6.969629 1.218765 10053171
-6.401687 7.081468 0.922706 10053171
-6.891226 6.886784 2.271257 10053171
-3.722541 7.208886 1.817393 10053171
-4.223958 7.188522 0.811095 10053171
-6.334237 6.810874 2.926254 10053171
-3.023234 6.766454 2.256142 10053171
-6.425038 6.919310 1.505492 10053171
-6.314546 6.982047 1.005169 10053171
-5.158626 6.777175 1.228918 10053171
-3.949438 7.170389 0.945906 10053171
-6.437592 7.080162 0.850491 10053171
-6.230165 6.751469 2.092572 10053171
-3.532175 7.042608 0.959337 10053171
-5.316250 6.959713 2.296902 10053171
-4.512119 6.774227 0.617944 10053171
-5.575198 7.211520 0.177883 10053171
-3.624764 6.915624 1.824000 10053171
-7.006968 7.188630 2.100404 10053171
-6.183488 7.180380 1.936773 10053171
-4.697214 6.905117 0.415626 10053171
-5.553633 6.930823 1.738081 10053171
-6.732605 6.784356 1.251341 10053171
-5.574176 6.821344 1.502545 10053171
-6.414781 6.877926 2.040454 10053171
-5.984223 6.794311 1.065209 10053171
-5.778361 6.777792 2.059421 10053171
-5.564913 6.811877 1.558159 10053171
-3.374168 7.075195 2.615573 10053171
-5.044389 7.056529 0.346616 10053171
-4.179907 7.196215 0.568364 10053171
-5.059142 7.147756 0.837259 10053171
-6.398878 6.919090 2.848165 10053171
-6.844553 6.824256 2.562717 10053171
-6.730987 6.742531 0.433483 10053171
-3.258148 7.078827 1.568690 10053171
-6.032017 6.756177 2.614571 10053171
-4.078706 6.936496 1.552932 10053171
-6.729722 7.234821 0.592633 10053171
-6.912538 6.973697 2.980977 10053171
-4.492718 6.918708 1.941409 10053171
-4.890491 7.065378 2.557501 10053171
-3.983871 7.093322 0.776968 10053171
-4.146725 7.225872 0.517435 10053171
-3.919208 6.792818 1.134899 10053171
-3.468191 7.202075 2.473803 10053171
-3.397167 7.178590 0.169528 10053171
-3.151316 6.768429 0.466875 10053171
-4.781286 7.226445 1.105392 10053171
-6.916443 7.100689 0.595319 10053171
-6.244031 6.770590 1.879018 10053171
-6.647851 6.933406 0.612692 10053171
-6.356459 7.170220 1.701447 10053171
-6.425412 6.818021 1.125843 10053171
-4.975949 6.816295 0.320609 10053171
-5.285321 7.027461 1.111583 10053171
-6.024867 7.068397 1.256062 10053171
-3.176319 7.009217 2.090377 10053171
-4.523002 6.932943 0.175373 10053171
-6.044768 6.832367 0.161594 10053171
-3.628807 7.144361 0.329099 10053171
-3.344312 7.192787 2.615468 10053171
-4.013835 6.914128 2.669181 10053171
-4.109414 6.829978 2.979936 10053171
-5.538986 7.107909 1.937319 10053171
-4.321946 7.151286 0.745513 10053171
-4.253961 6.945648 0.568846 10053171
-3.641739 7.135629 0.596168 10053171
-3.722222 6.938225 0.916074 10053171
-4.665529 7.033714 0.610346 10053171
-4.182422 6.937874 0.192072 10053171
-6.551828 6.785284 2.373820 10053171
-4.724401 7.164805 0.516284 10053171
-5.165380 6.987457 1.457338 10053171
-6.452091 7.219236 1.327071 10053171
-6.966959 7.027173 2.095639 10053171
-6.609239 7.243309 1.478508 10053171
-5.035344 7.133080 2.890814 10053171
-4.739790 6.842695 0.727089 10053171
-4.294066 6.920252 1.310031 10053171
-5.444889 6.802552 2.061820 10053171
-4.006646 6.763291 2.822989 10053171
-5.949438 7.011986 1.400723 10053171
-6.749578 6.762912 0.266745 10053171
-3.270631 7.149460 2.693854 10053171
-5.102171 7.073230 1.755280 10053171
-5.871668 7.222482 0.500547 10053171
-6.249042 6.893495 1.067025 10053171
-6.946765 7.087338 1.626688 10053171
-5.742796 7.213781 2.555795 10053171
-6.215012 6.926915 2.019234 10053171
-3.790292 6.953380 1.362455 10053171
-5.715923 7.153039 0.894038 10053171
-3.122572 6.811182 0.986306 10053171
-3.926367 6.846950 1.115727 10053171
-5.350704 7.197011 1.636633 10053171
-3.521084 6.752558 0.861008 10053171
-4.680795 7.257358 1.555755 10053171
-3.643698 7.005212 2.213221 10053171
-4.593081 7.115490 2.687093 10053171
-4.903503 7.081869 2.113162 10053171
-6.896157 6.804678 2.392041 10053171
-3.408615 7.112889 0.850276 10053171
-5.531373 7.057761 2.915937 10053171
-4.817917 6.934361 0.659778 10053171
-4.596253 7.008029 2.195771 10053171
-6.916474 7.016569 2.209482 10053171
-3.662286 6.860008 1.233852 10053171
-4.341145 6.930524 0.820799 10053171
-6.446898 6.789012 2.066322 10053171
-6.034575 6.772706 2.088127 10053171
-4.837308 6.777617 0.957416 10053171
-3.721911 6.852627 0.016269 10053171
-4.877598 7.121120 2.457101 10053171
-3.744221 7.020642 2.492733 10053171
-5.179554 7.073951 1.509784 10053171
-6.254470 6.855844 1.589201 10053171
-6.685063 7.174821 2.931745 10053171
-3.944071 6.921194 0.945058 10053171
-6.214274 7.046134 0.949318 10053171
-4.883989 7.163432 1.528492 10053171
-3.312404 7.210975 0.927371 10053171
-6.357192 7.102887 1.843645 10053171
-5.689952 6.818869 1.347291 10053171
-3.553664 6.894615 0.427681 10053171
-5.615430 6.792551 2.109969 10053171
-4.291935 7.239222 0.439622 10053171
-3.196110 6.999121 1.456983 10053171
-3.108569 6.931638 1.815475 10053171
-4.080844 6.757547 0.892584 10053171
-4.272827 7.204362 1.326667 10053171
-3.073818 6.868069 0.300417 10053171
-4.000504 7.137249 1.430713 10053171
-5.437434 6.910190 1.058035 10053171
-3.996685 6.960305 0.360500 10053171
-3.786736 6.934834 0.172268 10053171
-5.725356 7.256941 1.854936 10053171
-5.691939 7.209093 1.794016 10053171
-6.050338 6.744267 2.378510 10053171
-3.610661 6.938702 0.813401 10053171
-5.222944 7.133968 1.188923 10053171
-5.123737 6.840365 2.483296 10053171
-4.278287 7.193469 0.629985 10053171
-6.977296 7.212170 0.060017 10053171
-4.027946 6.775444 1.125603 10053171
-4.048519 6.810382 1.839336 10053171
-5.392595 6.857218 2.738253 10053171
-3.288697 7.043447 1.531403 10053171
-3.310549 7.197785 -0.005444 10053171
-3.233515 6.822423 1.509698 10053171
-4.632275 6.965953 1.578033 10053171
-4.955158 6.863851 0.158322 10053171
-6.810449 6.822026 1.558800 10053171
-5.557504 6.927691 0.139838 10053171
-6.931192 6.904616 1.419849 10053171
-4.205631 6.768985 1.309763 10053171
-6.376219 6.907637 0.228492 10053171
-3.344897 6.753105 2.835675 10053171
-4.113172 6.801443 1.420615 10053171
-4.739537 6.854006 1.920268 10053171
-6.191492 6.791683 0.135241 10053171
-5.203600 7.143741 1.823144 10053171
-6.252509 7.122980 2.243212 10053171
-5.132604 7.076471 1.361801 10053171
-6.456481 6.943142 1.306031 10053171
-5.464097 7.068690 0.280753 10053171
-4.933599 7.174044 1.799809 10053171
-3.860432 6.987017 1.654569 10053171
-5.425197 7.070803 2.707852 10053171
-5.701560 7.047929 2.974386 10053171
-6.832678 7.144551 0.778034 10053171
-4.904500 7.148675 1.136851 10053171
-6.984580 6.943630 0.276896 10053171
-6.734998 6.967769 1.037500 10053171
-4.297606 6.777712 1.934762 10053171
-3.996627 7.175385 0.081520 10053171
-3.132519 7.042716 1.326242 10053171
-3.853167 7.032917 0.403359 10053171
-3.104380 6.752748 1.719651 10053171
-3.475060 6.870419 0.317352 10053171
-6.634218 7.082972 1.210775 10053171
-4.085671 7.149170 0.730741 10053171
-3.798047 7.010186 2.064805 10053171
-3.789558 7.013939 1.220560 10053171
-4.621540 7.147652 2.679385 10053171
-4.611601 7.206560 2.352319 10053171
-6.253256 7.150423 0.866158 10053171
-3.090934 6.894519 0.022397 10053171
-4.385694 6.768248 0.501060 10053171
-5.191075 7.015623 2.853462 10053171
-5.350113 6.994333 2.473932 10053171
-3.658014 7.223795 1.076465 10053171
-4.825430 6.784564 0.073204 10053171
-4.749335 7.112354 0.918600 10053171
-4.082950 6.862861 1.507374 10053171
-3.553777 6.966624 0.992786 10053171
-6.953200 7.109612 0.882977 10053171
-3.899849 6.937415 1.360913 10053171
-3.602509 6.936494 2.718330 10053171
-5.508548 6.834850 2.598690 10053171
-5.398053 6.768203 2.416636 10053171
-3.038144 6.807433 2.918594 10053171
-6.162067 6.814456 2.052198 10053171
-4.425685 7.136664 0.767120 10053171
-4.537432 7.034926 0.695730 10053171
-3.204180 7.229558 2.716225 10053171
-5.876883 7.180869 2.529437 10053171
-4.216053 6.900368 2.149983 10053171
-3.181777 6.931772 0.508131 10053171
-5.016870 6.820415 1.841261 10053171
-3.737004 6.973422 0.082865 10053171
-4.324991 7.229115 0.547980 10053171
-6.189072 6.889509 1.542508 10053171
-3.863452 7.206387 0.592062 10053171
-5.432983 6.799353 1.440778 10053171
-3.204741 6.819586 2.178712 10053171
-3.458776 6.948153 0.342696 10053171
-3.943376 7.249735 2.061327 10053171
-6.181692 7.201662 0.261704 10053171
-6.564591 6.909896 0.541480 10053171
-4.612032 6.881881 1.225811 10053171
-5.124360 6.793999 0.000904 10053171
-5.467459 6.799525 0.539184 10053171
-3.774473 6.780814 0.405314 10053171
-5.332264 7.212842 0.688759 10053171
-3.187609 7.197468 1.368664 10053171
-4.942461 6.767965 2.541883 10053171
-6.732654 7.137511 1.629505 10053171
-4.822900 6.790534 1.172070 10053171
-4.076365 7.045951 1.633356 10053171
-4.069677 7.038429 1.620152 10053171
-3.489192 6.922158 2.942175 10053171
-4.094810 7.152621 2.898760 10053171
-6.601201 6.914564 1.743529 10053171
-5.189112 7.024988 1.697395 10053171
-5.123655 7.167732 2.146593 10053171
-4.518583 6.866520 0.022854 10053171
-5.327566 6.751473 2.578965 10053171
-5.183460 6.756021 1.372747 10053171
-4.060881 6.904296 0.712009 10053171
-4.395935 7.042089 1.043224 10053171
-5.221427 7.138328 0.701777 10053171
-3.770465 6.789624 1.898501 10053171
-3.625934 7.253128 2.734525 10053171
-3.359023 7.147641 1.012633 10053171
-4.078102 7.204431 2.631266 10053171
-3.090331 7.174204 2.873713 10053171
-3.563694 7.041722 1.660471 10053171
-5.327749 7.128316 0.092822 10053171
-3.923782 6.937292 2.296036 10053171
-6.400167 7.015447 2.543388 10053171
-3.112021 7.100177 2.778941 10053171
-4.855129 7.182006 0.119723 10053171
-5.887686 6.884371 0.153768 10053171
-4.277053 7.046878 0.567295 10053171
-4.612778 7.129967 0.024718 10053171
-6.622950 7.206226 1.373724 10053171
-6.037150 6.918805 0.094136 10053171
-5.846522 6.757633 2.884264 10053171
-4.453668 7.038351 2.830855 10053171
-5.622806 7.195767 2.541849 10053171
-3.137631 6.957587 0.614403 10053171
-5.749498 6.969482 0.620389 10053171
-4.069597 7.109221 1.530718 10053171
-4.672575 6.758583 1.659011 10053171
-4.990724 7.144682 1.208024 10053171
-4.427409 6.944433 0.503810 10053171
-5.302574 7.237979 0.301088 10053171
-3.863992 6.952137 0.825648 10053171
-4.241635 6.935771 2.673275 10053171
-5.245708 7.095437 1.723096 10053171
-3.030102 6.979277 0.249137 10053171
-5.421724 6.864865 1.031965 10053171
-6.590008 7.079268 2.713310 10053171
-5.099013 6.813342 1.646010 10053171
-3.040966 6.922754 0.755013 10053171
-6.574050 6.977569 1.174235 10053171
-3.072757 7.001256 0.191905 10053171
-6.260289 7.224041 1.916723 10053171
-3.693423 6.937963 1.362281 10053171
-4.163221 7.112629 0.210969 10053171
-3.849162 7.142367 1.816118 10053171
-4.191944 7.012428 1.336155 10053171
-3.090784 6.817490 0.714265 10053171
-5.602514 7.216020 0.123085 10053171
-5.668839 7.019083 2.804295 10053171
-4.805386 6.923542 1.811228 10053171
-5.944957 7.174625 2.047613 10053171
-3.332411 7.110966 0.988182 10053171
-6.472264 6.805489 0.728202 10053171
-6.578714 7.078457 1.905638 10053171
-3.740483 6.863048 0.031537 10053171
-4.627002 7.130411 2.028974 10053171
-5.605967 6.742518 2.647048 10053171
-3.968874 7.090220 0.425958 10053171
-3.906034 6.780250 1.639920 10053171
-5.387685 7.005890 0.804386 10053171
-4.834374 6.840044 1.732430 10053171
-5.756374 6.950375 1.071205 10053171
-6.629373 6.860460 0.197749 10053171
-4.511312 6.973421 1.708203 10053171
-3.686773 7.110695 2.805695 10053171
-5.694879 6.835055 0.078140 10053171
-5.667793 7.043077 0.400643 10053171
-4.255338 6.868280 0.858064 10053171
-5.885564 6.867234 2.058137 10053171
-4.910249 6.838779 2.921634 10053171
-3.181283 6.983008 2.027503 10053171
-3.612817 6.932218 1.077669 10053171
-4.797076 7.141931 2.871097 10053171
-4.536651 7.157015 1.488237 10053171
-3.461689 7.087748 1.045668 10053171
-3.155108 7.153023 0.531102 10053171
-5.402251 7.097038 0.832710 10053171
-6.653697 6.990235 2.593686 10053171
-3.300395 6.900381 2.383527 10053171
-5.842477 7.143463 2.047939 10053171
-4.685417 6.923320 1.468331 10053171
-4.280014 6.830137 2.117499 10053171
-3.014685 6.750043 2.454741 10053171
-3.030309 6.996869 1.062024 10053171
-4.396147 7.180993 0.295555 10053171
-5.494612 7.244686 2.292477 10053171
-5.582153 7.132965 1.114328 10053171
-3.879117 6.894118 1.852246 10053171
-4.661018 7.114049 2.940607 10053171
-4.744656 7.179690 2.687747 10053171
-6.292355 7.048026 1.593615 10053171
-3.113119 7.189877 0.306204 10053171
-4.508976 6.886701 2.799086 10053171
-3.047726 6.916018 1.101357 10053171
-4.463857 7.255259 2.866495 10053171
-5.013601 6.936424 2.674565 10053171
-3.228066 6.991051 0.501325 10053171
-5.991320 6.814016 0.789475 10053171
-4.679860 7.145473 0.316877 10053171
-3.000824 7.053723 0.541114 10053171
-5.450773 6.903765 1.097343 10053171
-3.925755 6.797004 0.633032 10053171
-6.069763 6.975875 2.719628 10053171
-3.302652 6.917888 0.548544 10053171
-5.736268 6.750837 2.825495 10053171
-4.200319 6.859078 0.641245 10053171
-6.604138 6.997962 2.958043 10053171
-6.914778 7.231355 2.526471 10053171
-6.910094 7.215068 0.725601 10053171
-5.268741 7.005025 2.465261 10053171
-5.198392 6.936522 1.262388 10053171
-3.158362 7.157600 1.891557 10053171
-6.377617 6.956420 1.716066 10053171
-4.083067 6.862467 0.129087 10053171
-3.501338 6.907760 0.007554 10053171
-6.104529 6.890833 1.895327 10053171
-3.113464 7.098382 0.770996 10053171
-3.579688 7.037437 2.732054 10053171
-4.236216 7.042383 2.624130 10053171
-3.447771 6.890378 2.422480 10053171
-5.124106 6.904727 2.884382 10053171
-4.452208 7.131323 1.037257 10053171
-6.596268 6.843266 2.030339 10053171
-3.835022 6.872203 2.294338 10053171
-3.558888 6.990540 1.031425 10053171
-4.284146 6.751762 0.875013 10053171
-3.861902 6.994874 1.004691 10053171
-5.364506 6.960445 2.080936 10053171
-3.225201 6.847826 0.494179 10053171
-3.397231 7.275139 0.653328 10053171
-6.366547 6.750419 1.226528 10053171
-5.819687 7.246094 1.580054 10053171
-3.793986 6.892546 0.812059 10053171
-6.559741 6.871964 1.592556 10053171
-4.375522 6.786939 1.003979 10053171
-5.657293 6.933748 0.067815 10053171
-4.415434 7.040838 1.189368 10053171
-4.186850 6.905459 2.107720 10053171
-3.274124 7.197489 1.292521 10053171
-3.760189 7.225775 2.657128 10053171
-5.888041 6.821544 0.040508 10053171
-5.687835 6.798116 1.564479 10053171
-4.952764 6.966543 2.483144 10053171
-6.091621 7.048586 1.115924 10053171
-6.782208 7.230900 2.126709 10053171
-5.457662 6.877175 1.240686 10053171
-6.185681 6.919850 2.924264 10053171
-5.553392 6.780052 2.405902 10053171
-4.524206 7.189648 1.531272 10053171
-5.300818 6.876985 0.616400 10053171
-6.020405 7.225997 1.490704 10053171
-3.521549 6.862923 2.516751 10053171
-5.669482 6.927392 2.297124 10053171
-6.060363 6.969115 1.449296 10053171
-6.577428 6.890282 1.249282 10053171
-6.781924 7.065379 2.607239 10053171
-6.563154 6.867824 1.824746 10053171
-6.064991 6.974001 2.790969 10053171
-4.211384 7.189888 2.770097 10053171
-4.893832 7.075832 2.199809 10053171
-4.863129 7.138122 0.046967 10053171
-4.096453 6.844371 1.579595 10053171
-6.976901 7.242748 0.318396 10053171
-5.491947 7.132344 0.029861 10053171
-3.517350 6.805110 0.735175 10053171
-6.080275 6.788883 0.886222 10053171
-3.533870 6.805073 2.841795 10053171
-3.569770 7.196998 0.919915 10053171
-5.196911 6.822738 2.957974 10053171
-6.958685 6.867836 2.334177 10053171
-4.321889 6.864513 0.585343 10053171
-4.592142 6.872911 0.876546 10053171
-3.500219 6.824260 0.297914 10053171
-6.429308 6.995335 1.149887 10053171
-5.291143 7.224587 1.645600 10053171
-4.235817 7.189949 1.708177 10053171
-5.774350 7.130494 0.918604 10053171
-4.647261 6.941456 2.959896 10053171
-5.831177 7.025358 1.043112 10053171
-5.200849 7.128684 0.287232 10053171
-4.797062 6.857640 2.731799 10053171
-3.326063 6.996660 0.799965 10053171
-3.907866 7.031096 1.827342 10053171
-5.783895 7.005734 1.289321 10053171
-3.316125 6.955857 1.634701 10053171
-2.985506 7.212001 0.810626 10053171
-3.202533 7.227622 2.780982 10053171
-3.168765 7.178923 2.298779 10053171
-6.069581 6.909709 2.246665 10053171
-6.829896 7.048853 2.054523 10053171
-4.059136 6.794077 1.157216 10053171
-3.192644 7.240030 1.698150 10053171
-6.930144 7.172591 1.464269 10053171
-4.318846 6.905268 1.117066 10053171
-5.293866 7.036499 0.094477 10053171
-6.805210 7.148119 2.886002 10053171
-4.232118 6.822274 2.415388 10053171
-3.463845 7.050864 2.663979 10053171
-3.057684 6.771042 1.154246 10053171
-3.495469 7.225718 0.579586 10053171
-3.475204 6.935154 2.311168 10053171
-4.125717 7.082253 2.703175 10053171
-3.755650 7.050841 2.900773 10053171
-5.764106 6.924618 0.482661 10053171
-4.746386 7.108722 1.554901 10053171
5.894094 -5.982090 1.148861 8342706
6.131830 -5.731511 1.806330 8342706
5.440692 -6.087517 3.644348 8342706
6.176888 -6.476733 0.564839 8342706
5.465240 -6.193373 3.049082 8342706
6.182001 -6.452391 4.072267 8342706
6.339619 -6.060419 4.901643 8342706
6.203285 -5.627195 0.308167 8342706
5.990577 -6.159809 4.000522 8342706
6.184057 -5.981761 0.467825 8342706
5.566370 -5.650790 1.996367 8342706
6.162079 -6.427824 3.296146 8342706
6.545845 -5.793573 4.829719 8342706
6.052924 -5.613410 2.414152 8342706
6.465401 -5.961540 1.315795 8342706
6.072014 -6.211156 2.948983 8342706
6.540409 -5.866978 0.292931 8342706
6.349066 -6.434221 2.987221 8342706
6.306330 -5.528378 2.210939 8342706
6.466748 -6.368606 2.668173 8342706
6.191162 -6.101602 2.970188 8342706
6.269568 -5.572779 2.038702 8342706
5.633426 -6.291823 3.514554 8342706
5.818792 -5.579494 0.190822 8342706
5.638914 -5.787298 0.526183 8342706
6.501300 -5.794744 1.420581 8342706
6.036466 -5.441298 0.776296 8342706
6.202043 -6.330645 1.497005 8342706
6.438323 -6.145211 1.589004 8342706
6.537903 -6.042782 3.473045 8342706
5.613187 -6.192983 3.366093 8342706
5.858296 -6.170815 4.720942 8342706
5.782881 -5.536700 2.054254 8342706
6.319583 -5.769978 2.893371 8342706
6.266469 -5.961455 3.534696 8342706
5.440549 -6.117794 0.543707 8342706
6.393563 -5.818707 1.986727 8342706
5.884953 -5.796013 1.711478 8342706
5.731465 -5.867855 3.165711 8342706
5.637893 -6.170955 1.850888 8342706
5.801915 -5.514590 0.793157 8342706
6.479724 -6.084068 0.387316 8342706
5.990347 -6.142065 4.283699 8342706
5.581279 -6.196178 4.541135 8342706
5.754882 -5.736976 4.154396 8342706
5.740814 -5.934689 3.112310 8342706
6.029229 -5.993307 1.444884 8342706
6.408350 -6.280481 2.004569 8342706
5.678481 -5.725338 3.095582 8342706
6.274516 -6.074040 3.904830 8342706
5.396555 -5.998109 4.575445 8342706
5.958887 -5.471879 4.485826 8342706
5.485616 -5.959963 3.252404 8342706
6.433067 -5.945994 1.953956 8342706
6.162598 -6.482908 4.285438 8342706
6.383145 -5.880237 1.190932 8342706
5.411613 -5.970758 2.338207 8342706
5.515672 -5.759194 4.319335 8342706
6.438685 -5.978597 2.991607 8342706
6.127655 -5.668591 4.833898 8342706
6.271847 -5.875392 2.135564 8342706
5.798432 -5.454146 2.092376 8342706
5.891120 -6.343096 3.526313 8342706
5.984689 -5.521779 3.519910 8342706
5.766559 -6.042511 4.523367 8342706
5.850852 -6.066875 1.756770 8342706
6.178422 -5.732967 1.995895 8342706
6.164113 -6.295892 1.970644 8342706
5.787920 -6.223938 1.547999 8342706
5.603619 -6.257080 1.048462 8342706
5.839796 -6.384860 1.251931 8342706
5.942939 -5.956759 3.017753 8342706
6.055301 -6.113962 4.768109 8342706
5.803260 -5.820939 0.611380 8342706
5.723757 -6.076937 2.510173 8342706
5.953173 -5.984191 3.160670 8342706
5.478660 -6.190967 1.908566 8342706
6.079517 -5.603513 0.141471 8342706
6.439386 -5.946885 1.246392 8342706
6.552074 -6.074810 3.878468 8342706
6.032002 -6.197666 3.276533 8342706
5.574979 -5.644304 1.955148 8342706
6.104650 -6.266261 4.449443 8342706
6.130226 -5.591090 4.625682 8342706
6.408759 -5.695851 0.228585 8342706
5.973403 -6.168835 2.698588 8342706
6.234698 -5.991284 2.416433 8342706
5.490869 -6.168430 3.672701 8342706
6.049237 -6.303822 2.011341 8342706
5.880265 -6.314261 0.993346 8342706
6.187724 -6.410960 4.427303 8342706
5.546716 -5.948386 3.865018 8342706
5.680734 -6.394944 2.529987 8342706
6.100224 -6.494666 1.393886 8342706
5.858421 -5.885881 4.556389 8342706
5.606514 -5.795374 2.338075 8342706
6.450050 -5.833136 2.609526 8342706
6.115809 -6.424335 0.605289 8342706
5.566335 -6.157933 1.876141 8342706
6.310787 -6.038558 1.882631 8342706
6.545303 -6.049255 3.659190 8342706
5.665178 -6.391913 0.607996 8342706
5.671915 -6.480291 0.762572 8342706
6.207983 -6.020820 2.547541 8342706
5.627312 -6.024811 3.308364 8342706
5.761768 -5.582969 4.685580 8342706
5.771133 -6.230142 4.016198 8342706
5.653866 -5.840297 1.215851 8342706
6.417110 -5.959412 4.441560 8342706
5.821177 -5.612364 3.514759 8342706
6.024464 -5.812109 0.929309 8342706
6.145345 -6.360048 1.756825 8342706
6.127851 -5.785552 1.595011 8342706
5.970627 -5.763351 4.077709 8342706
6.028038 -6.197306 4.586784 8342706
5.780486 -6.145130 0.208598 8342706
5.914240 -5.637629 1.668157 8342706
6.193228 -5.617188 3.853748 8342706
5.697665 -5.991448 3.100313 8342706
5.819790 -6.181684 2.588948 8342706
5.668479 -5.855116 2.913594 8342706
5.623690 -6.255159 3.733889 8342706
5.881818 -6.573280 1.057990 8342706
6.104111 -5.807752 1.678183 8342706
6.276738 -6.329595 0.549959 8342706
6.360783 -5.677690 2.288987 8342706
6.122563 -5.565701 3.083943 8342706
5.675716 -5.677198 1.211602 8342706
6.001592 -5.711283 3.695714 8342706
6.197255 -6.023432 4.407077 8342706
6.510288 -6.120048 2.692213 8342706
6.350601 -6.168045 3.346574 8342706
5.685950 -6.295996 4.690916 8342706
6.298825 -5.543766 4.652412 8342706
5.984263 -6.223868 3.552614 8342706
5.750495 -5.668396 2.588949 8342706
6.082981 -6.571155 4.503942 8342706
5.539092 -5.768587 4.258703 8342706
5.545961 -6.157148 2.890932 8342706
6.112630 -5.651084 2.485949 8342706
5.678095 -5.876600 4.046422 8342706
5.901836 -5.453345 3.088358 8342706
6.498333 -5.821198 0.130418 8342706
6.060059 -5.456017 0.408204 8342706
6.398610 -5.717174 0.055949 8342706
6.056313 -5.764185 0.535038 8342706
5.681937 -5.712763 3.085767 8342706
6.354362 -6.241817 1.504509 8342706
6.138639 -5.793525 2.481198 8342706
5.760931 -6.151120 1.586486 8342706
5.985919 -6.216030 0.133012 8342706
5.849629 -6.029459 3.752451 8342706
5.731486 -6.163352 3.394406 8342706
6.301708 -6.254561 4.600415 8342706
6.304968 -6.464810 3.377529 8342706
6.023583 -6.548174 4.177134 8342706
6.019888 -5.673267 4.220219 8342706
5.700115 -5.617329 4.223941 8342706
6.199699 -5.861008 1.883821 8342706
5.509757 -6.244934 4.669299 8342706
5.911510 -6.328614 4.712229 8342706
6.047256 -6.463871 1.326175 8342706
6.145866 -5.624037 2.032431 8342706
5.947470 -6.194247 1.702455 8342706
6.040398 -6.033038 4.539011 8342706
6.086842 -5.636635 1.139929 8342706
6.125146 -6.307936 1.579151 8342706
5.748099 -5.749823 0.132009 8342706
6.350408 -6.166063 3.044786 8342706
6.095023 -5.572386 2.646460 8342706
6.266605 -5.860960 1.006284 8342706
5.614488 -6.084601 1.883660 8342706
5.710083 -5.679442 2.250042 8342706
5.803281 -5.651458 2.619905 8342706
5.531735 -5.919926 3.578536 8342706
6.015140 -5.823854 1.871488 8342706
5.697023 -5.881840 1.469044 8342706
5.751088 -6.261222 2.806725 8342706
6.002594 -6.308620 4.889845 8342706
5.978606 -6.439648 4.823546 8342706
6.080947 -5.593919 3.827058 8342706
5.626750 -5.576043 2.008405 8342706
6.539715 -6.021143 4.260502 8342706
5.683391 -5.587562 1.923085 8342706
6.090352 -6.438292 1.693139 8342706
5.617246 -6.225721 1.872447 8342706
6.344950 -5.910531 3.496547 8342706
6.485015 -5.818839 3.803621 8342706
6.432099 -6.115438 3.865301 8342706
6.150649 -5.861154 3.380142 8342706
6.161144 -6.385721 1.018632 8342706
5.676114 -6.130810 3.343259 8342706
6.504685 -6.308413 0.130430 8342706
6.397187 -6.116126 4.955449 8342706
5.442162 -5.911403 3.802470 8342706
6.482654 -6.035260 0.219510 8342706
6.223064 -5.657443 3.700312 8342706
6.116633 -6.002052 2.472588 8342706
6.270639 -5.987612 0.697978 8342706
6.418507 -5.963720 2.396372 8342706
6.077640 -6.503358 2.769613 8342706
6.394564 -6.088861 1.387477 8342706
6.218618 -5.637263 1.093526 8342706
6.246395 -5.580498 4.327511 8342706
6.159369 -6.482048 0.730606 8342706
5.649350 -6.059887 3.174770 8342706
6.530992 -5.800699 1.097456 8342706
6.192113 -5.796988 2.596158 8342706
5.995056 -6.072151 2.552103 8342706
6.397574 -5.708737 1.816375 8342706
5.990564 -6.121046 3.843597 8342706
6.495279 -6.006750 1.592000 8342706
5.488523 -6.290279 0.737160 8342706
5.818604 -6.370321 4.985613 8342706
6.483516 -5.770593 3.967568 8342706
6.227811 -6.031170 0.121490 8342706
6.257678 -5.824091 3.572396 8342706
6.489076 -6.069795 4.599933 8342706
5.919262 -6.056245 3.134145 8342706
6.395837 -6.240754 1.780351 8342706
6.014521 -5.461143 1.955959 8342706
5.419998 -5.946374 4.246343 8342706
6.089859 -6.078765 2.981823 8342706
6.262486 -5.939841 3.246035 8342706
5.638833 -6.171924 3.350447 8342706
6.153465 -6.367323 4.414316 8342706
6.093684 -5.526469 4.112982 8342706
5.900671 -5.848973 2.907444 8342706
5.420342 -6.107813 2.053305 8342706
6.312114 -6.423676 4.880343 8342706
5.657788 -6.391923 2.924952 8342706
6.326303 -6.347570 2.360665 8342706
6.432364 -5.783504 1.040023 8342706
6.456314 -5.881867 2.265647 8342706
5.998888 -5.506539 2.070395 8342706
6.211921 -5.758938 0.484109 8342706
5.884028 -6.270644 1.583556 8342706
6.410757 -5.770959 2.447682 8342706
6.370662 -5.534797 4.094371 8342706
6.467434 -6.188873 1.477266 8342706
6.167905 -5.806375 3.245057 8342706
5.730195 -6.388407 3.104770 8342706
6.275434 -5.545601 4.490095 8342706
6.028362 -5.886239 0.760479 8342706
5.597455 -6.361973 4.410880 8342706
5.597504 -5.729408 4.259744 8342706
6.204451 -5.826835 1.379076 8342706
5.749862 -5.795453 1.066368 8342706
5.856805 -6.110636 0.637640 8342706
6.164156 -5.441158 1.187905 8342706
6.270190 -5.524724 1.174576 8342706
5.635571 -6.280617 4.279892 8342706
5.946706 -6.048065 4.918878 8342706
6.210795 -5.567916 3.749171 8342706
5.669829 -6.029010 4.271753 8342706
6.098633 -6.558401 4.272161 8342706
5.697777 -5.712451 3.973177 8342706
5.573918 -6.089995 3.756342 8342706
6.220768 -6.398565 1.045054 8342706
6.556403 -5.955503 0.480522 8342706
5.998635 -5.534964 2.936200 8342706
6.195079 -6.402959 1.651765 8342706
5.515647 -6.227113 3.911467 8342706
5.591603 -6.452430 2.798919 8342706
5.773502 -5.519125 2.242127 8342706
6.533448 -6.248096 2.071583 8342706
6.049884 -6.389364 0.543199 8342706
5.449945 -5.869966 2.595051 8342706
5.850108 -5.669026 2.545254 8342706
6.291718 -6.092573 0.218455 8342706
6.050436 -5.609457 4.358719 8342706
6.518832 -6.289949 4.410123 8342706
5.809564 -6.399680 4.401265 8342706
5.453678 -5.761093 4.353818 8342706
5.978765 -5.488789 1.523640 8342706
6.531755 -6.213771 4.031999 8342706
6.388675 -6.177398 1.434693 8342706
5.817723 -6.177283 3.763199 8342706
6.098890 -6.333679 1.928035 8342706
5.542432 -5.632681 3.393919 8342706
5.785420 -6.446012 3.545414 8342706
5.511930 -5.702179 3.928800 8342706
6.181619 -5.539351 0.053936 8342706
6.341131 -5.963763 2.652245 8342706
6.374769 -6.068010 1.747432 8342706
5.784449 -5.807345 3.208044 8342706
6.025298 -5.803717 3.174584 8342706
6.314307 -6.066511 2.044755 8342706
6.361249 -5.814647 2.204753 8342706
6.040692 -5.809550 0.107169 8342706
5.824503 -6.053165 0.108367 8342706
6.221868 -6.464064 0.887564 8342706
6.342624 -6.459763 0.726952 8342706
6.157948 -6.350676 4.237113 8342706
5.845344 -6.527364 1.827170 8342706
5.650875 -5.916157 0.985291 8342706
5.766688 -5.673954 2.688960 8342706
6.207212 -5.739669 0.410464 8342706
6.078785 -5.414343 2.086818 8342706
6.018935 -6.506592 1.076242 8342706
6.247027 -5.548577 1.289986 8342706
6.446478 -5.689011 3.594989 8342706
6.473672 -6.255124 0.331906 8342706
5.772520 -5.917879 4.011547 8342706
6.172729 -6.103122 1.754049 8342706
6.099776 -6.245302 3.249319 8342706
5.609160 -6.246222 3.696524 8342706
6.530381 -6.146643 1.836179 8342706
6.260719 -6.219611 1.695693 8342706
5.563828 -5.790353 2.480374 8342706
6.393651 -6.405193 2.031678 8342706
6.104172 -6.207619 3.579687 8342706
6.143981 -6.574632 4.294394 8342706
6.448320 -6.385218 3.672988 8342706
6.120936 -5.541625 2.020036 8342706
6.096490 -5.462483 0.892480 8342706
6.156321 -6.439230 1.167379 8342706
5.669418 -6.061100 0.119881 8342706
5.836541 -5.609749 2.641462 8342706
5.802711 -6.369729 2.634766 8342706
6.110606 -5.484259 3.486607 8342706
5.755065 -6.276576 3.371228 8342706
6.340933 -6.322621 1.080247 8342706
5.815156 -6.527834 4.753893 8342706
6.258228 -5.680630 4.926427 8342706
5.998805 -6.469305 1.872412 8342706
5.691203 -5.799041 0.324491 8342706
6.293468 -5.534128 4.291685 8342706
5.584583 -5.861081 4.355500 8342706
6.226898 -5.596330 0.486916 8342706
6.281393 -6.373071 4.031271 8342706
6.171098 -6.529140 0.577900 8342706
6.166429 -5.855673 1.024219 8342706
6.445774 -6.144556 2.773444 8342706
6.048061 -6.419540 3.722088 8342706
5.986834 -5.541479 2.037649 8342706
6.446311 -6.172238 3.306350 8342706
6.116179 -5.438705 0.230784 8342706
5.481383 -5.691832 4.396284 8342706
6.169776 -6.348804 1.673285 8342706
6.431557 -5.600399 1.846098 8342706
5.872247 -6.112695 0.914431 8342706
6.361954 -5.596733 3.690157 8342706
5.638090 -6.139904 3.753141 8342706
6.504368 -5.911833 1.173292 8342706
5.742303 -5.989516 2.435376 8342706
6.243971 -6.350831 2.945047 8342706
5.714882 -6.370524 4.093543 8342706
6.052928 -6.264156 3.907391 8342706
6.371652 -5.570529 4.928329 8342706
6.518362 -6.271357 4.658892 8342706
6.028323 -5.947234 3.876221 8342706
6.172637 -6.369102 4.344895 8342706
5.710707 -6.210760 2.009354 8342706
6.453788 -5.865229 2.128026 8342706
6.450550 -5.974486 2.196632 8342706
5.852960 -5.439186 1.055267 8342706
6.497776 -5.790112 0.278554 8342706
5.845102 -5.452925 1.387317 8342706
6.234959 -5.703272 4.823327 8342706
5.966924 -5.628852 1.242632 8342706
6.490726 -5.812329 2.250578 8342706
5.768886 -6.209179 3.696523 8342706
6.266355 -6.188927 1.512872 8342706
5.988683 -6.391126 3.985168 8342706
6.015668 -5.813418 2.283629 8342706
6.155771 -6.053954 4.108143 8342706
6.154747 -6.393223 4.361188 8342706
6.293736 -5.589907 4.744062 8342706
6.368838 -5.820610 3.607425 8342706
6.001087 -5.797370 3.164783 8342706
6.527753 -5.891464 3.035522 8342706
6.280469 -5.882044 2.824360 8342706
6.280915 -6.330324 1.996135 8342706
5.758352 -5.707497 3.632594 8342706
5.716047 -5.716687 3.071828 8342706
6.255671 -5.962024 1.448486 8342706
6.391264 -6.204545 1.080601 8342706
5.843677 -5.594597 2.969215 8342706
5.512521 -5.902152 0.120709 8342706
5.639110 -5.652896 0.442987 8342706
5.597635 -5.574900 2.858293 8342706
6.002502 -5.517917 2.120886 8342706
5.526578 -6.102484 1.907553 8342706
6.129011 -5.507576 3.470586 8342706
5.434362 -5.914873 4.588250 8342706
5.462951 -5.797767 2.923102 8342706
6.182415 -6.315835 1.842496 8342706
5.543016 -6.398508 0.839869 8342706
5.866868 -6.499279 1.611741 8342706
6.072981 -6.343952 3.434030 8342706
5.943530 -6.476352 4.596840 8342706
6.354278 -6.159447 0.790943 8342706
6.508974 -6.331717 1.464989 8342706
6.552886 -5.915850 3.399530 8342706
5.567893 -6.090791 1.104375 8342706
6.280673 -6.281281 1.946942 8342706
6.154213 -6.268931 2.950122 8342706
6.064064 -6.507858 4.972762 8342706
5.997552 -6.444687 0.598753 8342706
6.277414 -5.767808 1.740039 8342706
6.377671 -5.931953 1.298687 8342706
6.248281 -6.409152 0.482438 8342706
6.284058 -6.138562 2.894699 8342706
6.483540 -6.137457 0.079411 8342706
6.062746 -5.661668 1.239249 8342706
6.497036 -6.276647 4.315817 8342706
6.465168 -5.643676 4.805388 8342706
6.486540 -6.162061 3.643792 8342706
6.322925 -6.335386 1.602033 8342706
5.749521 -6.298301 0.444214 8342706
6.164735 -5.589845 2.705808 8342706
6.227307 -6.018731 3.879023 8342706
6.293293 -5.839021 0.395376 8342706
6.190079 -5.843349 3.934522 8342706
5.789618 -6.423854 3.294529 8342706
6.386419 -6.202509 0.013049 8342706
6.354605 -5.737008 1.356011 8342706
6.280468 -6.000879 4.229240 8342706
6.361665 -6.092402 2.035083 8342706
5.776937 -5.579466 4.391258 8342706
5.830900 -6.001901 0.862236 8342706
6.039773 -5.757383 4.213769 8342706
5.505142 -5.716037 4.002671 8342706
6.474911 -6.127968 1.761327 8342706
6.286330 -6.481156 1.695947 8342706
6.277108 -6.210243 4.638391 8342706
5.540551 -6.318252 1.230696 8342706
6.011664 -6.236338 3.479310 8342706
6.246852 -5.563993 3.777187 8342706
6.052078 -6.572380 3.681067 8342706
5.947580 -6.001099 1.749428 8342706
5.788711 -5.630481 2.733890 8342706
6.188663 -6.318927 0.925967 8342706
6.165300 -5.989081 3.899487 8342706
6.132309 -6.293948 1.995799 8342706
5.750193 -6.136411 1.043740 8342706
6.584532 -6.007436 1.741643 8342706
5.732664 -6.098626 4.303062 8342706
6.460120 -5.771874 1.020241 8342706
5.566610 -5.871764 0.779376 8342706
6.304852 -6.005575 4.995947 8342706
