# .PCD v0.7 - Point Cloud Data file format
VERSION 0.7
FIELDS x y z rgb
SIZE 4 4 4 4
TYPE F F F U
COUNT 1 1 1 1
WIDTH 1303
HEIGHT 1
VIEWPOINT 0 0 0 1 0 0 0
POINTS 1303
DATA ascii
-3.578178 -18.254684 0.939484 1645029
-2.933566 -17.633707 1.134900 1645029
-2.888675 -17.809238 1.280917 1645029
-3.121503 -18.100883 0.903550 1645029
-2.887688 -18.194187 1.178570 1645029
-3.295751 -18.196150 1.339134 1645029
-2.976310 -17.719460 1.278515 1645029
-3.117608 -18.369684 0.672010 1645029
-3.016156 -18.441208 0.774743 1645029
-3.251428 -17.761677 1.133905 1645029
-3.023662 -18.260489 0.860387 1645029
-3.193086 -18.008490 0.924483 1645029
-2.790303 -17.970802 1.052625 1645029
-2.847783 -18.107441 1.105050 1645029
-3.307183 -18.172573 0.843929 1645029
-3.458586 -17.970819 0.652864 1645029
-3.313724 -17.969906 1.349166 1645029
-3.285961 -17.987000 0.906093 1645029
-2.729819 -18.298429 0.924596 1645029
-3.129204 -17.978611 1.073844 1645029
-3.052857 -17.585085 1.088886 1645029
-3.567504 -18.301922 1.086549 1645029
-3.072208 -17.949310 1.125283 1645029
-3.337015 -18.347769 1.095436 1645029
-3.303144 -18.151827 0.506065 1645029
-3.490674 -18.054457 0.870031 1645029
-2.880432 -18.169424 1.146888 1645029
-3.107285 -18.073627 1.193658 1645029
-3.241343 -17.861420 0.697962 1645029
-2.986062 -17.906372 0.666335 1645029
-2.977721 -17.621304 1.006670 1645029
-3.025901 -18.016195 0.904770 1645029
-3.210548 -18.021822 0.676763 1645029
-2.813752 -18.311197 0.810846 1645029
-3.228855 -18.455492 0.950833 1645029
-2.753918 -18.076490 0.965283 1645029
-3.177170 -18.196026 0.811718 1645029
-3.288206 -18.331820 1.351045 1645029
-3.193761 -17.891779 0.507205 1645029
-2.684771 -18.039614 1.288517 1645029
-3.419819 -17.690126 0.716319 1645029
-3.408149 -17.820858 0.666936 1645029
-3.016095 -18.475176 0.902944 1645029
-3.383120 -18.188353 0.871650 1645029
-3.101057 -18.433434 0.929167 1645029
-2.974625 -18.111494 0.972617 1645029
-3.427635 -18.134562 1.031021 1645029
-3.250265 -17.778387 0.880843 1645029
-3.229686 -17.529070 0.959393 1645029
-3.335809 -18.117594 1.401993 1645029
-3.228795 -18.153154 1.150131 1645029
-2.998983 -17.862503 1.237016 1645029
-2.776243 -17.902300 1.133211 1645029
-2.661701 -17.921576 1.025171 1645029
-3.413901 -18.373789 1.231614 1645029
-2.833742 -17.705851 1.043670 1645029
-2.739925 -18.032839 1.030876 1645029
-3.376365 -17.809456 0.566113 1645029
-3.222858 -17.715927 1.233896 1645029
-3.085163 -17.628599 1.067922 1645029
-2.956873 -17.843920 0.871607 1645029
-3.112691 -17.838722 0.552977 1645029
-2.827305 -18.019018 1.029163 1645029
-2.766056 -17.776974 1.207877 1645029
17.550806 -5.622372 0.611880 1690649
17.255922 -6.033862 0.786207 1690649
17.465729 -5.987425 0.714787 1690649
16.911715 -6.061536 1.319759 1690649
17.581263 -5.855550 0.509148 1690649
17.275972 -5.800438 0.605626 1690649
17.513214 -5.906505 1.023794 1690649
17.249949 -5.988368 1.060011 1690649
17.767157 -5.974290 1.310905 1690649
17.105049 -5.935727 0.926929 1690649
17.731571 -5.806364 0.521999 1690649
17.385366 -6.045841 1.772997 1690649
17.315855 -6.291674 0.202775 1690649
17.016535 -5.713145 1.061405 1690649
17.407253 -5.583037 1.027712 1690649
17.540913 -6.254624 1.163748 1690649
17.732309 -6.020701 1.022144 1690649
17.157019 -6.058787 0.579340 1690649
17.493446 -5.802707 1.408703 1690649
17.425434 -5.993470 1.142120 1690649
17.432514 -5.528162 1.720575 1690649
17.427429 -6.300559 1.163862 1690649
16.943163 -6.076123 0.854671 1690649
16.917686 -6.082443 0.888316 1690649
17.058186 -5.549725 1.532817 1690649
17.494486 -6.030463 1.850029 1690649
16.994452 -6.030352 1.404021 1690649
17.480247 -5.611937 1.817879 1690649
17.326468 -6.238809 0.615221 1690649
17.560184 -5.668904 1.235956 1690649
17.151543 -5.582311 1.413058 1690649
17.160032 -5.784924 1.615067 1690649
17.692879 -6.119048 0.979416 1690649
17.137968 -5.798800 0.762039 1690649
17.336472 -6.027491 1.049068 1690649
17.601782 -5.569309 1.112233 1690649
16.937668 -5.879400 0.536135 1690649
17.408213 -5.696693 0.634210 1690649
17.014568 -6.037784 1.265546 1690649
17.387691 -5.650451 1.879056 1690649
17.499588 -5.772207 1.064648 1690649
17.182034 -6.202592 0.340661 1690649
17.472363 -5.762892 1.880848 1690649
17.287554 -6.194188 1.009698 1690649
17.050491 -5.598906 1.887829 1690649
17.547562 -6.057596 1.145550 1690649
17.358704 -6.209358 1.422243 1690649
17.292141 -5.731415 0.996168 1690649
17.168076 -5.496423 1.048474 1690649
17.286781 -5.567772 1.367730 1690649
17.135279 -5.745263 1.220224 1690649
17.473783 -5.470900 0.423956 1690649
17.707516 -5.789251 1.509030 1690649
17.101141 -5.684438 1.030393 1690649
16.923153 -6.053831 1.855820 1690649
17.267239 -6.265718 1.701108 1690649
17.156094 -5.991412 0.808513 1690649
17.142628 -5.759050 0.590654 1690649
17.664457 -6.140202 0.916831 1690649
17.307858 -5.928370 1.458239 1690649
16.990913 -5.922372 0.923378 1690649
17.460897 -5.882688 0.135604 1690649
17.075026 -5.752045 0.201638 1690649
17.363077 -6.281704 0.193565 1690649
17.312996 -5.636603 0.982229 1690649
17.434776 -6.088888 1.746554 1690649
17.131931 -6.194386 1.645639 1690649
17.365543 -6.344584 1.782580 1690649
17.115364 -5.729282 0.238991 1690649
16.992016 -6.032187 0.336482 1690649
17.126024 -5.795750 1.324095 1690649
17.450527 -6.030881 0.684885 1690649
17.137375 -6.144536 1.626483 1690649
17.706163 -5.952719 1.151176 1690649
17.465147 -5.908566 0.110847 1690649
17.291569 -5.543391 1.227407 1690649
17.370913 -5.736291 0.226814 1690649
17.306751 -6.242815 1.106834 1690649
17.617014 -5.927967 0.717102 1690649
17.508377 -5.628972 1.192773 1690649
17.268755 -5.495417 0.204910 1690649
17.301025 -6.086305 0.468815 1690649
17.414593 -5.723166 0.915950 1690649
17.181187 -5.856231 1.776293 1690649
16.980194 -5.786088 0.693469 1690649
17.416630 -6.251985 0.206579 1690649
17.300751 -6.249903 1.460559 1690649
17.131474 -6.167295 0.160752 1690649
17.563362 -5.717269 1.504758 1690649
17.613014 -6.118380 1.265899 1690649
17.345402 -5.594663 1.708643 1690649
17.279951 -5.571843 1.114071 1690649
17.531591 -5.599118 0.768470 1690649
17.116949 -5.999323 0.170297 1690649
17.119307 -5.588649 1.273954 1690649
17.610842 -6.199653 0.584433 1690649
17.118546 -5.776168 1.653693 1690649
17.226051 -5.872959 1.898224 1690649
17.608885 -5.726480 0.476084 1690649
17.174335 -6.127458 1.632359 1690649
16.969284 -6.090438 0.979708 1690649
17.208691 -5.596371 1.724834 1690649
17.170256 -6.133674 1.450629 1690649
17.015598 -5.672359 0.626765 1690649
17.112526 -5.680558 0.138940 1690649
17.011787 -6.210434 1.121348 1690649
17.110388 -5.682802 0.619436 1690649
17.136528 -5.687287 1.050181 1690649
16.976999 -6.098493 0.768314 1690649
17.122784 -6.057619 1.259242 1690649
17.667854 -6.174643 0.133806 1690649
17.329634 -5.482558 1.877965 1690649
17.731255 -5.819321 0.973304 1690649
17.511374 -6.290282 1.813674 1690649
17.701061 -5.807988 1.455037 1690649
17.458992 -6.167183 1.051863 1690649
17.578812 -5.709874 1.363043 1690649
17.356352 -6.233651 1.151723 1690649
17.260857 -5.569023 0.765622 1690649
17.394558 -6.280731 0.158189 1690649
16.941833 -5.951639 0.964041 1690649
17.010956 -5.633274 0.299388 1690649
17.608727 -5.767745 1.318588 1690649
17.530861 -6.189881 0.089313 1690649
17.110914 -5.921471 1.064320 1690649
17.383221 -6.119448 0.253997 1690649
16.970329 -5.954236 0.945439 1690649
17.308220 -6.180971 0.458957 1690649
17.712612 -5.712758 0.684100 1690649
17.024225 -5.807286 1.862470 1690649
17.213526 -5.771409 0.244461 1690649
17.430065 -5.945289 0.463067 1690649
17.616941 -6.225163 0.879351 1690649
16.902111 -5.732444 1.420157 1690649
17.087395 -5.791520 1.521227 1690649
17.148129 -5.903509 0.309897 1690649
17.503948 -6.187222 1.463863 1690649
17.259075 -5.939735 0.531654 1690649
17.546759 -6.032322 1.364736 1690649
17.464909 -5.697838 0.200416 1690649
16.940273 -5.941424 0.658919 1690649
17.743963 -6.008405 0.751462 1690649
17.621351 -5.772712 1.280586 1690649
17.205116 -5.815681 0.911164 1690649
17.033525 -5.919712 0.637776 1690649
17.756351 -5.759048 1.184363 1690649
17.394325 -6.031686 1.294239 1690649
17.155325 -5.796769 1.685795 1690649
17.349815 -5.504220 1.196615 1690649
17.731424 -5.892590 1.267266 1690649
17.544668 -6.099174 0.520066 1690649
17.086235 -5.893003 1.009293 1690649
17.420767 -5.895697 1.208202 1690649
17.476160 -5.993828 0.684000 1690649
-4.352327 7.157743 0.474441 10053171
-5.973570 7.103620 0.421185 10053171
-4.457964 6.975598 2.359565 10053171
-5.173142 7.167505 2.889557 10053171
-3.835840 6.989605 0.293874 10053171
-6.670865 6.756379 2.489884 10053171
-4.095425 7.158437 2.563090 10053171
-3.161517 6.951634 1.335150 10053171
-4.386130 6.988050 0.516178 10053171
-3.503652 7.202545 2.571229 10053171
-3.687515 7.208151 2.494298 10053171
-3.280150 6.963054 0.847046 10053171
-4.014654 7.068242 0.157195 10053171
-4.971521 6.816613 1.145508 10053171
-6.830186 6.967367 0.181651 10053171
-4.613520 7.135964 2.202160 10053171
-6.417977 6.978214 1.220481 10053171
-4.653548 6.952753 0.469230 10053171
-6.879534 6.737243 2.812950 10053171
-6.311518 7.214686 2.880729 10053171
-6.085688 7.067210 0.763647 10053171
-6.122149 6.802329 2.799695 10053171
-3.738171 6.844801 2.229111 10053171
-4.817373 7.044248 2.499953 10053171
-6.589551 6.996886 2.648455 10053171
-6.068844 7.153099 1.122465 10053171
-3.402530 7.166632 1.431680 10053171
-4.603697 6.942686 1.354910 10053171
-6.000309 7.213648 2.394288 10053171
-6.693382 7.024400 2.957849 10053171
-6.871516 7.074812 1.128319 10053171
-5.980054 6.771357 0.149425 10053171
-6.125498 7.029924 1.971268 10053171
-3.867505 6.958486 0.573609 10053171
-4.718632 7.138286 0.111728 10053171
-5.865888 7.168092 2.073735 10053171
-4.836507 6.954485 1.390616 10053171
-5.502877 7.238432 2.749485 10053171
-5.054075 6.755143 1.313371 10053171
-6.158791 6.973870 2.554014 10053171
-4.464563 6.911087 2.112039 10053171
-4.114644 7.120946 1.098906 10053171
-3.856439 6.770357 0.885785 10053171
-4.736028 6.952646 2.244713 10053171
-5.545417 6.952081 0.660012 10053171
-3.796840 7.037167 1.152767 10053171
-3.494721 7.069495 2.128333 10053171
-4.299747 7.173544 0.718310 10053171
-4.115589 7.253360 2.536004 10053171
-5.288404 6.960928 1.612393 10053171
-6.759517 7.068726 2.626803 10053171
-5.685593 6.982838 1.204605 10053171
-5.756327 6.870539 2.808797 10053171
-3.546230 6.848129 2.688857 10053171
-3.079991 6.908026 0.621367 10053171
-5.023519 7.044705 2.164866 10053171
-3.504189 7.058999 0.809947 10053171
-5.446581 7.061687 1.614179 10053171
-3.338635 7.067856 2.155965 10053171
-6.461617 7.191441 0.018031 10053171
-6.373536 6.738931 2.581645 10053171
-4.412649 6.937909 2.934615 10053171
-6.312578 6.948797 0.866883 10053171
-3.757080 7.163235 1.032797 10053171
-3.576637 7.054394 2.683529 10053171
-4.176138 6.935055 2.149582 10053171
-6.351207 6.825316 1.055273 10053171
-3.778272 7.021195 1.929809 10053171
-3.871857 7.047381 1.225169 10053171
-5.449223 7.196278 0.690963 10053171
-5.940708 6.936400 2.517699 10053171
-3.279231 6.907119 1.501642 10053171
-6.793053 6.760417 2.295744 10053171
-3.686749 6.980489 0.982310 10053171
-6.501304 7.207360 1.568341 10053171
-5.291293 6.983284 0.865742 10053171
-6.497340 6.908168 0.436146 10053171
-4.530548 7.099418 2.267277 10053171
-6.739691 7.169798 1.123150 10053171
-4.025499 6.890226 0.253082 10053171
-5.790491 7.206082 0.702227 10053171
-6.987525 7.074504 2.924388 10053171
-3.112850 7.084812 2.173384 10053171
-4.152848 7.073523 0.024239 10053171
-4.425633 7.153376 1.344769 10053171
-6.618833 7.210380 0.402007 10053171
-5.832453 6.851644 0.165190 10053171
-3.262264 6.880192 0.157763 10053171
-6.539231 6.930832 1.340242 10053171
-5.964901 6.856319 0.010348 10053171
-5.454042 7.055642 1.770308 10053171
-6.396129 7.002390 2.969614 10053171
-6.071438 6.833147 2.957413 10053171
-4.250453 7.222988 1.410625 10053171
-4.290342 7.091962 2.192184 10053171
-3.918549 7.198752 2.408702 10053171
-5.671060 7.208336 0.374341 10053171
-5.343416 6.902066 0.454046 10053171
-3.350657 6.955694 0.983192 10053171
-6.871710 6.960243 0.256980 10053171
-4.493005 6.811018 1.774781 10053171
-6.233840 7.227132 1.530744 10053171
-3.842591 7.191999 0.872260 10053171
-3.768580 6.991158 2.085544 10053171
-4.814242 7.129577 1.247129 10053171
-5.635615 7.243284 1.590051 10053171
-4.254010 6.962788 0.398417 10053171
-5.513974 7.202138 0.317373 10053171
-3.263407 7.079259 0.135763 10053171
-5.120492 6.793220 1.791318 10053171
-5.622102 7.044421 2.640561 10053171
-5.449963 6.893896 2.377432 10053171
-4.476269 6.948002 0.679914 10053171
-4.769577 6.922928 2.318411 10053171
-6.485837 6.957300 1.172719 10053171
-5.734704 6.775555 1.371505 10053171
-4.576688 6.909474 1.766210 10053171
-4.045219 7.066914 2.565347 10053171
-3.334135 7.032413 0.174400 10053171
-4.651095 6.744673 1.402729 10053171
-3.813736 7.188643 0.831185 10053171
-5.174893 6.859996 0.239494 10053171
-6.425626 6.760963 0.296364 10053171
-5.561780 7.042642 0.816290 10053171
-3.136478 7.190560 1.548943 10053171
-5.382157 7.073224 2.736933 10053171
-5.312764 6.916170 2.690507 10053171
-4.380890 6.903188 0.784561 10053171
-6.980880 7.104220 2.680190 10053171
-4.277908 7.043149 2.896023 10053171
-4.874955 6.955099 0.221274 10053171
-6.497453 6.895634 2.243707 10053171
-5.350749 6.891905 1.738490 10053171
-5.249843 7.053469 1.635610 10053171
-4.654882 6.851124 0.812281 10053171
-3.273381 6.829185 0.436981 10053171
-4.002903 6.953629 1.206769 10053171
-3.745714 7.227263 0.781973 10053171
-5.095200 7.049098 2.749420 10053171
-4.754555 7.194452 1.091746 10053171
-5.664683 6.775546 2.571487 10053171
-5.410293 7.168476 2.294968 10053171
-6.047893 7.002932 2.973161 10053171
-3.710225 6.951238 1.069401 10053171
-4.236507 7.074777 2.738586 10053171
-5.919342 7.046121 0.653309 10053171
-4.967583 6.817731 2.314353 10053171
-3.904127 6.815017 1.376528 10053171
-5.994291 7.196598 1.748642 10053171
-3.619828 7.212207 0.395917 10053171
-5.876845 6.915947 2.264503 10053171
-6.549074 6.873225 1.764731 10053171
-4.743828 6.782431 2.793097 10053171
-6.505771 7.158772 1.206257 10053171
-3.568646 7.012511 1.085302 10053171
-6.250776 6.822582 1.530085 10053171
-3.030764 6.868161 1.565978 10053171
-6.378752 7.228248 0.952624 10053171
-4.796823 6.981252 1.232275 10053171
-6.419295 7.094699 0.949311 10053171
-6.903096 6.884237 2.251245 10053171
-3.729437 7.215185 1.806836 10053171
-4.225995 7.167524 0.798246 10053171
-6.304482 6.804046 2.927082 10053171
-3.052048 6.760167 2.282361 10053171
-6.433558 6.910787 1.493748 10053171
-6.289635 6.990602 1.013556 10053171
-5.153689 6.769042 1.218430 10053171
-3.955418 7.170155 0.941073 10053171
-6.415047 7.089211 0.860312 10053171
-6.211155 6.755949 2.089613 10053171
-3.516429 7.034925 0.939325 10053171
-5.331080 6.967813 2.320373 10053171
-4.491304 6.758449 0.620327 10053171
-5.579506 7.207048 0.168261 10053171
-3.614483 6.922713 1.821234 10053171
-6.991105 7.168176 2.081661 10053171
-6.179178 7.166760 1.936940 10053171
-4.700969 6.893982 0.450640 10053171
-5.548398 6.957521 1.746319 10053171
-6.761317 6.775185 1.258325 10053171
-5.589935 6.813272 1.498540 10053171
-6.408369 6.871925 2.025703 10053171
-5.976813 6.777017 1.061309 10053171
-5.770369 6.778279 2.077880 10053171
-5.547216 6.811332 1.552832 10053171
-3.364682 7.069636 2.622275 10053171
-5.050729 7.026256 0.365673 10053171
-4.195204 7.187187 0.571410 10053171
-5.054997 7.129489 0.824916 10053171
-6.385348 6.907138 2.858489 10053171
-6.855319 6.820711 2.538135 10053171
-6.705861 6.777171 0.421247 10053171
-3.240954 7.099696 1.577572 10053171
-6.042640 6.757776 2.611103 10053171
-4.073041 6.926158 1.552270 10053171
-6.720442 7.224340 0.594721 10053171
-6.909494 6.939444 2.966115 10053171
-4.483961 6.937130 1.947486 10053171
-4.903152 7.089525 2.573542 10053171
-3.969490 7.114707 0.775351 10053171
-4.134170 7.245754 0.515484 10053171
-3.904329 6.774626 1.138398 10053171
-3.480508 7.217881 2.459564 10053171
-3.395697 7.188872 0.162553 10053171
-3.162637 6.800817 0.441623 10053171
-4.791668 7.210058 1.090114 10053171
-6.936738 7.080411 0.564334 10053171
-6.260980 6.761858 1.867220 10053171
-6.628590 6.935894 0.639895 10053171
-6.357845 7.172251 1.714146 10053171
-6.415293 6.804090 1.123573 10053171
-4.974036 6.836505 0.294776 10053171
-5.289563 7.045103 1.118918 10053171
-5.990670 7.079154 1.254228 10053171
-3.180450 7.036155 2.092690 10053171
-4.541248 6.911442 0.177043 10053171
-6.025559 6.842035 0.166404 10053171
-3.632726 7.161415 0.331712 10053171
-3.336107 7.190112 2.611706 10053171
-4.022017 6.903114 2.669430 10053171
-4.127762 6.845101 2.980038 10053171
-5.532607 7.093296 1.925591 10053171
-4.318812 7.156601 0.734860 10053171
-4.255119 6.943370 0.569153 10053171
-3.613409 7.132838 0.606426 10053171
-3.707097 6.960135 0.892167 10053171
-4.662753 7.037158 0.610518 10053171
-4.181677 6.928008 0.203830 10053171
-6.539420 6.787021 2.383972 10053171
-4.724713 7.180725 0.489824 10053171
-5.166444 6.977909 1.469369 10053171
-6.443082 7.245587 1.323946 10053171
-6.962704 7.020999 2.094773 10053171
-6.598544 7.223430 1.484719 10053171
-5.034437 7.149749 2.861116 10053171
-4.716142 6.837786 0.747326 10053171
-4.282975 6.919191 1.312427 10053171
-5.430507 6.817920 2.085563 10053171
-3.996516 6.762850 2.814190 10053171
-5.958509 7.024732 1.392583 10053171
-6.739520 6.777722 0.266652 10053171
-3.275288 7.144355 2.697728 10053171
-5.088959 7.059660 1.729959 10053171
-5.841777 7.181833 0.489096 10053171
-6.252431 6.879564 1.060623 10053171
-6.950315 7.090942 1.624662 10053171
-5.749197 7.191380 2.562766 10053171
-6.201916 6.944928 1.998985 10053171
-3.775869 6.948936 1.342489 10053171
-5.715121 7.152022 0.879637 10053171
-3.106912 6.803182 0.963508 10053171
-3.920898 6.854690 1.120476 10053171
-5.347584 7.173748 1.635059 10053171
-3.507375 6.761591 0.850233 10053171
-4.674037 7.236439 1.554026 10053171
-3.640887 6.993132 2.204584 10053171
-4.574438 7.116598 2.698169 10053171
-4.915231 7.103313 2.100918 10053171
-6.907530 6.787511 2.363639 10053171
-3.428126 7.103996 0.860116 10053171
-5.509041 7.045235 2.936081 10053171
-4.828947 6.927637 0.677857 10053171
-4.600833 7.011047 2.164049 10053171
-6.907113 7.019690 2.217483 10053171
-3.670797 6.846048 1.250143 10053171
-4.317040 6.920936 0.827311 10053171
-6.427672 6.766925 2.083280 10053171
-6.028618 6.792179 2.076983 10053171
-4.836583 6.768734 0.946822 10053171
-3.704062 6.865595 0.016659 10053171
-4.861338 7.125849 2.465665 10053171
-3.764287 7.013196 2.468205 10053171
-5.190813 7.094377 1.513365 10053171
-6.234540 6.853626 1.583273 10053171
-6.683267 7.173170 2.933087 10053171
-3.954191 6.908910 0.926070 10053171
-6.247439 7.020920 0.947495 10053171
-4.882929 7.154416 1.490767 10053171
-3.268283 7.222482 0.921335 10053171
-6.337730 7.082591 1.852101 10053171
-5.699423 6.803343 1.297317 10053171
-3.562298 6.907207 0.412911 10053171
-5.630010 6.804907 2.118685 10053171
-4.316980 7.239761 0.449355 10053171
-3.210725 7.020259 1.440504 10053171
-3.118642 6.950921 1.813800 10053171
-4.089321 6.744345 0.897424 10053171
-4.283994 7.192858 1.321392 10053171
-3.095315 6.857112 0.297771 10053171
-4.010386 7.138189 1.405369 10053171
-5.447973 6.919349 1.067896 10053171
-3.977482 6.948204 0.384733 10053171
-3.775197 6.935180 0.168239 10053171
-5.715703 7.241765 1.856693 10053171
-5.695815 7.214432 1.779477 10053171
-6.022513 6.779051 2.385721 10053171
-3.601191 6.958460 0.802097 10053171
-5.202858 7.121764 1.202203 10053171
-5.129172 6.839905 2.474055 10053171
-4.282786 7.184208 0.633486 10053171
-6.966665 7.231881 0.053689 10053171
-4.008439 6.785384 1.113571 10053171
-4.038760 6.776892 1.846191 10053171
-5.391285 6.836701 2.725183 10053171
-3.283479 7.030154 1.532553 10053171
-3.303604 7.200600 -0.001477 10053171
-3.232089 6.806064 1.473552 10053171
-4.625843 6.948744 1.559417 10053171
-4.958259 6.847323 0.152033 10053171
-6.800877 6.846329 1.542578 10053171
-5.544466 6.928050 0.152103 10053171
-6.903699 6.904313 1.414320 10053171
-4.180652 6.771299 1.326278 10053171
-6.383107 6.925625 0.222393 10053171
-3.348610 6.758058 2.831513 10053171
-4.120078 6.786031 1.407925 10053171
-4.738676 6.826095 1.916963 10053171
-6.170604 6.782727 0.128904 10053171
-5.189064 7.127500 1.866785 10053171
-6.248356 7.109395 2.263730 10053171
-5.149448 7.069201 1.382450 10053171
-6.451383 6.941667 1.325934 10053171
-5.457403 7.061432 0.291467 10053171
-4.946744 7.147661 1.785598 10053171
-3.847204 6.993625 1.635199 10053171
-5.425918 7.062917 2.696766 10053171
-5.703877 7.056468 2.988502 10053171
-6.830239 7.151203 0.774722 10053171
-4.897911 7.167078 1.131310 10053171
-6.976638 6.936794 0.280261 10053171
-6.735453 6.983912 1.034382 10053171
-4.316531 6.792562 1.944105 10053171
-3.996610 7.170697 0.076930 10053171
-3.103669 7.037616 1.319076 10053171
-3.866296 7.006408 0.420936 10053171
-3.146337 6.735751 1.712677 10053171
-3.484455 6.849836 0.299799 10053171
-6.626556 7.084877 1.221132 10053171
-4.094591 7.123813 0.760650 10053171
-3.804168 6.999554 2.068394 10053171
-3.793354 7.016284 1.245785 10053171
-4.624290 7.149780 2.670962 10053171
-4.601934 7.225045 2.347201 10053171
-6.251074 7.147548 0.857369 10053171
-3.094281 6.907929 0.018988 10053171
-4.405314 6.739877 0.521269 10053171
-5.191232 7.012293 2.843020 10053171
-5.348806 6.996119 2.476562 10053171
-3.674226 7.215710 1.074564 10053171
-4.848673 6.780201 0.073533 10053171
-4.734127 7.128623 0.901906 10053171
-4.077618 6.887463 1.518933 10053171
-3.541809 6.975160 0.991503 10053171
-6.954289 7.111150 0.890625 10053171
-3.902971 6.938173 1.358240 10053171
-3.611537 6.937129 2.740834 10053171
-5.501724 6.820723 2.585421 10053171
-5.382369 6.760120 2.413933 10053171
-3.023481 6.809611 2.930640 10053171
-6.157052 6.850858 2.053307 10053171
-4.447298 7.158194 0.779676 10053171
-4.515685 7.049548 0.691975 10053171
-3.170331 7.203981 2.737328 10053171
-5.879395 7.206596 2.531511 10053171
-4.210857 6.905850 2.130470 10053171
-3.206117 6.926091 0.504955 10053171
-5.004036 6.827845 1.839378 10053171
-3.727350 6.973493 0.093232 10053171
-4.332484 7.218353 0.531467 10053171
-6.193058 6.883480 1.531186 10053171
-3.869858 7.204488 0.591928 10053171
-5.453538 6.772711 1.459227 10053171
-3.220094 6.809218 2.179119 10053171
-3.461794 6.948327 0.329433 10053171
-3.946498 7.228095 2.062406 10053171
-6.173929 7.198580 0.247255 10053171
-6.576916 6.882017 0.538856 10053171
-4.612925 6.890095 1.259406 10053171
-5.147325 6.801936 0.006556 10053171
-5.460547 6.802758 0.534779 10053171
-3.785921 6.800641 0.402174 10053171
-5.345694 7.234046 0.684249 10053171
-3.178591 7.189514 1.376990 10053171
-4.917663 6.749883 2.548576 10053171
-6.746351 7.125737 1.627444 10053171
-4.817141 6.780254 1.186217 10053171
-4.083302 7.036694 1.627313 10053171
-4.064036 7.005775 1.618982 10053171
-3.492992 6.922735 2.929387 10053171
-4.080477 7.156470 2.889277 10053171
-6.609710 6.921065 1.739271 10053171
-5.196534 7.059640 1.700356 10053171
-5.109278 7.175858 2.156444 10053171
-4.513114 6.848372 0.039631 10053171
-5.319382 6.739377 2.572283 10053171
-5.185852 6.756814 1.363438 10053171
-4.087365 6.889273 0.734713 10053171
-4.389394 7.051099 1.039430 10053171
-5.230273 7.139063 0.698964 10053171
-3.742413 6.789198 1.914172 10053171
-3.661105 7.244638 2.742134 10053171
-3.365222 7.150940 0.990162 10053171
-4.064278 7.213610 2.643378 10053171
-3.107499 7.178233 2.885392 10053171
-3.568325 7.026780 1.655046 10053171
-5.320101 7.135470 0.094143 10053171
-3.930933 6.940572 2.294262 10053171
-6.420199 7.026223 2.561612 10053171
-3.119531 7.099813 2.770174 10053171
-4.861850 7.168430 0.136099 10053171
-5.884921 6.902192 0.145634 10053171
-4.270414 7.042515 0.563595 10053171
-4.649498 7.138060 0.017435 10053171
-6.624697 7.211393 1.375257 10053171
-6.050437 6.949799 0.080253 10053171
-5.838216 6.761212 2.901172 10053171
-4.467018 7.030310 2.842855 10053171
-5.613277 7.200118 2.538384 10053171
-3.130969 6.966442 0.632131 10053171
-5.750764 6.958961 0.611652 10053171
-4.060326 7.112883 1.525349 10053171
-4.692124 6.775352 1.648101 10053171
-4.990692 7.124708 1.233401 10053171
-4.425354 6.952169 0.495997 10053171
-5.295256 7.228081 0.318192 10053171
-3.853113 6.953233 0.836330 10053171
-4.265164 6.921986 2.680696 10053171
-5.241042 7.121427 1.710239 10053171
-3.013798 6.990635 0.247350 10053171
-5.426449 6.857934 1.063671 10053171
-6.573558 7.075844 2.722329 10053171
-5.118990 6.814192 1.662953 10053171
-3.032299 6.924891 0.760197 10053171
-6.565699 6.977973 1.179266 10053171
-3.084003 6.997015 0.198874 10053171
-6.268207 7.235645 1.896471 10053171
-3.704144 6.941104 1.369711 10053171
-4.179385 7.097060 0.206634 10053171
-3.852811 7.146028 1.795848 10053171
-4.184975 7.019364 1.349999 10053171
-3.084466 6.805783 0.741571 10053171
-5.595742 7.232451 0.118680 10053171
-5.662195 7.024104 2.813535 10053171
-4.800149 6.939004 1.810243 10053171
-5.946439 7.165631 2.036607 10053171
-3.334216 7.108308 0.988432 10053171
-6.494526 6.811814 0.739724 10053171
-6.594370 7.059008 1.907257 10053171
-3.737074 6.859669 0.041939 10053171
-4.640945 7.115694 2.023709 10053171
-5.588800 6.773662 2.656429 10053171
-3.975974 7.105335 0.435421 10053171
-3.903171 6.774384 1.637529 10053171
-5.382244 7.025019 0.807957 10053171
-4.847574 6.828043 1.741875 10053171
-5.753395 6.928463 1.081812 10053171
-6.609419 6.855965 0.158320 10053171
-4.532528 6.975164 1.703011 10053171
-3.716328 7.123241 2.789049 10053171
-5.723843 6.851082 0.070728 10053171
-5.661870 7.055430 0.373325 10053171
-4.259732 6.853030 0.856097 10053171
-5.861920 6.851768 2.065296 10053171
-4.908448 6.837036 2.915194 10053171
-3.191325 6.994271 2.029274 10053171
-3.628087 6.898664 1.098198 10053171
-4.808771 7.149078 2.863234 10053171
-4.536844 7.151713 1.477943 10053171
-3.456076 7.103745 1.087456 10053171
-3.151076 7.156795 0.495742 10053171
-5.430249 7.090759 0.806810 10053171
-6.655861 6.968523 2.569538 10053171
-3.289721 6.893158 2.376461 10053171
-5.833750 7.144331 2.067323 10053171
-4.669458 6.906827 1.477724 10053171
-4.302763 6.820168 2.099680 10053171
-3.018697 6.763558 2.462643 10053171
-3.035742 6.981555 1.065594 10053171
-4.381537 7.204962 0.313066 10053171
-5.470971 7.229704 2.299500 10053171
-5.606306 7.130301 1.128650 10053171
-3.880215 6.874879 1.855792 10053171
-4.668825 7.089070 2.924235 10053171
-4.731216 7.167615 2.675902 10053171
-6.297343 7.054438 1.601424 10053171
-3.125596 7.203132 0.309613 10053171
-4.506406 6.873806 2.779192 10053171
-3.059080 6.923303 1.114451 10053171
-4.431513 7.232242 2.839730 10053171
-5.026928 6.905050 2.682872 10053171
-3.215887 6.989164 0.509327 10053171
-5.976082 6.848458 0.784117 10053171
-4.699865 7.155047 0.294194 10053171
-3.001166 7.052773 0.568777 10053171
-5.427583 6.907287 1.101443 10053171
-3.926095 6.795217 0.601718 10053171
-6.076577 6.980465 2.714398 10053171
-3.303917 6.924883 0.558695 10053171
-5.718825 6.746467 2.827602 10053171
-4.190190 6.847671 0.636380 10053171
-6.604341 6.988640 2.943493 10053171
-6.908661 7.236141 2.524985 10053171
-6.911246 7.203947 0.750569 10053171
-5.274990 6.990138 2.457318 10053171
-5.222972 6.976066 1.273717 10053171
-3.180604 7.157766 1.910899 10053171
-6.393988 6.965480 1.708341 10053171
-4.083405 6.854174 0.123615 10053171
-3.521097 6.889141 0.008451 10053171
-6.116598 6.879191 1.899752 10053171
-3.093923 7.067850 0.766111 10053171
-3.553147 7.018287 2.726861 10053171
-4.253343 7.057137 2.625797 10053171
-3.439603 6.900023 2.437202 10053171
-5.111800 6.895169 2.874853 10053171
-4.458040 7.131833 1.034094 10053171
-6.608845 6.842411 2.056243 10053171
-3.843305 6.876606 2.283126 10053171
-3.562847 6.975955 1.028047 10053171
-4.285107 6.776607 0.877858 10053171
-3.872033 7.008947 0.995607 10053171
-5.340795 6.955637 2.091541 10053171
-3.248477 6.839724 0.514206 10053171
-3.403658 7.262959 0.634050 10053171
-6.367737 6.752830 1.223078 10053171
-5.808734 7.231022 1.607406 10053171
-3.780882 6.891439 0.812763 10053171
-6.567138 6.854747 1.608969 10053171
-4.355361 6.784143 0.976733 10053171
-5.652519 6.927873 0.065597 10053171
-4.409894 7.030998 1.198745 10053171
-4.186036 6.905094 2.122334 10053171
-3.270546 7.167578 1.304840 10053171
-3.747886 7.218131 2.663943 10053171
-5.888698 6.829383 0.039350 10053171
-5.686047 6.790023 1.567330 10053171
-4.954498 6.961478 2.456365 10053171
-6.091490 7.067251 1.109847 10053171
-6.775276 7.226023 2.106900 10053171
-5.474202 6.871175 1.215808 10053171
-6.188205 6.917702 2.908603 10053171
-5.557281 6.768300 2.423508 10053171
-4.532564 7.184586 1.518933 10053171
-5.298238 6.879334 0.632383 10053171
-6.021430 7.222428 1.493567 10053171
-3.535630 6.853849 2.525778 10053171
-5.669694 6.954856 2.272598 10053171
-6.079141 6.963643 1.448511 10053171
-6.575269 6.878190 1.238711 10053171
-6.767042 7.069641 2.622646 10053171
-6.557628 6.850474 1.812650 10053171
-6.077964 6.970842 2.776435 10053171
-4.215599 7.178230 2.788728 10053171
-4.898926 7.076631 2.188220 10053171
-4.879488 7.140067 0.059776 10053171
-4.085398 6.840483 1.566981 10053171
-6.989800 7.230805 0.309259 10053171
-5.483759 7.148900 0.037049 10053171
-3.506477 6.821357 0.717440 10053171
-6.081961 6.776088 0.897040 10053171
-3.536127 6.832680 2.837168 10053171
-3.537272 7.172637 0.906928 10053171
-5.217351 6.814400 2.961210 10053171
-6.958240 6.852416 2.325805 10053171
-4.316499 6.840232 0.579727 10053171
-4.569724 6.858743 0.873419 10053171
-3.489176 6.834415 0.281607 10053171
-6.450521 6.983298 1.137242 10053171
-5.276741 7.222431 1.648165 10053171
-4.225060 7.169452 1.710009 10053171
-5.734310 7.133926 0.930000 10053171
-4.643787 6.960416 2.958521 10053171
-5.839995 7.023975 1.045269 10053171
-5.186050 7.131498 0.290217 10053171
-4.823325 6.855648 2.740121 10053171
-3.334329 6.989237 0.799971 10053171
-3.904041 7.028214 1.820296 10053171
-5.780927 7.012891 1.265414 10053171
-3.322243 6.960018 1.641376 10053171
-3.010294 7.204349 0.797863 10053171
-3.209326 7.215003 2.785240 10053171
-3.163805 7.153459 2.297497 10053171
-6.063629 6.931095 2.262211 10053171
-6.808862 7.071925 2.064542 10053171
-4.070479 6.789615 1.172918 10053171
-3.199443 7.209267 1.679728 10053171
-6.928668 7.152055 1.466500 10053171
-4.294359 6.905268 1.115833 10053171
-5.308404 7.049423 0.096420 10053171
-6.792052 7.146023 2.884008 10053171
-4.232354 6.818943 2.449121 10053171
-3.464786 7.022035 2.653570 10053171
-3.080009 6.779995 1.122754 10053171
-3.499945 7.223479 0.577062 10053171
-3.431905 6.959398 2.309214 10053171
-4.096094 7.070669 2.715190 10053171
-3.741498 7.059240 2.922684 10053171
-5.772571 6.918646 0.472688 10053171
-4.739371 7.124710 1.558349 10053171
5.888879 -5.982469 1.151646 8342706
6.120041 -5.723629 1.810003 8342706
5.439107 -6.083965 3.648777 8342706
6.166026 -6.476431 0.565528 8342706
5.445716 -6.209481 3.038532 8342706
6.171329 -6.445380 4.077953 8342706
6.358163 -6.056569 4.896905 8342706
6.199898 -5.639396 0.326669 8342706
6.003183 -6.159052 4.004138 8342706
6.173061 -5.977876 0.491434 8342706
5.568667 -5.673155 1.991838 8342706
6.156933 -6.433956 3.319500 8342706
6.525357 -5.803884 4.831837 8342706
6.047359 -5.622622 2.406643 8342706
6.474002 -5.950133 1.309534 8342706
6.092846 -6.235908 2.917512 8342706
6.524981 -5.877125 0.296265 8342706
6.346053 -6.422486 2.978854 8342706
6.308784 -5.518441 2.218761 8342706
6.467296 -6.366041 2.686763 8342706
6.205910 -6.105103 2.953755 8342706
6.288345 -5.574256 2.054026 8342706
5.621596 -6.294175 3.497439 8342706
5.796982 -5.557153 0.211294 8342706
5.644855 -5.757429 0.513550 8342706
6.515151 -5.814653 1.401536 8342706
6.043784 -5.416151 0.775108 8342706
6.212695 -6.325232 1.496980 8342706
6.429996 -6.157975 1.597033 8342706
6.528342 -6.034578 3.489775 8342706
5.610807 -6.181125 3.385972 8342706
5.845050 -6.189951 4.720324 8342706
5.796975 -5.529665 2.063211 8342706
6.334787 -5.794347 2.895094 8342706
6.254616 -5.950636 3.526436 8342706
5.448270 -6.120560 0.536038 8342706
6.397026 -5.823175 1.985807 8342706
5.907249 -5.799516 1.732577 8342706
5.741366 -5.857218 3.152375 8342706
5.639434 -6.178379 1.837274 8342706
5.796616 -5.520165 0.786860 8342706
6.444952 -6.062744 0.380833 8342706
6.007460 -6.128089 4.310049 8342706
5.585763 -6.196187 4.554770 8342706
5.747895 -5.759559 4.174841 8342706
5.727028 -5.921068 3.119368 8342706
6.025296 -5.996392 1.423042 8342706
6.381804 -6.277901 2.003663 8342706
5.655430 -5.731632 3.104047 8342706
6.285146 -6.091459 3.903923 8342706
5.401838 -6.002626 4.588145 8342706
5.965226 -5.477660 4.499388 8342706
5.518689 -5.949564 3.210067 8342706
6.414920 -5.970938 1.944647 8342706
6.166497 -6.521127 4.270767 8342706
6.395742 -5.874084 1.209357 8342706
5.396240 -5.952041 2.328327 8342706
5.495887 -5.777104 4.318099 8342706
6.436052 -5.985175 2.998067 8342706
6.122223 -5.662657 4.857444 8342706
6.276112 -5.875758 2.127807 8342706
5.825811 -5.468768 2.073528 8342706
5.869286 -6.337416 3.544293 8342706
5.997771 -5.492872 3.520668 8342706
5.774534 -6.023629 4.513693 8342706
5.862425 -6.083198 1.748501 8342706
6.171135 -5.736678 2.001081 8342706
6.179402 -6.292175 1.952808 8342706
5.780960 -6.227962 1.536693 8342706
5.591799 -6.240137 1.051393 8342706
5.851443 -6.379920 1.257752 8342706
5.955397 -5.939181 3.035416 8342706
6.061616 -6.094454 4.741654 8342706
5.811607 -5.836832 0.607803 8342706
5.719196 -6.083635 2.513786 8342706
5.948886 -5.991729 3.169239 8342706
5.478678 -6.205531 1.921405 8342706
6.077107 -5.588023 0.142556 8342706
6.453867 -5.936742 1.235302 8342706
6.564305 -6.064727 3.884063 8342706
6.004177 -6.211423 3.285434 8342706
5.567159 -5.646558 1.975152 8342706
6.131830 -6.295789 4.453732 8342706
6.115152 -5.594978 4.638690 8342706
6.426616 -5.684713 0.229029 8342706
5.973153 -6.165067 2.697786 8342706
6.226118 -5.967201 2.439482 8342706
5.505858 -6.176805 3.697529 8342706
6.051922 -6.327363 2.011662 8342706
5.874670 -6.330579 1.015219 8342706
6.206125 -6.414272 4.414268 8342706
5.558875 -5.935542 3.868960 8342706
5.695503 -6.373840 2.521179 8342706
6.129611 -6.499209 1.398956 8342706
5.855092 -5.880459 4.520428 8342706
5.605283 -5.763642 2.345854 8342706
6.472960 -5.845639 2.604648 8342706
6.097596 -6.417581 0.579968 8342706
5.550015 -6.143053 1.857513 8342706
6.303370 -6.034774 1.878850 8342706
6.571169 -6.041604 3.644635 8342706
5.667449 -6.382522 0.615364 8342706
5.675292 -6.456596 0.764278 8342706
6.219552 -6.025797 2.566383 8342706
5.651252 -6.027735 3.270178 8342706
5.764740 -5.580309 4.726449 8342706
5.764735 -6.272322 4.025292 8342706
5.661455 -5.846217 1.218899 8342706
6.423610 -5.975589 4.438817 8342706
5.850539 -5.598147 3.506116 8342706
6.015225 -5.809701 0.906913 8342706
6.149160 -6.380176 1.774124 8342706
6.143089 -5.793864 1.584301 8342706
5.956610 -5.773974 4.083366 8342706
6.026398 -6.190324 4.588490 8342706
5.780316 -6.127166 0.229759 8342706
5.903561 -5.636357 1.684974 8342706
6.189736 -5.624055 3.861628 8342706
5.703891 -5.992392 3.111500 8342706
5.796811 -6.196318 2.609156 8342706
5.673386 -5.856209 2.900400 8342706
5.609696 -6.252390 3.711519 8342706
5.898960 -6.601125 1.058215 8342706
6.119504 -5.812101 1.658785 8342706
6.294007 -6.318047 0.546087 8342706
6.349821 -5.698018 2.285084 8342706
6.151825 -5.564373 3.070637 8342706
5.684272 -5.707844 1.203650 8342706
5.997436 -5.717883 3.704001 8342706
6.195493 -6.031485 4.401681 8342706
6.509970 -6.116898 2.701469 8342706
6.350126 -6.150647 3.372054 8342706
5.670214 -6.294770 4.716808 8342706
6.282827 -5.536149 4.641806 8342706
5.977621 -6.222311 3.574351 8342706
5.747633 -5.657397 2.600243 8342706
6.078662 -6.555324 4.469671 8342706
5.543877 -5.758563 4.279425 8342706
5.526586 -6.151699 2.897658 8342706
6.100175 -5.627032 2.473029 8342706
5.709827 -5.887046 4.031043 8342706
5.886468 -5.423337 3.063690 8342706
6.508799 -5.825346 0.130958 8342706
6.052518 -5.438629 0.404007 8342706
6.390450 -5.750457 0.041620 8342706
6.062998 -5.765395 0.525587 8342706
5.664699 -5.704432 3.074517 8342706
6.334586 -6.220158 1.506758 8342706
6.119872 -5.777929 2.472678 8342706
5.774629 -6.150995 1.611130 8342706
6.008550 -6.220224 0.121555 8342706
5.849582 -6.045514 3.742731 8342706
5.721887 -6.167319 3.384388 8342706
6.293888 -6.242008 4.581989 8342706
6.329544 -6.469804 3.382121 8342706
6.005978 -6.553646 4.190161 8342706
6.018458 -5.674638 4.228413 8342706
5.684185 -5.626552 4.241063 8342706
6.199562 -5.880139 1.879201 8342706
5.514715 -6.240345 4.648566 8342706
5.907975 -6.333733 4.718723 8342706
6.045836 -6.432324 1.318025 8342706
6.124884 -5.631604 2.048210 8342706
5.963972 -6.197925 1.721314 8342706
6.039049 -6.015885 4.530110 8342706
6.095350 -5.641587 1.146523 8342706
6.137835 -6.296934 1.575632 8342706
5.755358 -5.741136 0.115290 8342706
6.330694 -6.184265 3.036575 8342706
6.107925 -5.587407 2.624573 8342706
6.259362 -5.853276 1.027734 8342706
5.635959 -6.081973 1.906585 8342706
5.737515 -5.672198 2.248355 8342706
5.799229 -5.638808 2.607435 8342706
5.517667 -5.926348 3.586279 8342706
6.020698 -5.837399 1.873729 8342706
5.703160 -5.880570 1.448019 8342706
5.756278 -6.266534 2.828067 8342706
5.994178 -6.312003 4.908947 8342706
5.974839 -6.426701 4.826057 8342706
6.084795 -5.608687 3.837687 8342706
5.639824 -5.572694 2.007658 8342706
6.531453 -6.026040 4.254117 8342706
5.661005 -5.599417 1.932981 8342706
6.089286 -6.478596 1.691096 8342706
5.599051 -6.225441 1.856214 8342706
6.321009 -5.915291 3.506488 8342706
6.467430 -5.835393 3.813781 8342706
6.428498 -6.106935 3.872221 8342706
6.122139 -5.854770 3.354436 8342706
6.135586 -6.404731 1.032563 8342706
5.667935 -6.146266 3.345050 8342706
6.510394 -6.306350 0.125180 8342706
6.398724 -6.104209 4.944036 8342706
5.426607 -5.896435 3.758486 8342706
6.481291 -6.047293 0.219423 8342706
6.253464 -5.641889 3.728797 8342706
6.069953 -6.021686 2.458509 8342706
6.268137 -6.003386 0.684080 8342706
6.416936 -5.967468 2.416513 8342706
6.107295 -6.507036 2.783330 8342706
6.389935 -6.088279 1.390215 8342706
6.194401 -5.674473 1.091136 8342706
6.249601 -5.598775 4.320040 8342706
6.167519 -6.441778 0.743310 8342706
5.649429 -6.054395 3.200631 8342706
6.518779 -5.804391 1.100874 8342706
6.172711 -5.787032 2.594730 8342706
6.000605 -6.085704 2.546414 8342706
6.373785 -5.690202 1.815759 8342706
5.968759 -6.117503 3.833780 8342706
6.497293 -6.013287 1.569664 8342706
5.509731 -6.276481 0.726120 8342706
5.817674 -6.363114 4.997503 8342706
6.479975 -5.781448 3.969492 8342706
6.214385 -6.018178 0.107899 8342706
6.268952 -5.826136 3.579937 8342706
6.477963 -6.064181 4.577456 8342706
5.908817 -6.065575 3.121351 8342706
6.409005 -6.243380 1.758572 8342706
6.047495 -5.443098 1.968634 8342706
5.425747 -5.964014 4.265289 8342706
6.098481 -6.082050 2.973177 8342706
6.268693 -5.948462 3.248551 8342706
5.644432 -6.175595 3.350101 8342706
6.146523 -6.364654 4.405205 8342706
6.094037 -5.508466 4.120226 8342706
5.944459 -5.864676 2.901421 8342706
5.425429 -6.118347 2.063870 8342706
6.301645 -6.450955 4.869042 8342706
5.640232 -6.409771 2.951142 8342706
6.330404 -6.325371 2.371960 8342706
6.421503 -5.799629 1.047578 8342706
6.459174 -5.889104 2.284044 8342706
5.997377 -5.511346 2.070605 8342706
6.222026 -5.760735 0.454903 8342706
5.893899 -6.281470 1.561840 8342706
6.412694 -5.764743 2.452272 8342706
6.389445 -5.530843 4.092234 8342706
6.458267 -6.170796 1.489014 8342706
6.177708 -5.794224 3.238639 8342706
5.725309 -6.424231 3.094439 8342706
6.255696 -5.537516 4.459812 8342706
6.038895 -5.914555 0.764406 8342706
5.568128 -6.353150 4.408018 8342706
5.607868 -5.751008 4.258815 8342706
6.196728 -5.815979 1.378690 8342706
5.741950 -5.803107 1.066043 8342706
5.869556 -6.099750 0.636978 8342706
6.179451 -5.445030 1.186675 8342706
6.278718 -5.519946 1.163053 8342706
5.645642 -6.257908 4.289496 8342706
5.922482 -6.051738 4.924293 8342706
6.226243 -5.581633 3.780780 8342706
5.670672 -6.030420 4.233346 8342706
6.099669 -6.562920 4.280151 8342706
5.680702 -5.725680 3.988727 8342706
5.535536 -6.075212 3.760860 8342706
6.215662 -6.402714 1.043298 8342706
6.568738 -5.965966 0.484407 8342706
6.011116 -5.554186 2.924498 8342706
6.204825 -6.403166 1.639216 8342706
5.512471 -6.216604 3.925255 8342706
5.623639 -6.442790 2.792879 8342706
5.810053 -5.485336 2.265374 8342706
6.536232 -6.222787 2.080933 8342706
6.065330 -6.368040 0.523893 8342706
5.453405 -5.852408 2.603452 8342706
5.821048 -5.680761 2.527078 8342706
6.287303 -6.106226 0.231247 8342706
6.042462 -5.627927 4.351588 8342706
6.516022 -6.285368 4.432797 8342706
5.813199 -6.401117 4.419930 8342706
5.459593 -5.772799 4.342907 8342706
5.973958 -5.461439 1.507880 8342706
6.546524 -6.199659 4.010100 8342706
6.391534 -6.163558 1.423692 8342706
5.813984 -6.182444 3.755064 8342706
6.105323 -6.342068 1.928146 8342706
5.540304 -5.633678 3.380041 8342706
5.761527 -6.440715 3.523074 8342706
5.510212 -5.699936 3.928163 8342706
6.164933 -5.562972 0.049940 8342706
6.346168 -5.966107 2.632823 8342706
6.377986 -6.069433 1.749538 8342706
5.781224 -5.808768 3.231136 8342706
6.014399 -5.823201 3.159087 8342706
6.318753 -6.064541 2.038381 8342706
6.356052 -5.816720 2.201667 8342706
6.064258 -5.821096 0.095333 8342706
5.829215 -6.059774 0.119442 8342706
6.210656 -6.486470 0.873810 8342706
6.370619 -6.453109 0.736941 8342706
6.160553 -6.372844 4.224765 8342706
5.868489 -6.528505 1.808557 8342706
5.648315 -5.919493 0.964858 8342706
5.774829 -5.663196 2.692415 8342706
6.201256 -5.742837 0.420542 8342706
6.078451 -5.418327 2.086236 8342706
6.008819 -6.491452 1.067714 8342706
6.260991 -5.563178 1.282305 8342706
6.473590 -5.670878 3.602572 8342706
6.477982 -6.237295 0.306554 8342706
5.764009 -5.924353 4.031062 8342706
6.177715 -6.134072 1.740228 8342706
6.109053 -6.231751 3.241798 8342706
5.584981 -6.253985 3.709868 8342706
6.518821 -6.157309 1.830714 8342706
6.255711 -6.203320 1.697165 8342706
5.573630 -5.788085 2.482206 8342706
6.366853 -6.404910 2.032765 8342706
6.117559 -6.219687 3.587593 8342706
6.160934 -6.564322 4.292888 8342706
6.445906 -6.389530 3.675251 8342706
6.133992 -5.544923 2.006288 8342706
6.096743 -5.449788 0.917262 8342706
6.120846 -6.433344 1.145077 8342706
5.656710 -6.061021 0.141617 8342706
5.836693 -5.608395 2.623647 8342706
5.809517 -6.380206 2.628172 8342706
6.090925 -5.490306 3.473156 8342706
5.761960 -6.260306 3.347269 8342706
6.323546 -6.332920 1.078615 8342706
5.805849 -6.540303 4.761534 8342706
6.252195 -5.670977 4.908139 8342706
5.998649 -6.499415 1.860424 8342706
5.669850 -5.785007 0.299211 8342706
6.288372 -5.539070 4.309947 8342706
5.603319 -5.852930 4.383145 8342706
6.231061 -5.589712 0.508809 8342706
6.281856 -6.368561 4.011856 8342706
6.193056 -6.539082 0.573740 8342706
6.147516 -5.851257 1.029255 8342706
6.442248 -6.149097 2.774035 8342706
6.040578 -6.411312 3.727214 8342706
5.997650 -5.541639 2.029498 8342706
6.445252 -6.194832 3.292244 8342706
6.121629 -5.429818 0.246762 8342706
5.499526 -5.708377 4.389091 8342706
6.166823 -6.344638 1.672374 8342706
6.422626 -5.591614 1.850765 8342706
5.875799 -6.112722 0.924845 8342706
6.371871 -5.608075 3.687476 8342706
5.640075 -6.140697 3.748924 8342706
6.509055 -5.921081 1.175826 8342706
5.726532 -6.012296 2.422620 8342706
6.257976 -6.340486 2.938704 8342706
5.719314 -6.381913 4.092023 8342706
6.059773 -6.282958 3.900091 8342706
6.391219 -5.561184 4.950907 8342706
6.520465 -6.287149 4.660151 8342706
6.021214 -5.928634 3.869863 8342706
6.168112 -6.390026 4.341161 8342706
5.721228 -6.210392 1.984266 8342706
6.428319 -5.877895 2.109656 8342706
6.453458 -6.008410 2.205038 8342706
5.862213 -5.457975 1.041870 8342706
6.475107 -5.787406 0.287124 8342706
5.859365 -5.459213 1.411684 8342706
6.239430 -5.696391 4.839017 8342706
5.969625 -5.644306 1.246980 8342706
6.479349 -5.793464 2.249973 8342706
5.787386 -6.221921 3.690705 8342706
6.258842 -6.191706 1.493265 8342706
5.941358 -6.400880 3.975137 8342706
6.010120 -5.833471 2.287156 8342706
6.155317 -6.045794 4.103015 8342706
6.156404 -6.415227 4.350922 8342706
6.281427 -5.609396 4.748390 8342706
6.358780 -5.806280 3.600171 8342706
5.977070 -5.800243 3.183110 8342706
6.543052 -5.870088 3.051051 8342706
6.273375 -5.859705 2.856395 8342706
6.312486 -6.339886 2.000282 8342706
5.760339 -5.713393 3.625212 8342706
5.723225 -5.720372 3.062640 8342706
6.266814 -5.991758 1.464600 8342706
6.392107 -6.227285 1.075204 8342706
5.834520 -5.601373 2.986062 8342706
5.508750 -5.919854 0.125839 8342706
5.651944 -5.660955 0.451100 8342706
5.595526 -5.568468 2.866053 8342706
6.012873 -5.512232 2.107939 8342706
5.519305 -6.107045 1.878472 8342706
6.127115 -5.485714 3.467574 8342706
5.418338 -5.903777 4.585739 8342706
5.452432 -5.794812 2.915749 8342706
6.187461 -6.301060 1.853180 8342706
5.553700 -6.362838 0.837460 8342706
5.881336 -6.522579 1.599056 8342706
6.098009 -6.334283 3.433978 8342706
5.956352 -6.490245 4.599744 8342706
6.356609 -6.180387 0.796445 8342706
6.495345 -6.320951 1.433646 8342706
6.556052 -5.912367 3.397496 8342706
5.576674 -6.092223 1.124977 8342706
6.262704 -6.294987 1.942457 8342706
6.158868 -6.307255 2.956055 8342706
6.077188 -6.516426 4.972555 8342706
5.962992 -6.458550 0.626055 8342706
6.289639 -5.768573 1.747829 8342706
6.388395 -5.921082 1.299120 8342706
6.228990 -6.408924 0.486648 8342706
6.319288 -6.129317 2.906175 8342706
6.494111 -6.144733 0.103500 8342706
6.092751 -5.661379 1.218398 8342706
6.487339 -6.261009 4.293513 8342706
6.448710 -5.656997 4.810726 8342706
6.502047 -6.173087 3.636253 8342706
6.303018 -6.334207 1.584395 8342706
5.756137 -6.292675 0.427039 8342706
6.164695 -5.571860 2.710492 8342706
6.229998 -6.045447 3.865236 8342706
6.322480 -5.829531 0.391659 8342706
6.198369 -5.873497 3.943588 8342706
5.764091 -6.421850 3.290962 8342706
6.413076 -6.194782 0.020526 8342706
6.342791 -5.760494 1.361403 8342706
6.287670 -6.006563 4.226650 8342706
6.346314 -6.102363 2.021457 8342706
5.765682 -5.579574 4.385315 8342706
5.839468 -6.019062 0.869494 8342706
6.057463 -5.738968 4.177465 8342706
5.510517 -5.725693 3.995069 8342706
6.467912 -6.122933 1.758434 8342706
6.292928 -6.459430 1.709996 8342706
6.262189 -6.209319 4.628545 8342706
5.531116 -6.343970 1.220700 8342706
6.000705 -6.221474 3.472878 8342706
6.236923 -5.572496 3.776192 8342706
6.030860 -6.561899 3.668960 8342706
5.941598 -6.015688 1.739769 8342706
5.804217 -5.641292 2.752743 8342706
6.176278 -6.313123 0.928582 8342706
6.185880 -5.993032 3.877113 8342706
6.112181 -6.285823 1.970782 8342706
5.748821 -6.139490 1.029428 8342706
6.578126 -6.004478 1.748328 8342706
5.744390 -6.119939 4.316143 8342706
6.458198 -5.773959 1.027859 8342706
5.570068 -5.884007 0.773123 8342706
6.304788 -6.018132 5.003854 8342706
6.171623 -6.554421 4.114151 8342706
6.093697 -6.399760 4.733563 8342706
6.001967 -5.826275 1.397114 8342706
6.529000 -6.158306 4.983459 8342706
6.155411 -6.071699 1.669300 8342706
5.826443 -5.992037 2.078861 8342706
5.740553 -5.970919 3.028708 8342706
6.502768 -6.246092 4.101717 8342706
5.483693 -5.887477 3.603014 8342706
6.167002 -6.107416 0.974146 8342706
5.863901 -6.274054 1.906237 8342706
5.962557 -5.653790 2.369610 8342706
6.325799 -6.282450 0.084176 8342706
5.816673 -5.563008 4.552927 8342706
5.978831 -5.470026 4.073244 8342706
5.780632 -5.439839 3.555332 8342706
6.407593 -6.339970 1.533588 8342706
5.502926 -6.026663 4.735145 8342706
6.055770 -6.525866 0.112243 8342706
6.523425 -5.959518 1.506800 8342706
6.383728 -5.543060 3.369988 8342706
5.787587 -5.884639 0.817519 8342706
6.006493 -6.024040 0.886155 8342706
5.619218 -5.901384 2.225319 8342706
5.742885 -5.619056 2.284547 8342706
5.792155 -6.116237 3.546164 8342706
6.337820 -5.501741 1.147472 8342706
5.656700 -5.762771 4.823483 8342706
5.887246 -5.788579 0.078504 8342706
5.632501 -6.468649 2.460660 8342706
5.898177 -6.462641 3.631088 8342706
6.024670 -6.594379 0.589714 8342706
6.051296 -5.711058 1.752368 8342706
6.106664 -5.909694 1.779958 8342706
6.158574 -5.784874 4.161982 8342706
5.485849 -6.256186 4.953719 8342706
6.577954 -5.832183 2.159464 8342706
6.228792 -6.461535 3.903637 8342706
6.237296 -5.734409 2.522568 8342706
6.219347 -6.374619 2.405315 8342706
6.092829 -5.644834 4.496607 8342706
5.638480 -6.287421 3.486588 8342706
6.007666 -6.453537 2.728265 8342706
