# .PCD v0.7 - Point Cloud Data file format
VERSION 0.7
FIELDS x y z rgb
SIZE 4 4 4 4
TYPE F F F U
COUNT 1 1 1 1
WIDTH 1311
HEIGHT 1
VIEWPOINT 0 0 0 1 0 0 0
POINTS 1311
DATA ascii
2.893448 -8.302299 1.016922 1645029
2.950745 -8.229150 1.193000 1645029
2.901796 -8.240720 1.460359 1645029
2.924706 -8.209804 0.613433 1645029
2.794518 -8.089749 1.265590 1645029
3.030402 -8.275040 0.952492 1645029
2.991262 -8.701693 0.635563 1645029
3.485421 -8.437628 1.094989 1645029
3.284804 -8.700961 1.293168 1645029
2.818678 -8.411675 0.612758 1645029
3.466760 -8.556426 1.237346 1645029
2.832087 -8.412924 0.850172 1645029
2.641432 -8.149110 1.143108 1645029
2.564654 -8.664307 0.956570 1645029
3.177568 -8.047495 1.139887 1645029
3.260069 -8.226788 1.278026 1645029
3.004660 -8.498522 0.916277 1645029
3.239060 -8.626585 1.152868 1645029
2.822953 -8.604569 1.334422 1645029
3.145142 -8.118872 1.261520 1645029
3.011718 -8.761703 0.693190 1645029
3.095749 -8.838535 0.779619 1645029
2.881037 -8.163138 1.113460 1645029
3.098649 -8.662275 0.837369 1645029
2.925923 -8.375489 0.930161 1645029
3.345224 -8.372599 1.033231 1645029
3.268013 -8.502506 1.101534 1645029
2.821763 -8.570019 0.840066 1645029
2.665799 -8.368670 0.629479 1645029
2.805142 -8.368691 1.340361 1645029
2.842863 -8.393202 0.898595 1645029
3.391912 -8.709100 0.944914 1645029
2.973876 -8.383006 1.053008 1645029
3.051396 -7.994944 1.053879 1645029
2.545446 -8.698092 1.044608 1645029
3.048179 -8.359443 1.159532 1645029
2.789093 -8.748862 1.091867 1645029
2.821248 -8.544878 0.501012 1645029
2.610641 -8.417339 0.876803 1645029
3.241587 -8.543313 1.139847 1645029
2.989121 -8.473527 1.213527 1645029
2.861269 -8.266932 0.680318 1645029
3.140711 -8.293908 0.672454 1645029
3.134327 -8.036171 1.004343 1645029
3.112649 -8.391376 0.906073 1645029
2.923401 -8.437016 0.673824 1645029
3.328124 -8.714360 0.793426 1645029
2.915328 -8.874997 0.979800 1645029
3.380858 -8.498018 0.973444 1645029
2.948593 -8.591613 0.848925 1645029
2.836173 -8.732675 1.351161 1645029
2.910502 -8.285621 0.506026 1645029
3.451659 -8.461089 1.282042 1645029
2.680817 -8.100409 0.729524 1645029
2.696452 -8.197723 0.653012 1645029
3.112664 -8.867825 0.891224 1645029
2.724790 -8.564239 0.857826 1645029
3.013365 -8.824023 0.955164 1645029
3.142792 -8.504295 0.975622 1645029
2.701407 -8.532331 1.005283 1645029
2.865630 -8.154629 0.896436 1645029
2.885756 -7.943493 0.962483 1645029
2.787864 -8.512938 1.407313 1645029
2.882298 -8.546485 1.165576 1645029
3.117882 -8.268366 1.224662 1645029
3.339718 -8.314462 1.146665 1645029
3.452115 -8.323675 1.022721 1645029
2.701495 -8.775829 1.222736 1645029
3.267605 -8.093550 1.040179 1645029
3.394901 -8.436850 1.021372 1645029
2.763121 -8.198758 0.578288 1645029
2.885459 -8.120340 1.233725 1645029
3.041260 -8.045987 1.069624 1645029
3.198017 -8.235319 0.862527 1645029
3.003486 -8.250124 0.532023 1645029
3.296349 -8.414419 1.020414 1645029
3.370113 -8.194171 1.212191 1645029
6.780098 -7.133876 0.600998 1690649
6.498688 -7.542130 0.785111 1690649
6.715570 -7.503390 0.714117 1690649
6.166730 -7.567154 1.315570 1690649
6.828227 -7.363042 0.490985 1690649
6.512447 -7.304437 0.595106 1690649
6.757435 -7.404572 1.006929 1690649
6.503830 -7.498599 1.064795 1690649
6.981346 -7.493025 1.309823 1690649
6.338971 -7.428467 0.941160 1690649
6.983706 -7.329205 0.536387 1690649
6.634513 -7.543127 1.781211 1690649
6.558700 -7.778795 0.164416 1690649
6.271080 -7.212022 1.087294 1690649
6.656656 -7.116343 1.050020 1690649
6.780046 -7.753156 1.155640 1690649
6.993529 -7.521706 1.028648 1690649
6.410889 -7.577537 0.566631 1690649
6.727174 -7.301904 1.401654 1690649
6.664098 -7.473638 1.135411 1690649
6.674224 -7.024991 1.726596 1690649
6.670991 -7.799439 1.173727 1690649
6.155806 -7.592354 0.866734 1690649
6.170895 -7.587975 0.895242 1690649
6.305088 -7.067034 1.540298 1690649
6.725858 -7.521078 1.854381 1690649
6.239383 -7.522572 1.395223 1690649
6.752383 -7.120907 1.851268 1690649
6.579162 -7.718115 0.635049 1690649
6.803404 -7.146634 1.244328 1690649
6.392619 -7.090759 1.400862 1690649
6.399972 -7.291382 1.601622 1690649
6.944222 -7.626228 0.975614 1690649
6.372434 -7.339230 0.759099 1690649
6.596859 -7.542280 1.054944 1690649
6.856602 -7.070286 1.089610 1690649
6.166883 -7.396609 0.535236 1690649
6.632320 -7.198833 0.600377 1690649
6.251556 -7.542977 1.263936 1690649
6.620677 -7.160903 1.862922 1690649
6.732625 -7.273235 1.076121 1690649
6.438297 -7.721362 0.351565 1690649
6.712148 -7.265059 1.900264 1690649
6.560570 -7.695327 0.985096 1690649
6.292296 -7.087470 1.889048 1690649
6.799132 -7.567129 1.154784 1690649
6.602063 -7.738175 1.421468 1690649
6.549164 -7.236693 0.998859 1690649
6.405628 -6.999671 1.042241 1690649
6.550054 -7.076246 1.372912 1690649
6.384254 -7.264148 1.258312 1690649
6.719314 -6.987732 0.431555 1690649
6.962595 -7.287954 1.494895 1690649
6.360183 -7.206279 1.002924 1690649
6.179003 -7.564497 1.825979 1690649
6.514731 -7.760395 1.703759 1690649
6.390519 -7.493783 0.795419 1690649
6.398115 -7.268476 0.581278 1690649
6.928616 -7.645279 0.926130 1690649
6.540460 -7.449667 1.461724 1690649
6.227143 -7.425498 0.929933 1690649
6.735626 -7.401272 0.116439 1690649
6.332028 -7.246313 0.196260 1690649
6.604741 -7.797454 0.178526 1690649
6.573448 -7.156172 0.968273 1690649
6.682455 -7.622503 1.741726 1690649
6.384640 -7.686475 1.671914 1690649
6.638317 -7.844679 1.798229 1690649
6.357700 -7.250531 0.214980 1690649
6.257271 -7.556212 0.356955 1690649
6.380269 -7.306782 1.326734 1690649
6.707805 -7.560451 0.666307 1690649
6.407657 -7.662063 1.629530 1690649
6.933553 -7.448733 1.152756 1690649
6.724961 -7.440531 0.107263 1690649
6.535252 -7.047158 1.244412 1690649
6.596763 -7.237150 0.234619 1690649
6.571656 -7.751295 1.116773 1690649
6.892841 -7.455293 0.716361 1690649
6.774159 -7.137330 1.200440 1690649
6.503549 -6.986253 0.245158 1690649
6.541821 -7.584653 0.467771 1690649
6.655985 -7.230649 0.915030 1690649
6.410511 -7.361528 1.770551 1690649
6.229958 -7.309059 0.710253 1690649
6.656409 -7.764586 0.205199 1690649
6.543075 -7.760261 1.449626 1690649
6.365724 -7.677041 0.140656 1690649
6.783495 -7.230078 1.509192 1690649
6.869604 -7.605406 1.270088 1690649
6.568840 -7.105098 1.682191 1690649
6.527776 -7.072906 1.133429 1690649
6.791066 -7.111664 0.769471 1690649
6.360619 -7.510690 0.176079 1690649
6.345654 -7.076582 1.271704 1690649
6.851573 -7.685018 0.564492 1690649
6.365884 -7.247573 1.648548 1690649
6.494429 -7.366957 1.882065 1690649
6.859438 -7.252140 0.515657 1690649
6.426296 -7.619654 1.620062 1690649
6.242956 -7.631197 0.945506 1690649
6.450580 -7.119666 1.732816 1690649
6.419568 -7.657322 1.462349 1690649
6.264482 -7.179085 0.610546 1690649
6.338392 -7.192625 0.143682 1690649
6.265182 -7.726960 1.149007 1690649
6.353920 -7.185161 0.621840 1690649
6.382903 -7.189650 1.073583 1690649
6.230466 -7.624937 0.770183 1690649
6.368599 -7.546649 1.282219 1690649
6.918879 -7.679587 0.140169 1690649
6.574133 -6.994491 1.890329 1690649
6.959280 -7.297393 0.951379 1690649
6.748841 -7.791893 1.803994 1690649
6.949878 -7.313791 1.461738 1690649
6.716370 -7.670998 1.031753 1690649
6.839792 -7.211741 1.362830 1690649
6.595656 -7.754845 1.143214 1690649
6.516828 -7.068600 0.762392 1690649
6.633420 -7.810526 0.138943 1690649
6.193275 -7.438721 0.968769 1690649
6.267344 -7.142736 0.281867 1690649
6.869222 -7.300535 1.327085 1690649
6.796676 -7.691828 0.108019 1690649
6.342153 -7.404887 1.072657 1690649
6.623275 -7.622517 0.251484 1690649
6.219702 -7.454601 0.958786 1690649
6.560459 -7.685143 0.466394 1690649
6.946376 -7.220265 0.677807 1690649
6.258660 -7.329306 1.867321 1690649
6.484193 -7.299118 0.234241 1690649
6.685124 -7.447125 0.447671 1690649
6.890769 -7.722238 0.886373 1690649
6.141396 -7.242589 1.406268 1690649
6.318922 -7.301112 1.522523 1690649
6.388223 -7.397655 0.312594 1690649
6.752135 -7.711577 1.459127 1690649
6.485809 -7.447753 0.505376 1690649
6.781724 -7.554227 1.356575 1690649
6.707971 -7.205484 0.211512 1690649
6.196004 -7.435390 0.659218 1690649
6.982230 -7.528055 0.768243 1690649
6.867869 -7.276813 1.301627 1690649
6.460042 -7.329256 0.908534 1690649
6.257112 -7.427753 0.657760 1690649
6.972457 -7.248549 1.196594 1690649
6.625882 -7.534728 1.289093 1690649
6.405233 -7.308115 1.672062 1690649
6.581402 -7.004067 1.191315 1690649
6.984587 -7.389688 1.255340 1690649
6.764791 -7.624381 0.499463 1690649
6.337281 -7.417241 0.998719 1690649
6.644353 -7.406207 1.230106 1690649
6.730557 -7.499277 0.703052 1690649
-4.371366 7.184843 0.486775 10053171
-5.962136 7.100019 0.427459 10053171
-4.422843 6.966992 2.373532 10053171
-5.162016 7.151205 2.895721 10053171
-3.836061 6.996899 0.310420 10053171
-6.698544 6.757182 2.485766 10053171
-4.098845 7.173131 2.547535 10053171
-3.160510 6.952542 1.339216 10053171
-4.386717 6.982477 0.511247 10053171
-3.494178 7.178175 2.577736 10053171
-3.679627 7.198882 2.492469 10053171
-3.285862 6.976805 0.860442 10053171
-4.005217 7.080731 0.168677 10053171
-4.976977 6.839022 1.162524 10053171
-6.826762 6.969067 0.192359 10053171
-4.608664 7.122867 2.201751 10053171
-6.424122 6.985389 1.215925 10053171
-4.666652 6.949574 0.454019 10053171
-6.911743 6.750397 2.832147 10053171
-6.314812 7.220553 2.874057 10053171
-6.082716 7.050367 0.774563 10053171
-6.147140 6.802660 2.820266 10053171
-3.736863 6.873579 2.219567 10053171
-4.811854 7.060282 2.531683 10053171
-6.563460 6.999726 2.657965 10053171
-6.036742 7.149925 1.109307 10053171
-3.407743 7.172191 1.432785 10053171
-4.629380 6.951477 1.326274 10053171
-6.004869 7.222604 2.385133 10053171
-6.687074 7.023743 2.936046 10053171
-6.858917 7.069756 1.106172 10053171
-5.971466 6.750648 0.158204 10053171
-6.130690 7.025971 1.948596 10053171
-3.867070 6.956049 0.569310 10053171
-4.713752 7.156383 0.112026 10053171
-5.880805 7.183113 2.074758 10053171
-4.843465 6.949550 1.400076 10053171
-5.501238 7.230968 2.733208 10053171
-5.065067 6.769943 1.318150 10053171
-6.160322 6.974410 2.550381 10053171
-4.471243 6.939793 2.118213 10053171
-4.088985 7.113374 1.109217 10053171
-3.872208 6.783057 0.886282 10053171
-4.743739 6.935076 2.244614 10053171
-5.545787 6.970092 0.637929 10053171
-3.789157 7.076438 1.176254 10053171
-3.482143 7.066844 2.121955 10053171
-4.282741 7.179844 0.680654 10053171
-4.111269 7.235101 2.553711 10053171
-5.297895 6.969437 1.606227 10053171
-6.764441 7.062997 2.634046 10053171
-5.672788 6.976280 1.219231 10053171
-5.778733 6.848316 2.763822 10053171
-3.535349 6.856819 2.689345 10053171
-3.084759 6.914762 0.628154 10053171
-5.023556 7.042213 2.168572 10053171
-3.517525 7.051107 0.812312 10053171
-5.448233 7.028970 1.625331 10053171
-3.340683 7.085129 2.171774 10053171
-6.483160 7.180165 0.025041 10053171
-6.364832 6.737677 2.596005 10053171
-4.392337 6.952739 2.936423 10053171
-6.323923 6.950316 0.885482 10053171
-3.779083 7.172051 1.040032 10053171
-3.551962 7.057314 2.689725 10053171
-4.178820 6.918655 2.165075 10053171
-6.354021 6.802001 1.064032 10053171
-3.770944 6.996601 1.928236 10053171
-3.888967 7.066142 1.233947 10053171
-5.460236 7.198477 0.686848 10053171
-5.924847 6.939228 2.505529 10053171
-3.281193 6.901681 1.496735 10053171
-6.808287 6.767280 2.289328 10053171
-3.706389 6.984769 1.017120 10053171
-6.511876 7.210016 1.580877 10053171
-5.323290 6.995521 0.865799 10053171
-6.471329 6.877093 0.422435 10053171
-4.524336 7.095328 2.295019 10053171
-6.760864 7.170349 1.134053 10053171
-4.035784 6.882321 0.260251 10053171
-5.782219 7.218269 0.707536 10053171
-6.961755 7.093897 2.912549 10053171
-3.117972 7.083347 2.180726 10053171
-4.136445 7.092380 0.041742 10053171
-4.443116 7.173771 1.356381 10053171
-6.610381 7.241123 0.434154 10053171
-5.848573 6.865936 0.174357 10053171
-3.231274 6.886091 0.156606 10053171
-6.522080 6.916148 1.333437 10053171
-5.963139 6.834083 0.004545 10053171
-5.455810 7.040779 1.767802 10053171
-6.395794 7.006703 2.976240 10053171
-6.078541 6.816781 2.941562 10053171
-4.246582 7.211704 1.417725 10053171
-4.283514 7.087237 2.206815 10053171
-3.914205 7.191423 2.387362 10053171
-5.660805 7.217095 0.393864 10053171
-5.345409 6.908982 0.446560 10053171
-3.336327 6.966103 0.991628 10053171
-6.882860 6.967676 0.236031 10053171
-4.489515 6.774743 1.784266 10053171
-6.247218 7.215886 1.524191 10053171
-3.851944 7.186122 0.867906 10053171
-3.780337 6.970129 2.082471 10053171
-4.813723 7.137066 1.241683 10053171
-5.655917 7.250986 1.578246 10053171
-4.233004 6.971105 0.413789 10053171
-5.507374 7.207576 0.312907 10053171
-3.272110 7.078581 0.134329 10053171
-5.114583 6.777915 1.794572 10053171
-5.623292 7.057523 2.636134 10053171
-5.451316 6.890633 2.372264 10053171
-4.455490 6.914398 0.680889 10053171
-4.779153 6.955659 2.317425 10053171
-6.499413 6.967240 1.159177 10053171
-5.722995 6.774554 1.369458 10053171
-4.577512 6.924425 1.761912 10053171
-4.046159 7.060667 2.564372 10053171
-3.308182 7.035117 0.196649 10053171
-4.633303 6.768996 1.409524 10053171
-3.809856 7.198291 0.858949 10053171
-5.157209 6.872946 0.225081 10053171
-6.452216 6.762366 0.316159 10053171
-5.584641 7.025158 0.820163 10053171
-3.140914 7.183730 1.553424 10053171
-5.351828 7.073145 2.729840 10053171
-5.307645 6.931994 2.706417 10053171
-4.377588 6.897143 0.785474 10053171
-6.962584 7.108870 2.669166 10053171
-4.293706 7.060300 2.898599 10053171
-4.872592 6.982062 0.253507 10053171
-6.484767 6.914876 2.246392 10053171
-5.351413 6.902854 1.756429 10053171
-5.259871 7.047443 1.642309 10053171
-4.641244 6.845420 0.834411 10053171
-3.290028 6.837089 0.429849 10053171
-4.012033 6.963320 1.220272 10053171
-3.744934 7.232193 0.782018 10053171
-5.118896 7.045404 2.749586 10053171
-4.753924 7.193463 1.080711 10053171
-5.654384 6.768362 2.531595 10053171
-5.381353 7.150913 2.286190 10053171
-6.055123 7.012077 2.985049 10053171
-3.706798 6.942276 1.067967 10053171
-4.243619 7.081888 2.727499 10053171
-5.933381 7.044087 0.644894 10053171
-4.934583 6.796889 2.314007 10053171
-3.945707 6.816123 1.356076 10053171
-6.020653 7.200261 1.741171 10053171
-3.624229 7.205761 0.400895 10053171
-5.885854 6.926233 2.267345 10053171
-6.572147 6.871923 1.755209 10053171
-4.772555 6.788270 2.791625 10053171
-6.482519 7.160718 1.212368 10053171
-3.580953 7.022004 1.075970 10053171
-6.289185 6.833528 1.543986 10053171
-3.012774 6.839948 1.566072 10053171
-6.395547 7.238654 0.935079 10053171
-4.793584 7.000589 1.232811 10053171
-6.396760 7.104260 0.925778 10053171
-6.890819 6.885983 2.238681 10053171
-3.725378 7.220768 1.833356 10053171
-4.233020 7.191264 0.816015 10053171
-6.314482 6.798753 2.930252 10053171
-3.047639 6.756582 2.265575 10053171
-6.401205 6.910787 1.483188 10053171
-6.298001 6.995802 0.999461 10053171
-5.144004 6.769685 1.205359 10053171
-3.957426 7.160792 0.927239 10053171
-6.416441 7.078042 0.868565 10053171
-6.238880 6.762423 2.104438 10053171
-3.519358 7.035636 0.947142 10053171
-5.313872 6.967189 2.320899 10053171
-4.483612 6.755708 0.618822 10053171
-5.585565 7.208390 0.165718 10053171
-3.616529 6.925965 1.813413 10053171
-6.995910 7.159360 2.102703 10053171
-6.162763 7.173253 1.938699 10053171
-4.699522 6.901382 0.436136 10053171
-5.545451 6.921965 1.750905 10053171
-6.750397 6.780743 1.256328 10053171
-5.575449 6.817008 1.495465 10053171
-6.410435 6.856125 2.038102 10053171
-5.979995 6.781093 1.055247 10053171
-5.783229 6.757338 2.075012 10053171
-5.550824 6.797428 1.581792 10053171
-3.370318 7.091569 2.631420 10053171
-5.039898 7.028644 0.343118 10053171
-4.203395 7.192816 0.556715 10053171
-5.056851 7.137842 0.820997 10053171
-6.396761 6.912826 2.853182 10053171
-6.854783 6.820756 2.540536 10053171
-6.720078 6.766925 0.431640 10053171
-3.237647 7.101943 1.603767 10053171
-6.035517 6.746936 2.605914 10053171
-4.070952 6.936615 1.562781 10053171
-6.727847 7.226053 0.589836 10053171
-6.925137 6.940414 2.972703 10053171
-4.451065 6.924424 1.924186 10053171
-4.901253 7.072582 2.547611 10053171
-3.967191 7.122266 0.784058 10053171
-4.132168 7.239196 0.496835 10053171
-3.919295 6.775798 1.140051 10053171
-3.477618 7.216254 2.484005 10053171
-3.381209 7.196984 0.193119 10053171
-3.170512 6.779954 0.437952 10053171
-4.783273 7.210450 1.081031 10053171
-6.911398 7.106152 0.568305 10053171
-6.260173 6.755384 1.878659 10053171
-6.613592 6.935967 0.623068 10053171
-6.349110 7.176796 1.728400 10053171
-6.418463 6.817790 1.115318 10053171
-4.983851 6.825872 0.293463 10053171
-5.299475 7.042391 1.109863 10053171
-5.994542 7.075368 1.257993 10053171
-3.175929 7.020063 2.054368 10053171
-4.523504 6.929878 0.167074 10053171
-6.049524 6.813640 0.158605 10053171
-3.630211 7.136590 0.340061 10053171
-3.331761 7.202514 2.619180 10053171
-4.009883 6.907034 2.666443 10053171
-4.099424 6.840415 2.986284 10053171
-5.534119 7.098473 1.929037 10053171
-4.331293 7.174633 0.738275 10053171
-4.262854 6.931824 0.593910 10053171
-3.607269 7.147468 0.597378 10053171
-3.728870 6.949688 0.925260 10053171
-4.653040 7.018312 0.615808 10053171
-4.180172 6.943712 0.195651 10053171
-6.557773 6.810566 2.358311 10053171
-4.728408 7.167437 0.518213 10053171
-5.147786 6.982396 1.460240 10053171
-6.474822 7.239886 1.308892 10053171
-6.974267 7.035643 2.079778 10053171
-6.611463 7.219367 1.497691 10053171
-5.039363 7.140757 2.886196 10053171
-4.714566 6.837259 0.717252 10053171
-4.290028 6.914215 1.332233 10053171
-5.439006 6.810613 2.071894 10053171
-4.013915 6.755461 2.832074 10053171
-5.949469 7.015626 1.396774 10053171
-6.732225 6.756521 0.261683 10053171
-3.281253 7.144381 2.688734 10053171
-5.107336 7.067623 1.737942 10053171
-5.865851 7.193513 0.503113 10053171
-6.246135 6.888129 1.068896 10053171
-6.962603 7.070046 1.621063 10053171
-5.746838 7.207741 2.558557 10053171
-6.234928 6.923784 2.022558 10053171
-3.787048 6.947698 1.358703 10053171
-5.716061 7.173144 0.849129 10053171
-3.112718 6.807411 0.967107 10053171
-3.911993 6.842469 1.117905 10053171
-5.338019 7.186727 1.607035 10053171
-3.498611 6.763100 0.831094 10053171
-4.672691 7.244884 1.557371 10053171
-3.664087 6.989919 2.207916 10053171
-4.561997 7.121469 2.675852 10053171
-4.920449 7.079241 2.086304 10053171
-6.911159 6.790509 2.381334 10053171
-3.427071 7.125606 0.840939 10053171
-5.532384 7.057189 2.921345 10053171
-4.823948 6.934031 0.675658 10053171
-4.602474 7.030914 2.175188 10053171
-6.920831 7.036107 2.206031 10053171
-3.650790 6.876172 1.228742 10053171
-4.328461 6.935228 0.810163 10053171
-6.427759 6.785505 2.067856 10053171
-6.049198 6.806342 2.071736 10053171
-4.851900 6.790199 0.960397 10053171
-3.725497 6.871030 -0.009089 10053171
-4.870784 7.119293 2.467569 10053171
-3.728313 6.999413 2.493908 10053171
-5.181408 7.085069 1.518048 10053171
-6.231337 6.840312 1.606253 10053171
-6.681888 7.177098 2.920810 10053171
-3.946021 6.905275 0.944779 10053171
-6.244787 7.028510 0.964670 10053171
-4.872305 7.158782 1.505256 10053171
-3.318471 7.231462 0.928083 10053171
-6.343441 7.073436 1.839519 10053171
-5.671982 6.807042 1.321825 10053171
-3.568838 6.921482 0.388162 10053171
-5.634679 6.785294 2.099174 10053171
-4.297589 7.250186 0.438479 10053171
-3.201276 7.018713 1.443433 10053171
-3.102644 6.955346 1.824959 10053171
-4.060745 6.756607 0.902442 10053171
-4.266294 7.205368 1.348975 10053171
-3.086933 6.857719 0.299977 10053171
-4.023545 7.126894 1.437965 10053171
-5.438094 6.897395 1.054814 10053171
-3.986504 6.965185 0.344830 10053171
-3.801387 6.930640 0.173457 10053171
-5.736387 7.253463 1.868105 10053171
-5.706185 7.208379 1.797267 10053171
-6.029653 6.740283 2.371033 10053171
-3.591382 6.966398 0.813867 10053171
-5.215571 7.120605 1.178586 10053171
-5.106638 6.832902 2.488804 10053171
-4.287373 7.194424 0.617377 10053171
-6.972029 7.214509 0.083964 10053171
-4.031783 6.782869 1.115665 10053171
-4.051098 6.789648 1.851434 10053171
-5.388389 6.858209 2.739979 10053171
-3.285420 7.046540 1.514289 10053171
-3.319199 7.210956 0.011142 10053171
-3.218547 6.817533 1.493888 10053171
-4.627026 6.958891 1.568529 10053171
-4.967200 6.864805 0.155391 10053171
-6.804674 6.828726 1.550482 10053171
-5.544822 6.955714 0.140642 10053171
-6.931784 6.902770 1.420775 10053171
-4.194746 6.742013 1.308943 10053171
-6.374485 6.915560 0.211702 10053171
-3.364887 6.764746 2.836338 10053171
-4.116434 6.801801 1.399357 10053171
-4.740106 6.851282 1.934546 10053171
-6.159241 6.789079 0.119720 10053171
-5.194720 7.125299 1.848092 10053171
-6.264148 7.104683 2.258081 10053171
-5.140728 7.084768 1.383978 10053171
-6.460175 6.952426 1.297083 10053171
-5.459247 7.071783 0.276412 10053171
-4.949320 7.162712 1.803645 10053171
-3.862444 6.982696 1.648368 10053171
-5.428784 7.076293 2.727236 10053171
-5.718978 7.062035 2.977443 10053171
-6.830686 7.135824 0.774468 10053171
-4.914877 7.166515 1.112304 10053171
-6.978871 6.924070 0.269719 10053171
-6.750119 6.964758 1.042785 10053171
-4.315595 6.808033 1.950662 10053171
-3.990873 7.155392 0.066317 10053171
-3.110069 7.041573 1.321519 10053171
-3.868399 7.011911 0.404928 10053171
-3.105083 6.745551 1.712932 10053171
-3.467568 6.866179 0.323612 10053171
-6.630258 7.092373 1.216560 10053171
-4.106122 7.130089 0.727840 10053171
-3.782490 7.000233 2.104300 10053171
-3.779706 7.014893 1.230410 10053171
-4.620702 7.141600 2.670454 10053171
-4.600108 7.215729 2.328251 10053171
-6.262384 7.141663 0.863366 10053171
-3.100362 6.911336 0.019140 10053171
-4.383179 6.767098 0.517904 10053171
-5.176462 7.005585 2.842845 10053171
-5.317488 7.009820 2.486003 10053171
-3.663714 7.237444 1.078815 10053171
-4.831467 6.783304 0.093531 10053171
-4.756335 7.099484 0.911083 10053171
-4.065335 6.859130 1.516246 10053171
-3.533780 6.975976 0.956387 10053171
-6.967130 7.132613 0.912881 10053171
-3.921750 6.934142 1.363043 10053171
-3.580767 6.952831 2.724191 10053171
-5.489257 6.843602 2.599865 10053171
-5.406466 6.777397 2.405584 10053171
-3.044386 6.799702 2.931008 10053171
-6.152411 6.837426 2.037457 10053171
-4.424468 7.133159 0.783906 10053171
-4.528922 7.042813 0.684496 10053171
-3.176540 7.222302 2.705750 10053171
-5.865225 7.199245 2.538767 10053171
-4.224102 6.912361 2.152135 10053171
-3.200314 6.949090 0.513198 10053171
-5.008413 6.829838 1.838098 10053171
-3.735809 6.977319 0.076780 10053171
-4.317460 7.216821 0.531161 10053171
-6.190671 6.892100 1.507223 10053171
-3.872306 7.210232 0.597094 10053171
-5.455428 6.770607 1.428631 10053171
-3.194649 6.800109 2.183315 10053171
-3.444913 6.952970 0.321981 10053171
-3.937429 7.250646 2.052580 10053171
-6.175358 7.192081 0.271821 10053171
-6.551239 6.885117 0.524051 10053171
-4.615470 6.878967 1.237873 10053171
-5.143784 6.807406 0.014129 10053171
-5.468748 6.804024 0.533682 10053171
-3.783013 6.794535 0.405270 10053171
-5.355949 7.213657 0.681586 10053171
-3.181088 7.190660 1.370074 10053171
-4.922668 6.768097 2.538660 10053171
-6.746361 7.129175 1.628881 10053171
-4.799607 6.776368 1.166997 10053171
-4.076283 7.033924 1.629495 10053171
-4.083300 7.018530 1.597172 10053171
-3.511326 6.926967 2.932655 10053171
-4.085347 7.149367 2.896676 10053171
-6.614470 6.928366 1.729165 10053171
-5.197050 7.057119 1.663909 10053171
-5.104594 7.178094 2.164252 10053171
-4.501948 6.859518 0.027194 10053171
-5.327909 6.754215 2.596736 10053171
-5.168644 6.778882 1.361712 10053171
-4.064254 6.887938 0.705168 10053171
-4.392551 7.056706 1.054229 10053171
-5.222507 7.121760 0.697298 10053171
-3.747544 6.778876 1.896892 10053171
-3.652246 7.241162 2.736123 10053171
-3.357590 7.142969 1.010943 10053171
-4.082267 7.203841 2.647742 10053171
-3.094220 7.170274 2.844111 10053171
-3.571912 7.031284 1.664234 10053171
-5.320182 7.103523 0.106250 10053171
-3.915599 6.943986 2.281773 10053171
-6.408348 7.032454 2.545300 10053171
-3.118565 7.091308 2.771956 10053171
-4.854587 7.159650 0.135718 10053171
-5.880561 6.901275 0.137988 10053171
-4.274065 7.030511 0.557375 10053171
-4.628201 7.134134 0.007462 10053171
-6.609364 7.209911 1.370683 10053171
-6.058752 6.944826 0.090628 10053171
-5.836401 6.751603 2.922294 10053171
-4.478413 7.041664 2.853132 10053171
-5.610133 7.212063 2.534797 10053171
-3.142731 6.957345 0.624317 10053171
-5.763589 6.951786 0.605725 10053171
-4.082710 7.092335 1.548254 10053171
-4.700181 6.782343 1.668252 10053171
-4.996287 7.126081 1.231823 10053171
-4.427876 6.955543 0.523467 10053171
-5.308329 7.234240 0.302765 10053171
-3.876991 6.960279 0.815617 10053171
-4.240851 6.945434 2.664977 10053171
-5.227022 7.102775 1.714739 10053171
-3.011320 6.961697 0.245343 10053171
-5.424313 6.863611 1.055525 10053171
-6.575152 7.078926 2.717771 10053171
-5.102543 6.809767 1.638870 10053171
-3.053095 6.900556 0.755271 10053171
-6.566840 6.985974 1.177195 10053171
-3.052101 6.997528 0.196503 10053171
-6.252108 7.240912 1.910629 10053171
-3.692633 6.936338 1.354588 10053171
-4.176752 7.117624 0.214462 10053171
-3.855232 7.134675 1.815863 10053171
-4.164136 6.985603 1.330563 10053171
-3.094915 6.813186 0.723693 10053171
-5.593499 7.228800 0.115885 10053171
-5.662193 7.001840 2.804558 10053171
-4.811596 6.953333 1.785206 10053171
-5.958715 7.171064 2.033430 10053171
-3.332027 7.107708 0.990153 10053171
-6.496452 6.809344 0.729317 10053171
-6.609713 7.074468 1.895669 10053171
-3.732203 6.865832 0.053593 10053171
-4.619747 7.132627 2.025374 10053171
-5.592654 6.749228 2.659383 10053171
-3.971869 7.088179 0.433267 10053171
-3.912950 6.790644 1.646719 10053171
-5.383072 7.018170 0.806657 10053171
-4.855814 6.843027 1.756468 10053171
-5.773561 6.930185 1.086487 10053171
-6.633267 6.871364 0.157313 10053171
-4.506561 6.952427 1.706236 10053171
-3.709108 7.109579 2.781797 10053171
-5.712714 6.854330 0.062330 10053171
-5.667329 7.042875 0.379547 10053171
-4.252352 6.843217 0.878690 10053171
-5.865630 6.869699 2.057415 10053171
-4.913096 6.833640 2.912084 10053171
-3.161805 7.006836 2.028540 10053171
-3.615374 6.908923 1.086468 10053171
-4.792072 7.144836 2.849526 10053171
-4.540084 7.145338 1.479121 10053171
-3.465304 7.086920 1.070272 10053171
-3.140591 7.169232 0.505717 10053171
-5.413584 7.093793 0.821000 10053171
-6.655421 6.974680 2.582780 10053171
-3.295193 6.890629 2.387855 10053171
-5.848146 7.168304 2.051521 10053171
-4.692877 6.926775 1.464914 10053171
-4.292740 6.836087 2.114240 10053171
-3.017496 6.769962 2.461941 10053171
-3.030556 6.994983 1.066634 10053171
-4.381913 7.195985 0.289989 10053171
-5.476298 7.202979 2.308205 10053171
-5.589687 7.114735 1.120472 10053171
-3.866614 6.895832 1.877777 10053171
-4.686871 7.091771 2.936995 10053171
-4.732059 7.159263 2.677847 10053171
-6.271749 7.029396 1.583229 10053171
-3.124094 7.197245 0.336968 10053171
-4.509739 6.871253 2.780820 10053171
-3.026652 6.915874 1.108808 10053171
-4.465599 7.249500 2.836827 10053171
-5.035318 6.919824 2.671678 10053171
-3.196937 6.987847 0.520614 10053171
-5.988953 6.820239 0.810116 10053171
-4.698032 7.160975 0.309997 10053171
-3.008913 7.069111 0.542871 10053171
-5.423385 6.906508 1.107532 10053171
-3.930403 6.827469 0.635533 10053171
-6.068428 6.979503 2.723262 10053171
-3.306048 6.928409 0.565954 10053171
-5.693671 6.751379 2.829165 10053171
-4.202395 6.836059 0.618779 10053171
-6.612878 6.984681 2.967867 10053171
-6.923838 7.231145 2.522740 10053171
-6.895773 7.226202 0.744742 10053171
-5.265674 7.019522 2.436199 10053171
-5.206593 6.957636 1.266771 10053171
-3.160752 7.155870 1.893189 10053171
-6.367548 6.966215 1.724489 10053171
-4.065078 6.858917 0.132950 10053171
-3.510680 6.883649 0.000265 10053171
-6.091379 6.893611 1.912558 10053171
-3.118593 7.090479 0.786887 10053171
-3.579972 7.048139 2.725417 10053171
-4.228389 7.042849 2.639881 10053171
-3.416935 6.901320 2.423441 10053171
-5.096145 6.897193 2.875873 10053171
-4.450274 7.123912 1.058511 10053171
-6.610946 6.835932 2.030374 10053171
-3.839472 6.866328 2.271823 10053171
-3.553700 6.991791 1.024501 10053171
-4.290954 6.772738 0.867202 10053171
-3.873946 7.026888 1.020991 10053171
-5.362822 6.951779 2.086501 10053171
-3.220392 6.841062 0.505682 10053171
-3.397826 7.240524 0.653560 10053171
-6.357659 6.756640 1.236889 10053171
-5.825758 7.217134 1.583537 10053171
-3.798898 6.894406 0.810177 10053171
-6.565840 6.855728 1.605161 10053171
-4.362781 6.783940 0.975906 10053171
-5.668283 6.929457 0.048396 10053171
-4.425866 7.025245 1.195576 10053171
-4.183319 6.899484 2.118066 10053171
-3.247676 7.162744 1.303954 10053171
-3.756791 7.222222 2.645193 10053171
-5.880526 6.813652 0.040662 10053171
-5.671188 6.800342 1.568453 10053171
-4.946256 6.954000 2.483075 10053171
-6.096017 7.062011 1.116102 10053171
-6.764417 7.236836 2.112169 10053171
-5.475180 6.872013 1.246031 10053171
-6.176851 6.920640 2.920191 10053171
-5.561093 6.764276 2.409112 10053171
-4.511760 7.160095 1.528132 10053171
-5.296510 6.856916 0.634375 10053171
-6.051275 7.233366 1.494229 10053171
-3.523753 6.857099 2.536154 10053171
-5.677228 6.924036 2.277729 10053171
-6.067582 6.978966 1.458204 10053171
-6.576848 6.889204 1.246018 10053171
-6.763635 7.066631 2.611193 10053171
-6.574476 6.867018 1.830337 10053171
-6.072978 6.975657 2.782802 10053171
-4.219586 7.171719 2.784813 10053171
-4.906473 7.071428 2.189874 10053171
-4.858453 7.138645 0.056827 10053171
-4.086046 6.842089 1.571369 10053171
-6.995068 7.224954 0.323910 10053171
-5.475100 7.173395 0.042534 10053171
-3.513630 6.799972 0.734685 10053171
-6.052224 6.788624 0.886159 10053171
-3.538241 6.811100 2.843208 10053171
-3.542997 7.182041 0.886352 10053171
-5.192452 6.821831 2.949362 10053171
-6.943227 6.859442 2.316751 10053171
-4.340750 6.845641 0.585882 10053171
-4.576506 6.874705 0.895543 10053171
-3.495756 6.843006 0.283799 10053171
-6.432056 6.996294 1.166671 10053171
-5.289320 7.255770 1.659606 10053171
-4.236976 7.199844 1.729717 10053171
-5.759202 7.119634 0.935994 10053171
-4.629131 6.939776 2.962223 10053171
-5.838595 7.049426 1.037938 10053171
-5.193491 7.151062 0.301782 10053171
-4.814261 6.849222 2.727629 10053171
-3.338875 7.008887 0.801944 10053171
-3.886506 7.032269 1.821152 10053171
-5.801105 7.014696 1.314168 10053171
-3.317762 6.959900 1.646089 10053171
-2.996865 7.231019 0.789851 10053171
-3.181936 7.218867 2.773155 10053171
-3.175097 7.183827 2.284915 10053171
-6.072452 6.917815 2.245889 10053171
-6.800339 7.052953 2.057291 10053171
-4.059916 6.775084 1.164120 10053171
-3.198333 7.231394 1.686652 10053171
-6.927517 7.162772 1.484095 10053171
-4.310166 6.894327 1.097329 10053171
-5.299819 7.041108 0.122572 10053171
-6.797508 7.141859 2.873052 10053171
-4.232334 6.819060 2.433326 10053171
-3.443686 7.034956 2.656124 10053171
-3.069966 6.757785 1.126830 10053171
-3.503349 7.222365 0.575581 10053171
-3.459954 6.949014 2.319451 10053171
-4.102110 7.083906 2.686909 10053171
-3.748507 7.057055 2.915109 10053171
-5.764084 6.943972 0.491344 10053171
-4.729718 7.119894 1.556933 10053171
5.865837 -5.995612 1.142583 8342706
6.116716 -5.722412 1.803815 8342706
5.434881 -6.101351 3.639308 8342706
6.154655 -6.447512 0.558113 8342706
5.444993 -6.215012 3.047642 8342706
6.178467 -6.426397 4.075750 8342706
6.369758 -6.057573 4.902648 8342706
6.205190 -5.616016 0.315913 8342706
5.990370 -6.156034 4.010287 8342706
6.200179 -5.992427 0.487253 8342706
5.571840 -5.644790 1.997170 8342706
6.159205 -6.430888 3.312760 8342706
6.528894 -5.800430 4.842692 8342706
6.036876 -5.636127 2.386343 8342706
6.458902 -5.960756 1.317447 8342706
6.111135 -6.245112 2.942073 8342706
6.515163 -5.865905 0.277989 8342706
6.354768 -6.432598 2.987209 8342706
6.293217 -5.506244 2.206210 8342706
6.467015 -6.374547 2.667934 8342706
6.210216 -6.097867 2.966577 8342706
6.269572 -5.579071 2.048557 8342706
5.606291 -6.298939 3.517594 8342706
5.820054 -5.568403 0.190152 8342706
5.649496 -5.755330 0.515055 8342706
6.499944 -5.819205 1.417736 8342706
6.034291 -5.415078 0.772287 8342706
6.217808 -6.337080 1.509546 8342706
6.448955 -6.157398 1.595833 8342706
6.502606 -6.045238 3.460783 8342706
5.625912 -6.182131 3.386167 8342706
5.840853 -6.188579 4.714937 8342706
5.804312 -5.517941 2.041604 8342706
6.327715 -5.776567 2.915898 8342706
6.245871 -5.931791 3.547221 8342706
5.460427 -6.093673 0.545932 8342706
6.385493 -5.814355 1.994637 8342706
5.902410 -5.784967 1.740117 8342706
5.751176 -5.858384 3.151505 8342706
5.645919 -6.172682 1.859297 8342706
5.809959 -5.519686 0.780506 8342706
6.463697 -6.067098 0.381227 8342706
5.990436 -6.135264 4.303729 8342706
5.574346 -6.184392 4.581338 8342706
5.746664 -5.755633 4.156346 8342706
5.746910 -5.925492 3.112367 8342706
6.025941 -6.001841 1.431069 8342706
6.437531 -6.280657 1.988868 8342706
5.664428 -5.706122 3.092114 8342706
6.276002 -6.060422 3.906897 8342706
5.390525 -5.986373 4.565376 8342706
5.968747 -5.450263 4.497149 8342706
5.492364 -5.975447 3.238781 8342706
6.412967 -5.936448 1.950350 8342706
6.160936 -6.471006 4.290138 8342706
6.385543 -5.874246 1.204890 8342706
5.393273 -5.962470 2.335722 8342706
5.518810 -5.740939 4.325541 8342706
6.429766 -6.003704 2.979118 8342706
6.104886 -5.662147 4.826603 8342706
6.283282 -5.884675 2.134986 8342706
5.811244 -5.473109 2.077325 8342706
5.881479 -6.341930 3.545480 8342706
5.995547 -5.517865 3.516410 8342706
5.774437 -6.034840 4.542383 8342706
5.850283 -6.099823 1.743553 8342706
6.165817 -5.790010 2.010389 8342706
6.172772 -6.290939 1.969020 8342706
5.772007 -6.218124 1.512184 8342706
5.600851 -6.233390 1.053872 8342706
5.852549 -6.384358 1.249090 8342706
5.970592 -5.952764 3.038075 8342706
6.060767 -6.118949 4.751351 8342706
5.769565 -5.808845 0.607939 8342706
5.721068 -6.076587 2.509204 8342706
5.951829 -5.988102 3.151822 8342706
5.475965 -6.178195 1.920330 8342706
6.080172 -5.597095 0.140001 8342706
6.443700 -5.946584 1.252612 8342706
6.572686 -6.068103 3.876989 8342706
6.026735 -6.212767 3.300468 8342706
5.565980 -5.654057 1.981284 8342706
6.096628 -6.271493 4.441398 8342706
6.117310 -5.581051 4.630426 8342706
6.439994 -5.674598 0.212562 8342706
5.951911 -6.163069 2.692642 8342706
6.230178 -5.977244 2.429026 8342706
5.506233 -6.161827 3.664787 8342706
6.036831 -6.314349 2.003230 8342706
5.876935 -6.327018 1.009189 8342706
6.183821 -6.402828 4.424232 8342706
5.562497 -5.939466 3.873115 8342706
5.710001 -6.369044 2.529474 8342706
6.109868 -6.519464 1.405651 8342706
5.844342 -5.880401 4.544299 8342706
5.607798 -5.774506 2.362099 8342706
6.445796 -5.846434 2.607178 8342706
6.110049 -6.418536 0.606953 8342706
5.541811 -6.138234 1.898171 8342706
6.316767 -6.063390 1.861054 8342706
6.556318 -6.049718 3.628464 8342706
5.662438 -6.353764 0.610930 8342706
5.676993 -6.453584 0.781914 8342706
6.208415 -6.014968 2.560869 8342706
5.623546 -6.016216 3.296819 8342706
5.756838 -5.570055 4.714036 8342706
5.771141 -6.239431 4.036883 8342706
5.641577 -5.823242 1.238070 8342706
6.389774 -5.969397 4.445291 8342706
5.819419 -5.619682 3.509752 8342706
6.020917 -5.799210 0.931883 8342706
6.166397 -6.365375 1.768341 8342706
6.143691 -5.805295 1.598437 8342706
5.975256 -5.757905 4.082281 8342706
6.055489 -6.214444 4.597084 8342706
5.785330 -6.138344 0.218867 8342706
5.915217 -5.643814 1.674919 8342706
6.201645 -5.630418 3.855197 8342706
5.707189 -5.978526 3.096116 8342706
5.803233 -6.183797 2.624725 8342706
5.685587 -5.852742 2.912957 8342706
5.629705 -6.239418 3.739889 8342706
5.909326 -6.585626 1.065667 8342706
6.114404 -5.804284 1.665739 8342706
6.298341 -6.309695 0.550206 8342706
6.371839 -5.680267 2.289203 8342706
6.143312 -5.563184 3.071410 8342706
5.681983 -5.691868 1.226467 8342706
6.009410 -5.708390 3.705690 8342706
6.192964 -6.044028 4.401674 8342706
6.495479 -6.112095 2.699198 8342706
6.340361 -6.164595 3.337121 8342706
5.689085 -6.300831 4.700394 8342706
6.282234 -5.523741 4.617122 8342706
5.979948 -6.222363 3.549507 8342706
5.761552 -5.663602 2.609805 8342706
6.067322 -6.571805 4.514943 8342706
5.536449 -5.767406 4.273145 8342706
5.534925 -6.148232 2.885979 8342706
6.108882 -5.629911 2.461021 8342706
5.693434 -5.874185 4.035175 8342706
5.895237 -5.434656 3.046521 8342706
6.490768 -5.817968 0.118598 8342706
6.067244 -5.452331 0.384843 8342706
6.391890 -5.741939 0.051296 8342706
6.031870 -5.773928 0.532240 8342706
5.672962 -5.735457 3.082212 8342706
6.344341 -6.231371 1.536045 8342706
6.134714 -5.800796 2.487450 8342706
5.776183 -6.135700 1.607879 8342706
5.996510 -6.209526 0.130856 8342706
5.865374 -6.038858 3.761786 8342706
5.722526 -6.152500 3.395987 8342706
6.305880 -6.240399 4.572535 8342706
6.350327 -6.471632 3.383774 8342706
6.016006 -6.564412 4.168341 8342706
6.010867 -5.667786 4.218863 8342706
5.689299 -5.633462 4.231112 8342706
6.192833 -5.883781 1.885709 8342706
5.500026 -6.216870 4.644722 8342706
5.895551 -6.329169 4.698298 8342706
6.058054 -6.440268 1.318982 8342706
6.122632 -5.633573 2.034037 8342706
5.948771 -6.195566 1.707006 8342706
6.031857 -6.024723 4.524568 8342706
6.095787 -5.622989 1.158080 8342706
6.145628 -6.292571 1.573303 8342706
5.754504 -5.759044 0.135027 8342706
6.332881 -6.176075 3.050704 8342706
6.087240 -5.573237 2.637026 8342706
6.258862 -5.857953 1.031192 8342706
5.623089 -6.092225 1.895974 8342706
5.722428 -5.668188 2.234924 8342706
5.807621 -5.669379 2.588347 8342706
5.525387 -5.937902 3.583151 8342706
6.026909 -5.836383 1.877852 8342706
5.726051 -5.870638 1.459765 8342706
5.746136 -6.253321 2.813160 8342706
6.009982 -6.316370 4.879275 8342706
5.978319 -6.441476 4.837762 8342706
6.093606 -5.605936 3.838884 8342706
5.622856 -5.563835 2.018480 8342706
6.561309 -6.031378 4.269034 8342706
5.669675 -5.594502 1.926966 8342706
6.103286 -6.451309 1.699666 8342706
5.607221 -6.218989 1.870655 8342706
6.326450 -5.910688 3.516543 8342706
6.467653 -5.819535 3.825302 8342706
6.432602 -6.097286 3.867231 8342706
6.128769 -5.833963 3.365552 8342706
6.155801 -6.392183 1.023281 8342706
5.679735 -6.138563 3.348925 8342706
6.508561 -6.338667 0.119274 8342706
6.387524 -6.088222 4.951973 8342706
5.432954 -5.911045 3.788334 8342706
6.490863 -6.021045 0.231018 8342706
6.252812 -5.663575 3.726274 8342706
6.108450 -5.996928 2.476019 8342706
6.265341 -5.996692 0.677835 8342706
6.414201 -5.959353 2.415449 8342706
6.100696 -6.495881 2.763881 8342706
6.396053 -6.099148 1.386530 8342706
6.211524 -5.637719 1.101715 8342706
6.270650 -5.584114 4.310807 8342706
6.153337 -6.449053 0.721901 8342706
5.648114 -6.048973 3.190451 8342706
6.522331 -5.804636 1.096200 8342706
6.171268 -5.786537 2.591362 8342706
5.992555 -6.058485 2.545936 8342706
6.384374 -5.699437 1.818081 8342706
5.964130 -6.120982 3.832910 8342706
6.488454 -6.008423 1.589104 8342706
5.505041 -6.262149 0.713844 8342706
5.821414 -6.353593 4.985226 8342706
6.479635 -5.780776 3.977968 8342706
6.232633 -6.022674 0.105196 8342706
6.278931 -5.838101 3.579111 8342706
6.490526 -6.070537 4.566789 8342706
5.895763 -6.066143 3.151305 8342706
6.380264 -6.256255 1.776090 8342706
6.032422 -5.439455 1.971758 8342706
5.419852 -5.968755 4.243187 8342706
6.091211 -6.075511 2.978155 8342706
6.259360 -5.936909 3.255699 8342706
5.664847 -6.179265 3.369650 8342706
6.137701 -6.360508 4.413643 8342706
6.105719 -5.540081 4.107982 8342706
5.923708 -5.824318 2.915066 8342706
5.424986 -6.124788 2.053794 8342706
6.321761 -6.441169 4.871168 8342706
5.642567 -6.397146 2.939018 8342706
6.319935 -6.346373 2.368381 8342706
6.435762 -5.833189 1.060174 8342706
6.461524 -5.861706 2.263872 8342706
5.990982 -5.517825 2.052942 8342706
6.207139 -5.753838 0.488034 8342706
5.889905 -6.309309 1.567602 8342706
6.388971 -5.772093 2.445766 8342706
6.370916 -5.524910 4.072684 8342706
6.464899 -6.159564 1.472276 8342706
6.178719 -5.790765 3.249550 8342706
5.736226 -6.386172 3.092975 8342706
6.284097 -5.531233 4.463098 8342706
6.043489 -5.891914 0.762489 8342706
5.553408 -6.371589 4.409982 8342706
5.594188 -5.736511 4.253004 8342706
6.204792 -5.840353 1.375210 8342706
5.756083 -5.790119 1.057744 8342706
5.879180 -6.104378 0.628594 8342706
6.182445 -5.460329 1.184551 8342706
6.292312 -5.556681 1.162426 8342706
5.648633 -6.266291 4.279161 8342706
5.936275 -6.055294 4.939086 8342706
6.189164 -5.562967 3.768893 8342706
5.630180 -6.065805 4.255244 8342706
6.095722 -6.573923 4.288000 8342706
5.685907 -5.739324 3.988719 8342706
5.537282 -6.075163 3.773533 8342706
6.212227 -6.408292 1.022782 8342706
6.578622 -5.960290 0.498679 8342706
6.019446 -5.544773 2.918776 8342706
6.213754 -6.400446 1.662331 8342706
5.512138 -6.222110 3.914013 8342706
5.611239 -6.450055 2.798501 8342706
5.812517 -5.500902 2.268106 8342706
6.534699 -6.252338 2.075509 8342706
6.050563 -6.357075 0.542366 8342706
5.453123 -5.857395 2.599669 8342706
5.825277 -5.664059 2.553457 8342706
6.312631 -6.071890 0.236036 8342706
6.044582 -5.628570 4.329815 8342706
6.505956 -6.284283 4.438146 8342706
5.826964 -6.385622 4.427148 8342706
5.461282 -5.770764 4.321091 8342706
5.972987 -5.476497 1.517231 8342706
6.519875 -6.186629 4.013151 8342706
6.383651 -6.165946 1.412499 8342706
5.831942 -6.187458 3.750273 8342706
6.099980 -6.332213 1.936668 8342706
5.549556 -5.636608 3.379434 8342706
5.794441 -6.468630 3.531323 8342706
5.521970 -5.676462 3.912131 8342706
6.168649 -5.571702 0.049339 8342706
6.333036 -5.964334 2.633622 8342706
6.390525 -6.106254 1.756546 8342706
5.801534 -5.789657 3.228108 8342706
6.013809 -5.823758 3.173658 8342706
6.309114 -6.046415 2.046542 8342706
6.364864 -5.793041 2.196956 8342706
6.066294 -5.802085 0.085601 8342706
5.825725 -6.061561 0.097365 8342706
6.237759 -6.445425 0.878810 8342706
6.348398 -6.482682 0.747542 8342706
6.146276 -6.378008 4.244478 8342706
5.858459 -6.525123 1.815620 8342706
5.642884 -5.901273 0.970576 8342706
5.785738 -5.689407 2.697036 8342706
6.208571 -5.731129 0.391087 8342706
6.086805 -5.412271 2.098947 8342706
5.995948 -6.513208 1.058556 8342706
6.251670 -5.561171 1.321347 8342706
6.450637 -5.657645 3.616545 8342706
6.481616 -6.245310 0.341605 8342706
5.764771 -5.912577 4.011073 8342706
6.165329 -6.096862 1.747832 8342706
6.092521 -6.239335 3.218591 8342706
5.586851 -6.267617 3.687747 8342706
6.543761 -6.142484 1.851714 8342706
6.255726 -6.236218 1.670499 8342706
5.573308 -5.809485 2.511095 8342706
6.383986 -6.405899 2.005702 8342706
6.115932 -6.205258 3.588746 8342706
6.170843 -6.583173 4.289476 8342706
6.431397 -6.391717 3.671659 8342706
6.116637 -5.542461 2.012659 8342706
6.093560 -5.467258 0.887714 8342706
6.137225 -6.430699 1.164570 8342706
5.675581 -6.062931 0.126935 8342706
5.856558 -5.622048 2.616723 8342706
5.800440 -6.391607 2.647378 8342706
6.096478 -5.487180 3.478416 8342706
5.766208 -6.290192 3.370425 8342706
6.314422 -6.317350 1.062154 8342706
5.793197 -6.539966 4.738955 8342706
6.247282 -5.658239 4.897570 8342706
5.995612 -6.483140 1.857950 8342706
5.671322 -5.775787 0.298903 8342706
6.284150 -5.529446 4.288684 8342706
5.576749 -5.846661 4.351329 8342706
6.222991 -5.591685 0.505188 8342706
6.281763 -6.357222 4.017236 8342706
6.183998 -6.535157 0.581416 8342706
6.176329 -5.837358 1.011703 8342706
6.438083 -6.146594 2.771476 8342706
6.034332 -6.384742 3.734627 8342706
5.982137 -5.551935 2.053677 8342706
6.456271 -6.187686 3.290328 8342706
6.107286 -5.447607 0.237242 8342706
5.490774 -5.693647 4.398288 8342706
6.191480 -6.353713 1.675332 8342706
6.422078 -5.596282 1.844314 8342706
5.871824 -6.122385 0.917775 8342706
6.359139 -5.597959 3.697688 8342706
5.644020 -6.133819 3.749392 8342706
6.509770 -5.878148 1.193683 8342706
5.738482 -6.004129 2.449314 8342706
6.263568 -6.349130 2.940556 8342706
5.725940 -6.375438 4.080614 8342706
6.043254 -6.274331 3.881009 8342706
6.382463 -5.543787 4.934802 8342706
6.536416 -6.259506 4.679461 8342706
6.014765 -5.928181 3.879514 8342706
6.156685 -6.364535 4.350167 8342706
5.730999 -6.216243 2.006654 8342706
6.467712 -5.874007 2.111144 8342706
6.438583 -5.971147 2.187750 8342706
5.866872 -5.440422 1.070587 8342706
6.494251 -5.804591 0.298258 8342706
5.858965 -5.465149 1.398474 8342706
6.228573 -5.704833 4.839194 8342706
5.970888 -5.651889 1.248284 8342706
6.485616 -5.807069 2.238507 8342706
5.786294 -6.219968 3.688130 8342706
6.275431 -6.192405 1.522414 8342706
5.961670 -6.395738 3.967835 8342706
5.995664 -5.835722 2.289222 8342706
6.150624 -6.056223 4.108037 8342706
6.170033 -6.400251 4.332610 8342706
6.287829 -5.610270 4.738102 8342706
6.342127 -5.804265 3.616442 8342706
5.993758 -5.821990 3.163106 8342706
6.559125 -5.872432 3.028179 8342706
6.283558 -5.856964 2.850327 8342706
6.278934 -6.311162 2.013270 8342706
5.760850 -5.718837 3.630469 8342706
5.713228 -5.726959 3.052601 8342706
6.261631 -5.989223 1.457905 8342706
6.380660 -6.232854 1.098625 8342706
5.834599 -5.583055 2.956468 8342706
5.512894 -5.898901 0.130257 8342706
5.645008 -5.641823 0.446983 8342706
5.602982 -5.573622 2.859563 8342706
6.016911 -5.529418 2.121351 8342706
5.528103 -6.091688 1.871771 8342706
6.126284 -5.511763 3.483063 8342706
5.431861 -5.910533 4.593287 8342706
5.446687 -5.803639 2.908974 8342706
6.180299 -6.284388 1.842787 8342706
5.546694 -6.382080 0.856354 8342706
5.872007 -6.521996 1.598643 8342706
6.090979 -6.325510 3.439240 8342706
5.936564 -6.485624 4.609586 8342706
6.339861 -6.163843 0.800361 8342706
6.512130 -6.338647 1.444257 8342706
6.560065 -5.918186 3.403795 8342706
5.590310 -6.089669 1.091264 8342706
6.282496 -6.291462 1.941584 8342706
6.175355 -6.285220 2.951769 8342706
6.061840 -6.516500 4.965454 8342706
5.971072 -6.448912 0.614928 8342706
6.305408 -5.749875 1.736872 8342706
6.390332 -5.914396 1.296956 8342706
6.244807 -6.385317 0.471735 8342706
6.276168 -6.125617 2.890138 8342706
6.477926 -6.146602 0.094472 8342706
6.094636 -5.650839 1.227343 8342706
6.497211 -6.286399 4.301920 8342706
6.448213 -5.639130 4.819126 8342706
6.487778 -6.176680 3.618543 8342706
6.301478 -6.325388 1.614610 8342706
5.733576 -6.296623 0.413434 8342706
6.163347 -5.595857 2.724078 8342706
6.213089 -6.028614 3.851996 8342706
6.317780 -5.827587 0.414067 8342706
6.202036 -5.856772 3.938993 8342706
5.774598 -6.429570 3.299889 8342706
6.408371 -6.212276 0.015566 8342706
6.346977 -5.747152 1.377611 8342706
6.280561 -6.002312 4.223107 8342706
6.350858 -6.089602 2.035389 8342706
5.774232 -5.590204 4.399720 8342706
5.831363 -6.028660 0.852497 8342706
6.042876 -5.746464 4.185702 8342706
5.518701 -5.733231 3.991085 8342706
6.467422 -6.121849 1.748354 8342706
6.277731 -6.452044 1.696599 8342706
6.276657 -6.217942 4.639082 8342706
5.532298 -6.344253 1.237929 8342706
6.012046 -6.241052 3.456233 8342706
6.233253 -5.577656 3.771434 8342706
6.036584 -6.574729 3.671074 8342706
5.930702 -6.016848 1.767405 8342706
5.801064 -5.652541 2.736242 8342706
6.175911 -6.321684 0.928517 8342706
6.197744 -5.982438 3.893936 8342706
6.100564 -6.279921 1.994719 8342706
5.754692 -6.135178 1.059922 8342706
6.581148 -5.996123 1.759427 8342706
5.749476 -6.093503 4.310946 8342706
6.475838 -5.759192 1.024396 8342706
5.563468 -5.876528 0.766066 8342706
6.331618 -6.012382 5.004178 8342706
6.171966 -6.563037 4.108059 8342706
6.075143 -6.412804 4.709036 8342706
6.000856 -5.833243 1.390581 8342706
6.526316 -6.143157 4.994422 8342706
6.167929 -6.067314 1.652030 8342706
5.837918 -5.971680 2.086554 8342706
5.732529 -5.960301 3.034249 8342706
6.493345 -6.234453 4.116339 8342706
5.497176 -5.876613 3.593240 8342706
6.161976 -6.111382 0.992375 8342706
5.885714 -6.244884 1.920742 8342706
5.940083 -5.619510 2.373619 8342706
6.320158 -6.262449 0.091744 8342706
5.805047 -5.566635 4.542364 8342706
5.992002 -5.466342 4.050153 8342706
5.785194 -5.439230 3.567609 8342706
6.379363 -6.350794 1.554143 8342706
5.502266 -5.999983 4.728531 8342706
6.059128 -6.534876 0.108080 8342706
6.527067 -5.948389 1.499611 8342706
6.358886 -5.555508 3.365966 8342706
5.784893 -5.890274 0.825243 8342706
5.990031 -5.992076 0.879151 8342706
5.632513 -5.935806 2.216338 8342706
5.727295 -5.621653 2.280185 8342706
5.780415 -6.122242 3.537852 8342706
6.332679 -5.518505 1.142685 8342706
5.637889 -5.787244 4.819719 8342706
5.867893 -5.802409 0.082424 8342706
5.640751 -6.471693 2.450780 8342706
5.880616 -6.473013 3.650826 8342706
6.049026 -6.599155 0.598632 8342706
6.033329 -5.697323 1.737815 8342706
6.120632 -5.904077 1.774326 8342706
6.171288 -5.780332 4.154119 8342706
5.488571 -6.281046 4.952198 8342706
6.556678 -5.835823 2.156723 8342706
6.228455 -6.445135 3.917738 8342706
