# .PCD v0.7 - Point Cloud Data file format
VERSION 0.7
FIELDS x y z rgb
SIZE 4 4 4 4
TYPE F F F U
COUNT 1 1 1 1
WIDTH 1287
HEIGHT 1
VIEWPOINT 0 0 0 1 0 0 0
POINTS 1287
DATA ascii
-11.688076 0.501615 1.617696 15014169
-11.836971 1.056600 0.596516 15014169
-12.124061 0.702166 0.617818 15014169
-11.552192 0.577577 1.340819 15014169
-11.876599 0.564089 1.348855 15014169
-12.104837 1.053166 1.619274 15014169
-11.493037 0.729334 0.333738 15014169
-11.464561 0.670031 1.293773 15014169
-11.895306 0.450876 1.486030 15014169
-11.682243 0.968019 1.067761 15014169
-11.532082 1.049558 0.309001 15014169
-12.078460 0.609973 0.490646 15014169
-11.656967 0.704158 1.547398 15014169
-12.022278 0.729556 0.342554 15014169
-11.676904 0.753864 0.471760 15014169
-11.512238 1.064706 0.409299 15014169
-12.124502 0.744746 1.152724 15014169
-11.931203 0.884086 0.577562 15014169
-11.794003 0.801708 0.924806 15014169
-12.058792 0.572101 0.494039 15014169
-11.939273 0.607141 1.020283 15014169
-11.762688 0.752042 0.751687 15014169
-11.752496 1.033691 1.465905 15014169
-12.065107 0.648520 0.873566 15014169
-11.658190 0.928307 0.905375 15014169
-11.843757 0.978599 1.054717 15014169
-11.491329 0.475207 0.816031 15014169
-11.465901 0.894055 1.554406 15014169
-11.967196 0.940325 0.587812 15014169
-11.774571 0.589094 0.913819 15014169
-11.587384 0.647945 1.168464 15014169
-11.855368 1.066161 1.232284 15014169
-11.698641 0.679054 1.052802 15014169
-12.113882 0.494491 1.592707 15014169
-12.080062 1.080658 1.300664 15014169
-11.714177 0.954853 0.500021 15014169
-11.583163 0.944100 1.056746 15014169
-11.787497 0.761516 0.950802 15014169
-11.581216 0.599974 0.409298 15014169
-11.479743 0.744827 1.366178 15014169
-11.681649 0.805702 0.489233 15014169
-11.971407 0.736319 1.089707 15014169
-11.570022 0.645154 0.876128 15014169
-11.511778 1.009654 0.435627 15014169
-12.037403 0.899043 1.106748 15014169
-11.490422 0.957852 1.406378 15014169
-11.988508 0.782269 1.172564 15014169
-12.136765 0.806146 0.914984 15014169
-11.896631 0.616644 1.556411 15014169
-12.130442 0.653206 0.703423 15014169
-11.458185 0.449134 0.952972 15014169
-11.926642 0.903876 1.290208 15014169
-11.682651 1.056051 1.632425 15014169
-12.097478 0.509046 0.363415 15014169
-11.497153 1.117997 0.818697 15014169
-12.103140 0.533595 1.531488 15014169
-11.826816 0.557240 1.173892 15014169
-11.604066 0.754903 0.354038 15014169
-11.878400 1.028785 0.432067 15014169
-12.075385 0.973805 0.491747 15014169
-12.051204 0.608088 0.705329 15014169
-11.905020 0.974672 0.647246 15014169
-12.087058 0.509607 0.798830 15014169
-11.981282 0.995876 1.139210 15014169
-11.954857 1.124065 0.874313 15014169
-11.528831 0.635805 0.725306 15014169
-11.461779 0.497112 1.527858 15014169
-11.495600 0.650840 1.595547 15014169
-11.521565 1.122321 0.461694 15014169
-11.733379 0.980479 1.304130 15014169
-11.585551 0.450217 1.619773 15014169
-12.017137 0.441643 1.674091 15014169
-12.020206 0.994878 0.309111 15014169
-12.129908 0.479757 1.178591 15014169
-11.984603 0.735334 1.658180 15014169
-12.021845 0.598776 0.968582 15014169
-11.956038 0.794773 0.940305 15014169
-11.899101 0.447528 1.348511 15014169
-11.529910 0.671293 0.975743 15014169
-12.105008 0.934963 0.628716 15014169
-12.050734 0.544623 0.585512 15014169
-11.643768 0.725799 1.268052 15014169
-12.054595 0.582709 1.460069 15014169
-12.144756 0.580757 1.471139 15014169
-11.659981 0.621967 1.455458 15014169
-12.053070 0.803804 1.129372 15014169
-11.472267 0.898027 0.785267 15014169
-11.778462 0.596490 1.684768 15014169
-11.862735 0.496394 1.665174 15014169
-11.519272 0.802552 0.356609 15014169
-11.537872 1.060647 1.183524 15014169
-11.959743 1.079686 0.314655 15014169
-11.926579 0.663349 1.488409 15014169
-12.135244 0.886874 1.073734 15014169
-11.910782 0.481896 0.508140 15014169
-11.690658 0.462839 0.369499 15014169
-11.823744 0.784581 0.325588 15014169
-11.791692 0.497578 0.462909 15014169
-11.680151 0.649187 1.381295 15014169
13.952535 0.030339 0.466640 1645029
13.958584 0.316474 1.216232 1645029
13.457013 -0.180456 1.064504 1645029
13.667222 0.063362 1.034937 1645029
13.768086 0.145469 1.179328 1645029
13.707008 0.133612 1.486225 1645029
13.741546 0.168816 0.617780 1645029
13.593531 0.279424 1.254250 1645029
13.835632 0.101867 0.960365 1645029
13.786217 -0.335938 0.624482 1645029
14.283442 -0.064756 1.067696 1645029
14.074997 -0.299711 1.257159 1645029
13.589454 -0.062842 0.631288 1645029
14.263209 -0.210095 1.213019 1645029
13.640571 -0.036035 0.835347 1645029
13.430791 0.234864 1.148454 1645029
13.348200 -0.272141 0.947442 1645029
13.992293 0.343483 1.135648 1645029
14.067363 0.161151 1.282856 1645029
13.789503 -0.149828 0.895052 1645029
14.011030 -0.239363 1.180566 1645029
13.628176 -0.266702 1.327370 1645029
13.962335 0.265878 1.280250 1645029
13.797044 -0.383335 0.672232 1645029
13.905290 -0.456128 0.788377 1645029
13.666294 0.206462 1.140070 1645029
13.887398 -0.294459 0.878076 1645029
13.736753 -0.009909 0.911517 1645029
14.151345 -0.010058 1.026626 1645029
14.076170 -0.142066 1.116471 1645029
13.624340 -0.211843 0.850048 1645029
13.473179 0.006722 0.636057 1645029
13.616001 -0.007366 1.329567 1645029
13.642652 -0.026496 0.902815 1645029
14.187366 -0.334576 0.953072 1645029
13.762818 -0.016870 1.049209 1645029
13.856266 0.371783 1.046849 1645029
13.343046 -0.343978 1.071399 1645029
13.857996 0.008034 1.175308 1645029
13.575383 -0.375800 1.099175 1645029
13.617320 -0.210802 0.488844 1645029
13.408130 -0.066181 0.882946 1645029
14.036827 -0.188751 1.151063 1645029
13.816035 -0.091384 1.218839 1645029
13.652373 0.106490 0.676869 1645029
13.935952 0.080117 0.673317 1645029
13.955024 0.349697 1.012206 1645029
13.914427 -0.023349 0.884006 1645029
13.694647 -0.055504 0.661351 1645029
14.106024 -0.340083 0.810567 1645029
13.684094 -0.483921 0.951598 1645029
14.181631 -0.101832 0.967391 1645029
13.765473 -0.219120 0.840074 1645029
13.654572 -0.367255 1.365730 1645029
13.709916 0.084097 0.523543 1645029
14.247394 -0.075801 1.267365 1645029
13.510049 0.263226 0.725611 1645029
13.507393 0.140942 0.669253 1645029
13.897602 -0.517845 0.905033 1645029
13.520487 -0.216741 0.863300 1645029
13.818746 -0.467277 0.954036 1645029
13.936067 -0.153244 0.989304 1645029
13.522020 -0.167420 1.027613 1645029
13.702765 0.186187 0.905077 1645029
13.686146 0.453755 0.958862 1645029
13.576574 -0.126461 1.407890 1645029
13.682720 -0.178496 1.146280 1645029
13.930054 0.110811 1.234038 1645029
14.134030 0.048292 1.158674 1645029
14.240528 0.050821 1.010224 1645029
13.493654 -0.409687 1.222782 1645029
14.074226 0.282340 1.043610 1645029
14.179894 -0.071837 1.025639 1645029
13.549918 0.167441 0.569034 1645029
13.700038 0.241420 1.233160 1645029
13.832526 0.345033 1.058323 1645029
13.956326 0.134600 0.863074 1645029
13.783716 0.115012 0.514779 1645029
14.111465 -0.048776 1.024092 1645029
14.153475 0.188660 1.235185 1645029
-4.350936 7.181764 0.458087 10053171
-5.948696 7.099453 0.426280 10053171
-4.428676 6.967860 2.364289 10053171
-5.164619 7.139781 2.880397 10053171
-3.829710 6.998804 0.296587 10053171
-6.684955 6.749642 2.489286 10053171
-4.102240 7.159818 2.551227 10053171
-3.173379 6.970462 1.341286 10053171
-4.406644 6.985481 0.493071 10053171
-3.509274 7.205732 2.558201 10053171
-3.674505 7.183820 2.480960 10053171
-3.265232 6.961615 0.850047 10053171
-4.010391 7.063882 0.158868 10053171
-4.967411 6.831620 1.147625 10053171
-6.821363 6.979227 0.196382 10053171
-4.601687 7.106538 2.213560 10053171
-6.432840 6.989106 1.207094 10053171
-4.651208 6.951572 0.456296 10053171
-6.912000 6.768594 2.831659 10053171
-6.299455 7.208567 2.887483 10053171
-6.075315 7.071442 0.777554 10053171
-6.129921 6.818260 2.809732 10053171
-3.741996 6.853794 2.220013 10053171
-4.819372 7.051596 2.520378 10053171
-6.581409 7.019570 2.664149 10053171
-6.073854 7.143328 1.113256 10053171
-3.396830 7.148013 1.445258 10053171
-4.609491 6.968896 1.352126 10053171
-6.018426 7.227225 2.376683 10053171
-6.681283 7.025961 2.954746 10053171
-6.864624 7.061843 1.109255 10053171
-5.978317 6.752444 0.153918 10053171
-6.130279 7.015869 1.952823 10053171
-3.869457 6.944387 0.593198 10053171
-4.713705 7.181593 0.120432 10053171
-5.874375 7.156400 2.071159 10053171
-4.830029 6.958917 1.417384 10053171
-5.504733 7.248422 2.731071 10053171
-5.069695 6.756269 1.300813 10053171
-6.142007 6.980544 2.538076 10053171
-4.470633 6.926470 2.132101 10053171
-4.106964 7.100868 1.128347 10053171
-3.869255 6.755765 0.895207 10053171
-4.714727 6.922772 2.221670 10053171
-5.539846 6.946181 0.635012 10053171
-3.794059 7.060789 1.151256 10053171
-3.499903 7.087304 2.121521 10053171
-4.279010 7.188527 0.706013 10053171
-4.127750 7.249793 2.558066 10053171
-5.306140 6.980031 1.598476 10053171
-6.760011 7.057522 2.627370 10053171
-5.671559 6.970780 1.204478 10053171
-5.762338 6.852083 2.791969 10053171
-3.551739 6.858959 2.679342 10053171
-3.101201 6.885922 0.620231 10053171
-5.037598 7.042742 2.169156 10053171
-3.526287 7.067975 0.806324 10053171
-5.436238 7.043915 1.608753 10053171
-3.339080 7.075502 2.156978 10053171
-6.477874 7.180634 0.043567 10053171
-6.373969 6.748034 2.585082 10053171
-4.402806 6.948330 2.930925 10053171
-6.318655 6.958447 0.885300 10053171
-3.757015 7.176333 1.035554 10053171
-3.552472 7.077204 2.680588 10053171
-4.196424 6.920704 2.150106 10053171
-6.343025 6.814864 1.047679 10053171
-3.789291 7.017667 1.931478 10053171
-3.898695 7.047521 1.241690 10053171
-5.432826 7.196051 0.703801 10053171
-5.936583 6.937628 2.521155 10053171
-3.282177 6.935624 1.508593 10053171
-6.805558 6.753830 2.279539 10053171
-3.705643 7.003250 0.992343 10053171
-6.514392 7.189546 1.580755 10053171
-5.300901 6.999487 0.859937 10053171
-6.481941 6.896912 0.448522 10053171
-4.515152 7.080924 2.289830 10053171
-6.726679 7.181825 1.138044 10053171
-4.026393 6.888522 0.251101 10053171
-5.774899 7.209948 0.702113 10053171
-6.953877 7.065175 2.924044 10053171
-3.120323 7.075965 2.169948 10053171
-4.136334 7.104457 0.035193 10053171
-4.439779 7.157327 1.359046 10053171
-6.616739 7.227417 0.436426 10053171
-5.842484 6.858905 0.168656 10053171
-3.254601 6.870918 0.147146 10053171
-6.525031 6.938063 1.330468 10053171
-5.971082 6.844112 -0.015057 10053171
-5.455304 7.051913 1.761607 10053171
-6.378382 7.016158 2.958832 10053171
-6.060151 6.838328 2.961253 10053171
-4.234776 7.202538 1.411818 10053171
-4.282679 7.110723 2.207498 10053171
-3.905557 7.184711 2.404403 10053171
-5.658619 7.218156 0.376647 10053171
-5.355282 6.891355 0.456952 10053171
-3.324176 6.962473 0.980341 10053171
-6.863393 6.946860 0.236038 10053171
-4.475861 6.801302 1.763905 10053171
-6.248579 7.223569 1.540144 10053171
-3.844859 7.205605 0.863977 10053171
-3.766569 6.944160 2.095863 10053171
-4.809248 7.120161 1.231276 10053171
-5.643445 7.262317 1.576179 10053171
-4.243304 6.971356 0.427530 10053171
-5.500396 7.207572 0.317022 10053171
-3.283302 7.076383 0.145794 10053171
-5.096226 6.793185 1.794032 10053171
-5.629894 7.050466 2.633315 10053171
-5.440095 6.873764 2.387820 10053171
-4.457082 6.925436 0.687231 10053171
-4.760013 6.937360 2.318608 10053171
-6.501634 6.965733 1.148799 10053171
-5.747734 6.784273 1.393821 10053171
-4.590935 6.928333 1.783528 10053171
-4.066360 7.058150 2.549150 10053171
-3.331492 7.025700 0.191637 10053171
-4.622615 6.754074 1.411641 10053171
-3.812469 7.205771 0.851627 10053171
-5.178840 6.847102 0.233040 10053171
-6.408729 6.784571 0.282764 10053171
-5.571534 7.021185 0.810152 10053171
-3.150455 7.185607 1.551813 10053171
-5.374749 7.072485 2.702367 10053171
-5.320469 6.937691 2.711963 10053171
-4.386414 6.889400 0.766275 10053171
-6.962015 7.096196 2.669339 10053171
-4.277528 7.036968 2.898507 10053171
-4.887603 6.966322 0.248890 10053171
-6.487178 6.897626 2.258030 10053171
-5.349035 6.896220 1.749088 10053171
-5.257746 7.053642 1.642394 10053171
-4.635170 6.843114 0.829718 10053171
-3.282669 6.835893 0.435606 10053171
-4.043445 6.960387 1.205294 10053171
-3.763145 7.243971 0.793941 10053171
-5.109644 7.036821 2.754755 10053171
-4.750033 7.180790 1.085635 10053171
-5.667685 6.774402 2.544684 10053171
-5.412262 7.169261 2.278522 10053171
-6.052652 6.996477 2.986973 10053171
-3.703466 6.926724 1.075119 10053171
-4.237510 7.096035 2.737108 10053171
-5.942469 7.050724 0.656154 10053171
-4.956733 6.802769 2.301505 10053171
-3.926469 6.821140 1.374312 10053171
-6.017444 7.187275 1.746538 10053171
-3.610905 7.205798 0.418369 10053171
-5.867054 6.928228 2.264474 10053171
-6.562500 6.881595 1.764035 10053171
-4.764451 6.789688 2.800341 10053171
-6.506608 7.146357 1.222540 10053171
-3.576066 7.006828 1.077945 10053171
-6.249573 6.818225 1.541584 10053171
-3.027381 6.856166 1.564817 10053171
-6.381209 7.233239 0.948240 10053171
-4.775689 6.995205 1.227806 10053171
-6.423534 7.100313 0.935837 10053171
-6.880883 6.874084 2.259360 10053171
-3.709449 7.231892 1.820516 10053171
-4.232955 7.193420 0.788757 10053171
-6.304423 6.800996 2.930160 10053171
-3.045732 6.775783 2.238623 10053171
-6.412088 6.913612 1.495694 10053171
-6.296202 6.983085 0.998070 10053171
-5.150127 6.773826 1.220569 10053171
-3.960128 7.171857 0.932708 10053171
-6.417926 7.092812 0.865006 10053171
-6.208879 6.752879 2.089894 10053171
-3.532731 7.060148 0.961820 10053171
-5.327978 6.968658 2.320748 10053171
-4.516501 6.753982 0.627388 10053171
-5.567244 7.205987 0.176445 10053171
-3.607235 6.914364 1.836889 10053171
-6.975685 7.185184 2.089091 10053171
-6.175042 7.189291 1.962110 10053171
-4.708127 6.916307 0.445431 10053171
-5.549415 6.976344 1.728784 10053171
-6.738901 6.786246 1.271020 10053171
-5.582679 6.799302 1.478605 10053171
-6.416323 6.868755 2.043267 10053171
-5.975487 6.792713 1.085517 10053171
-5.786835 6.757076 2.079349 10053171
-5.554124 6.805185 1.570282 10053171
-3.366198 7.054666 2.632937 10053171
-5.059404 7.040584 0.366457 10053171
-4.191140 7.203287 0.540372 10053171
-5.057131 7.136481 0.850760 10053171
-6.393584 6.907866 2.849520 10053171
-6.872023 6.819384 2.526033 10053171
-6.713229 6.753569 0.399458 10053171
-3.248029 7.098004 1.578742 10053171
-6.027462 6.759861 2.595726 10053171
-4.040931 6.949496 1.545087 10053171
-6.722727 7.221143 0.616605 10053171
-6.901711 6.967731 2.951175 10053171
-4.473690 6.922252 1.935897 10053171
-4.904621 7.098626 2.556155 10053171
-3.969352 7.117835 0.791083 10053171
-4.131963 7.226520 0.517946 10053171
-3.913305 6.785198 1.137742 10053171
-3.456696 7.204765 2.475272 10053171
-3.375200 7.177030 0.193160 10053171
-3.146696 6.783296 0.447963 10053171
-4.781599 7.199250 1.102445 10053171
-6.916054 7.108350 0.577034 10053171
-6.264400 6.768678 1.863621 10053171
-6.629883 6.912535 0.621740 10053171
-6.373807 7.157247 1.744898 10053171
-6.408282 6.818186 1.117957 10053171
-4.959190 6.832438 0.294791 10053171
-5.303014 7.029717 1.112336 10053171
-6.007845 7.079206 1.265944 10053171
-3.182132 7.017729 2.056168 10053171
-4.539690 6.915361 0.168975 10053171
-6.050809 6.823466 0.162753 10053171
-3.632144 7.140926 0.330945 10053171
-3.331235 7.196057 2.614510 10053171
-4.025867 6.915595 2.665836 10053171
-4.103289 6.825191 2.984671 10053171
-5.544016 7.089581 1.949569 10053171
-4.311324 7.155699 0.734839 10053171
-4.252855 6.947892 0.576414 10053171
-3.624579 7.153988 0.590936 10053171
-3.731800 6.931485 0.925262 10053171
-4.665940 7.026378 0.610437 10053171
-4.183077 6.940556 0.185517 10053171
-6.559770 6.776403 2.348458 10053171
-4.719187 7.166326 0.505936 10053171
-5.182570 6.983375 1.442127 10053171
-6.465622 7.245697 1.311373 10053171
-6.978628 7.024267 2.078449 10053171
-6.605150 7.230852 1.481666 10053171
-5.034432 7.135495 2.887327 10053171
-4.741613 6.830376 0.711946 10053171
-4.299267 6.923056 1.314200 10053171
-5.427732 6.831418 2.064979 10053171
-3.994619 6.766607 2.818155 10053171
-5.970751 7.004746 1.398098 10053171
-6.756050 6.773715 0.266591 10053171
-3.281531 7.159570 2.701195 10053171
-5.104432 7.070131 1.724663 10053171
-5.872926 7.186560 0.489697 10053171
-6.234950 6.891858 1.070692 10053171
-6.951483 7.074098 1.610182 10053171
-5.763125 7.222211 2.557910 10053171
-6.239691 6.922276 2.035808 10053171
-3.777997 6.954539 1.351550 10053171
-5.719044 7.165466 0.870018 10053171
-3.112601 6.807460 0.977976 10053171
-3.916111 6.844934 1.103185 10053171
-5.359639 7.192209 1.619390 10053171
-3.519541 6.762075 0.861846 10053171
-4.698499 7.239669 1.581422 10053171
-3.645946 7.003805 2.203895 10053171
-4.593136 7.135576 2.678954 10053171
-4.896405 7.085755 2.093599 10053171
-6.929482 6.787032 2.382302 10053171
-3.432380 7.120414 0.856522 10053171
-5.543301 7.071229 2.902351 10053171
-4.825475 6.936519 0.673741 10053171
-4.579999 7.017221 2.162954 10053171
-6.906502 7.053295 2.198080 10053171
-3.651029 6.850653 1.225585 10053171
-4.332776 6.893604 0.834628 10053171
-6.445703 6.802673 2.068127 10053171
-6.030150 6.791006 2.076954 10053171
-4.830136 6.768559 0.956505 10053171
-3.716339 6.871378 -0.008017 10053171
-4.869942 7.131941 2.462888 10053171
-3.753972 6.999407 2.501317 10053171
-5.187745 7.085152 1.520120 10053171
-6.226118 6.852095 1.601328 10053171
-6.681051 7.163441 2.920300 10053171
-3.956146 6.918499 0.941012 10053171
-6.236329 7.053533 0.922979 10053171
-4.879088 7.165601 1.519925 10053171
-3.284085 7.223177 0.906789 10053171
-6.359563 7.075811 1.849281 10053171
-5.688956 6.813739 1.326993 10053171
-3.576020 6.902663 0.407222 10053171
-5.646699 6.787553 2.127469 10053171
-4.292461 7.243046 0.440380 10053171
-3.220610 7.003816 1.428906 10053171
-3.113299 6.935101 1.816130 10053171
-4.066138 6.764684 0.900998 10053171
-4.257941 7.208808 1.330563 10053171
-3.089136 6.855546 0.300377 10053171
-4.007936 7.123441 1.440247 10053171
-5.436786 6.927130 1.063717 10053171
-3.992637 6.985738 0.379739 10053171
-3.793227 6.941257 0.174459 10053171
-5.739310 7.234488 1.846763 10053171
-5.694392 7.211521 1.793606 10053171
-6.030832 6.760861 2.391766 10053171
-3.601590 6.959949 0.800297 10053171
-5.236914 7.138761 1.165089 10053171
-5.124956 6.828743 2.507951 10053171
-4.286862 7.176524 0.633763 10053171
-6.969250 7.207288 0.053828 10053171
-4.030377 6.783672 1.101568 10053171
-4.058121 6.804864 1.836420 10053171
-5.414172 6.857665 2.753934 10053171
-3.283949 7.040803 1.545332 10053171
-3.294540 7.236232 0.017413 10053171
-3.240372 6.822077 1.506984 10053171
-4.628456 6.968231 1.554407 10053171
-4.957647 6.871977 0.143753 10053171
-6.788241 6.837999 1.557880 10053171
-5.531768 6.935644 0.146174 10053171
-6.922119 6.921302 1.416943 10053171
-4.193312 6.767345 1.308551 10053171
-6.373512 6.927946 0.233124 10053171
-3.365472 6.758228 2.836195 10053171
-4.112796 6.783138 1.411118 10053171
-4.719501 6.837544 1.919824 10053171
-6.160502 6.780929 0.123529 10053171
-5.217723 7.149255 1.842425 10053171
-6.271720 7.082510 2.253962 10053171
-5.165519 7.089384 1.379710 10053171
-6.454165 6.938002 1.310864 10053171
-5.443707 7.062227 0.275755 10053171
-4.951299 7.178022 1.794487 10053171
-3.853068 6.988299 1.618748 10053171
-5.423381 7.078102 2.733180 10053171
-5.702673 7.059491 2.975129 10053171
-6.824531 7.135669 0.783901 10053171
-4.903698 7.167451 1.130437 10053171
-6.993576 6.944054 0.270693 10053171
-6.729076 6.970057 1.038296 10053171
-4.309269 6.802207 1.928685 10053171
-3.993090 7.169892 0.067839 10053171
-3.092477 7.032928 1.321643 10053171
-3.859000 7.029961 0.411715 10053171
-3.123788 6.748524 1.716926 10053171
-3.448734 6.846213 0.328012 10053171
-6.639654 7.091702 1.205084 10053171
-4.083311 7.144167 0.736605 10053171
-3.800826 6.996508 2.045324 10053171
-3.791256 7.028458 1.241852 10053171
-4.620107 7.137960 2.669455 10053171
-4.573941 7.229087 2.362733 10053171
-6.268307 7.158320 0.875954 10053171
-3.103572 6.904929 0.027938 10053171
-4.385601 6.761619 0.528434 10053171
-5.189764 7.029941 2.830695 10053171
-5.334283 7.005124 2.481847 10053171
-3.697309 7.206003 1.062236 10053171
-4.830934 6.778235 0.074838 10053171
-4.763784 7.116398 0.904854 10053171
-4.067371 6.859747 1.508844 10053171
-3.545973 6.969162 0.964401 10053171
-6.960914 7.120200 0.894803 10053171
-3.916196 6.947267 1.360165 10053171
-3.570263 6.939809 2.742016 10053171
-5.491602 6.814360 2.622231 10053171
-5.418876 6.757668 2.396965 10053171
-3.026609 6.800647 2.932735 10053171
-6.166282 6.832397 2.053389 10053171
-4.446207 7.134100 0.783436 10053171
-4.535352 7.026357 0.704017 10053171
-3.189358 7.224320 2.735262 10053171
-5.879157 7.200454 2.535373 10053171
-4.213351 6.896954 2.130609 10053171
-3.197527 6.945555 0.496535 10053171
-5.000778 6.817034 1.850342 10053171
-3.734687 6.963058 0.090906 10053171
-4.327488 7.222250 0.534372 10053171
-6.198130 6.890466 1.548439 10053171
-3.852634 7.193292 0.577838 10053171
-5.454234 6.776731 1.440397 10053171
-3.207628 6.815641 2.186067 10053171
-3.459572 6.947177 0.321354 10053171
-3.935954 7.230224 2.042054 10053171
-6.173084 7.186135 0.267918 10053171
-6.561027 6.879253 0.534205 10053171
-4.637387 6.887106 1.239405 10053171
-5.136891 6.773272 0.026272 10053171
-5.469211 6.808946 0.511218 10053171
-3.771124 6.792195 0.398326 10053171
-5.336389 7.200826 0.675735 10053171
-3.174384 7.171651 1.373224 10053171
-4.948752 6.758555 2.535127 10053171
-6.742461 7.153324 1.628982 10053171
-4.821667 6.791039 1.186137 10053171
-4.089054 7.038546 1.620685 10053171
-4.072631 7.033622 1.599134 10053171
-3.495409 6.919723 2.940582 10053171
-4.094982 7.151380 2.902333 10053171
-6.612046 6.912970 1.749881 10053171
-5.178575 7.028401 1.692618 10053171
-5.132138 7.168755 2.155786 10053171
-4.509413 6.843853 0.039856 10053171
-5.331960 6.753284 2.600888 10053171
-5.167019 6.755249 1.359733 10053171
-4.076105 6.884676 0.713998 10053171
-4.381511 7.043276 1.031058 10053171
-5.218249 7.120250 0.704494 10053171
-3.748684 6.775761 1.909788 10053171
-3.658780 7.255034 2.725320 10053171
-3.380918 7.156665 0.998411 10053171
-4.063986 7.196771 2.644411 10053171
-3.096939 7.171844 2.866098 10053171
-3.577157 7.040567 1.674222 10053171
-5.319170 7.115979 0.098369 10053171
-3.933206 6.938943 2.280122 10053171
-6.402268 7.037880 2.541549 10053171
-3.126047 7.085797 2.790848 10053171
-4.856078 7.183953 0.120220 10053171
-5.923749 6.898280 0.131519 10053171
-4.277162 7.040159 0.573982 10053171
-4.618790 7.144530 0.010516 10053171
-6.623806 7.226412 1.367967 10053171
-6.075285 6.920685 0.114040 10053171
-5.826509 6.744550 2.902488 10053171
-4.491096 7.055443 2.831493 10053171
-5.614939 7.205635 2.536908 10053171
-3.149670 6.966792 0.616157 10053171
-5.755997 6.960867 0.606678 10053171
-4.084827 7.101054 1.534578 10053171
-4.669265 6.762214 1.655776 10053171
-5.009079 7.142558 1.223233 10053171
-4.443881 6.965239 0.501183 10053171
-5.298227 7.248095 0.321954 10053171
-3.856231 6.949620 0.862310 10053171
-4.249104 6.936055 2.676333 10053171
-5.255778 7.111094 1.725694 10053171
-3.015185 6.983295 0.262361 10053171
-5.431384 6.876657 1.050745 10053171
-6.599494 7.077534 2.713113 10053171
-5.089718 6.814640 1.641012 10053171
-3.023641 6.905414 0.767938 10053171
-6.560409 6.997299 1.173770 10053171
-3.064240 7.015586 0.206780 10053171
-6.258180 7.242769 1.906439 10053171
-3.693499 6.930776 1.347092 10053171
-4.167340 7.123820 0.211780 10053171
-3.874712 7.140956 1.792382 10053171
-4.185946 7.023922 1.343940 10053171
-3.096157 6.810161 0.724617 10053171
-5.610205 7.218199 0.155649 10053171
-5.689528 7.024740 2.796266 10053171
-4.780781 6.937118 1.804078 10053171
-5.949231 7.152141 2.044328 10053171
-3.329241 7.093254 0.988155 10053171
-6.498755 6.806433 0.717068 10053171
-6.605447 7.067748 1.907827 10053171
-3.732435 6.857433 0.007579 10053171
-4.618762 7.127518 2.010803 10053171
-5.594839 6.765508 2.654177 10053171
-3.979984 7.104164 0.445126 10053171
-3.913813 6.772820 1.641851 10053171
-5.388828 7.023042 0.800534 10053171
-4.835905 6.833976 1.758210 10053171
-5.757933 6.962044 1.084788 10053171
-6.616483 6.868630 0.171460 10053171
-4.527782 6.958973 1.709292 10053171
-3.720448 7.125270 2.803699 10053171
-5.705001 6.836067 0.084205 10053171
-5.657912 7.045578 0.361366 10053171
-4.250204 6.864893 0.860102 10053171
-5.879647 6.871280 2.078371 10053171
-4.914945 6.846200 2.912394 10053171
-3.170430 6.983343 2.033381 10053171
-3.605045 6.916574 1.079401 10053171
-4.811984 7.133787 2.829209 10053171
-4.520049 7.155073 1.496319 10053171
-3.445736 7.080723 1.054256 10053171
-3.158213 7.151584 0.510770 10053171
-5.424692 7.090104 0.828653 10053171
-6.659824 6.970105 2.561053 10053171
-3.294790 6.893951 2.395413 10053171
-5.837067 7.148508 2.057506 10053171
-4.679744 6.943407 1.453997 10053171
-4.302759 6.805690 2.132286 10053171
-3.014392 6.760001 2.440396 10053171
-3.036256 6.979649 1.074026 10053171
-4.375354 7.207140 0.299455 10053171
-5.475530 7.238578 2.286835 10053171
-5.613250 7.137581 1.122249 10053171
-3.878881 6.905309 1.850798 10053171
-4.648340 7.076365 2.939143 10053171
-4.752865 7.152224 2.673955 10053171
-6.302851 7.031664 1.605426 10053171
-3.106974 7.180737 0.302998 10053171
-4.517292 6.891880 2.805814 10053171
-3.047146 6.922523 1.100939 10053171
-4.455797 7.242997 2.832317 10053171
-5.030895 6.908226 2.690190 10053171
-3.214518 6.995347 0.508294 10053171
-5.995945 6.817830 0.797300 10053171
-4.695452 7.140524 0.315606 10053171
-3.003038 7.068262 0.559186 10053171
-5.430822 6.907048 1.104447 10053171
-3.909964 6.797518 0.634623 10053171
-6.073270 6.980650 2.725449 10053171
-3.297848 6.930816 0.545766 10053171
-5.727743 6.752645 2.839888 10053171
-4.196513 6.850068 0.623415 10053171
-6.599850 6.991989 2.967268 10053171
-6.919227 7.232057 2.543448 10053171
-6.913885 7.212887 0.749027 10053171
-5.264081 7.006406 2.471228 10053171
-5.200141 6.972371 1.286677 10053171
-3.173017 7.153977 1.908525 10053171
-6.403782 6.955202 1.719568 10053171
-4.076210 6.866327 0.139133 10053171
-3.506243 6.902731 0.004547 10053171
-6.106401 6.881958 1.886748 10053171
-3.130422 7.090951 0.786893 10053171
-3.564831 7.025896 2.722331 10053171
-4.256309 7.058107 2.622921 10053171
-3.447723 6.891552 2.441761 10053171
-5.104737 6.895146 2.883270 10053171
-4.457692 7.136458 1.059928 10053171
-6.604702 6.832875 2.029118 10053171
-3.838012 6.886603 2.275617 10053171
-3.545079 6.984727 1.042053 10053171
-4.298751 6.762827 0.870203 10053171
-3.848560 6.998718 1.001496 10053171
-5.339371 6.976679 2.066043 10053171
-3.242666 6.844766 0.512825 10053171
-3.397075 7.252144 0.656359 10053171
-6.361860 6.748144 1.227700 10053171
-5.832011 7.234797 1.579923 10053171
-3.794279 6.904529 0.809225 10053171
-6.559515 6.862535 1.571583 10053171
-4.362655 6.810016 0.975136 10053171
-5.668773 6.912309 0.053395 10053171
-4.422050 7.003864 1.192923 10053171
-4.172843 6.923086 2.114528 10053171
-3.251431 7.189870 1.296113 10053171
-3.758026 7.221189 2.670977 10053171
-5.901404 6.805569 0.035909 10053171
-5.704009 6.791260 1.565698 10053171
-4.947080 6.969106 2.463315 10053171
-6.084423 7.064124 1.132248 10053171
-6.773324 7.230552 2.135046 10053171
-5.446737 6.867872 1.263399 10053171
-6.167265 6.911040 2.921181 10053171
-5.568856 6.775982 2.398504 10053171
-4.512811 7.162031 1.527157 10053171
-5.299976 6.869998 0.620415 10053171
-6.017933 7.237096 1.480813 10053171
-3.514182 6.843389 2.524899 10053171
-5.683879 6.932875 2.284071 10053171
-6.085641 6.961625 1.452913 10053171
-6.586559 6.864186 1.233531 10053171
-6.772170 7.089682 2.617540 10053171
-6.559661 6.847684 1.815767 10053171
-6.064989 6.971386 2.801009 10053171
-4.221930 7.186953 2.782960 10053171
-4.906315 7.068017 2.199042 10053171
-4.853598 7.151817 0.058421 10053171
-4.098191 6.834267 1.573108 10053171
-6.985767 7.251087 0.308991 10053171
-5.498701 7.150367 0.035237 10053171
-3.526032 6.808758 0.735208 10053171
-6.057729 6.789788 0.893055 10053171
-3.538524 6.798769 2.832780 10053171
-3.535562 7.167309 0.906280 10053171
-5.204154 6.855149 2.952848 10053171
-6.953688 6.848934 2.329394 10053171
-4.318971 6.851379 0.606975 10053171
-4.569259 6.855616 0.872445 10053171
-3.493453 6.831532 0.303669 10053171
-6.429062 6.988700 1.140020 10053171
-5.292752 7.223249 1.664256 10053171
-4.221903 7.160852 1.742136 10053171
-5.753940 7.110456 0.935435 10053171
-4.642629 6.943172 2.949239 10053171
-5.834885 7.020929 1.042770 10053171
-5.202631 7.131417 0.289306 10053171
-4.799930 6.850595 2.740442 10053171
-3.338647 6.989484 0.791726 10053171
-3.893380 7.034606 1.820522 10053171
-5.796516 6.994673 1.293429 10053171
-3.320394 6.971110 1.641283 10053171
-3.001478 7.220332 0.795340 10053171
-3.208548 7.227023 2.776825 10053171
-3.174851 7.166663 2.300120 10053171
-6.069155 6.939028 2.233863 10053171
-6.819260 7.048043 2.075221 10053171
-4.079139 6.792570 1.165140 10053171
-3.206189 7.237023 1.692024 10053171
-6.928345 7.175254 1.482117 10053171
-4.303521 6.908719 1.120359 10053171
-5.302230 7.033971 0.115418 10053171
-6.792552 7.143206 2.881221 10053171
-4.216674 6.831101 2.444126 10053171
-3.446955 7.039585 2.637296 10053171
-3.070367 6.786234 1.150676 10053171
-3.489167 7.223881 0.570657 10053171
-3.469639 6.926582 2.310048 10053171
-4.114013 7.083519 2.712489 10053171
-3.735737 7.054392 2.904521 10053171
-5.753598 6.916850 0.482269 10053171
-4.747456 7.119767 1.556943 10053171
5.883978 -5.985486 1.139226 8342706
6.144989 -5.715409 1.812042 8342706
5.442822 -6.078641 3.642341 8342706
6.171157 -6.488224 0.580779 8342706
5.455109 -6.191404 3.019774 8342706
6.197899 -6.438066 4.086256 8342706
6.352864 -6.054314 4.927760 8342706
6.211892 -5.623088 0.339269 8342706
6.000384 -6.160421 3.993909 8342706
6.176282 -5.991230 0.493232 8342706
5.590517 -5.673550 1.995090 8342706
6.150981 -6.433051 3.304934 8342706
6.535069 -5.808413 4.826568 8342706
6.061182 -5.626538 2.430253 8342706
6.468242 -5.967218 1.317008 8342706
6.078925 -6.213864 2.934520 8342706
6.544615 -5.876584 0.291747 8342706
6.351002 -6.443957 2.966116 8342706
6.317936 -5.530430 2.206347 8342706
6.444566 -6.374795 2.667828 8342706
6.189844 -6.105391 2.973707 8342706
6.271391 -5.565706 2.044793 8342706
5.622178 -6.298090 3.520185 8342706
5.810796 -5.557469 0.199233 8342706
5.637245 -5.758884 0.538362 8342706
6.507874 -5.811892 1.406680 8342706
6.040260 -5.428623 0.755577 8342706
6.220768 -6.322267 1.490997 8342706
6.434402 -6.149843 1.599237 8342706
6.529823 -6.049222 3.481361 8342706
5.618881 -6.190285 3.382786 8342706
5.809352 -6.178315 4.715331 8342706
5.781240 -5.522887 2.035195 8342706
6.334568 -5.777416 2.912819 8342706
6.274786 -5.940336 3.542088 8342706
5.466803 -6.118592 0.545590 8342706
6.398240 -5.814307 1.995494 8342706
5.903590 -5.790423 1.712686 8342706
5.736909 -5.868397 3.141650 8342706
5.655364 -6.166526 1.842581 8342706
5.788366 -5.537457 0.776709 8342706
6.475811 -6.084012 0.378524 8342706
6.002528 -6.138816 4.295264 8342706
5.598890 -6.203746 4.562145 8342706
5.753244 -5.757083 4.151101 8342706
5.732381 -5.931992 3.116180 8342706
6.032246 -5.988036 1.444503 8342706
6.419932 -6.288041 2.002715 8342706
5.649828 -5.725824 3.092496 8342706
6.292924 -6.080374 3.912292 8342706
5.417601 -5.989380 4.578633 8342706
5.967636 -5.452195 4.477919 8342706
5.492822 -5.977295 3.216893 8342706
6.412228 -5.960406 1.952392 8342706
6.161827 -6.503056 4.290183 8342706
6.384326 -5.879966 1.206699 8342706
5.391199 -5.956037 2.312307 8342706
5.501912 -5.755688 4.333089 8342706
6.448508 -5.992192 3.000439 8342706
6.097287 -5.661154 4.844995 8342706
6.270679 -5.862509 2.116452 8342706
5.803712 -5.460621 2.090896 8342706
5.882794 -6.343381 3.547140 8342706
5.986706 -5.502481 3.488015 8342706
5.768178 -6.029356 4.544178 8342706
5.840000 -6.083482 1.733429 8342706
6.171467 -5.718197 2.013312 8342706
6.155236 -6.281912 1.956214 8342706
5.762053 -6.234015 1.524541 8342706
5.615177 -6.283053 1.066364 8342706
5.857085 -6.377408 1.244533 8342706
5.943052 -5.931932 3.032914 8342706
6.053710 -6.103989 4.753182 8342706
5.801054 -5.818828 0.624737 8342706
5.730509 -6.076135 2.497917 8342706
5.960707 -5.988286 3.156818 8342706
5.485634 -6.197259 1.916564 8342706
6.092293 -5.610368 0.139212 8342706
6.447562 -5.932635 1.242028 8342706
6.569885 -6.072131 3.870007 8342706
6.056765 -6.191521 3.291281 8342706
5.574218 -5.650967 1.952767 8342706
6.118789 -6.263453 4.442354 8342706
6.117680 -5.592623 4.645532 8342706
6.420848 -5.676158 0.228369 8342706
5.964933 -6.157668 2.691241 8342706
6.238137 -5.955574 2.443412 8342706
5.478888 -6.161071 3.651940 8342706
6.056881 -6.297444 2.007112 8342706
5.880758 -6.328561 0.984612 8342706
6.182341 -6.412613 4.425699 8342706
5.549345 -5.919394 3.871333 8342706
5.673862 -6.387121 2.516869 8342706
6.095218 -6.492639 1.405057 8342706
5.844384 -5.872821 4.540485 8342706
5.607777 -5.777668 2.357179 8342706
6.455349 -5.854648 2.627494 8342706
6.089188 -6.433730 0.591304 8342706
5.550067 -6.140731 1.881917 8342706
6.326537 -6.049716 1.872292 8342706
6.588850 -6.050354 3.616431 8342706
5.667654 -6.402680 0.635549 8342706
5.667912 -6.468389 0.781977 8342706
6.226573 -6.010594 2.567616 8342706
5.643775 -6.030422 3.291194 8342706
5.764988 -5.582601 4.706501 8342706
5.777534 -6.228817 4.014918 8342706
5.649833 -5.831587 1.223587 8342706
6.427212 -5.967478 4.431400 8342706
5.821598 -5.615569 3.489094 8342706
6.012257 -5.787382 0.938488 8342706
6.156221 -6.388621 1.770666 8342706
6.142313 -5.791579 1.573572 8342706
5.961358 -5.766939 4.086039 8342706
6.045139 -6.198392 4.605442 8342706
5.791061 -6.138869 0.230792 8342706
5.908783 -5.645764 1.679332 8342706
6.204399 -5.629901 3.853972 8342706
5.692849 -5.947960 3.105455 8342706
5.812604 -6.196556 2.597681 8342706
5.663204 -5.866921 2.908096 8342706
5.618751 -6.238404 3.725490 8342706
5.903152 -6.570921 1.062805 8342706
6.113255 -5.798400 1.661738 8342706
6.307127 -6.320498 0.557985 8342706
6.359112 -5.696161 2.303001 8342706
6.141370 -5.554385 3.063904 8342706
5.680506 -5.675251 1.217281 8342706
5.995990 -5.716594 3.717873 8342706
6.185490 -6.015236 4.406021 8342706
6.488417 -6.113271 2.695385 8342706
6.332406 -6.149090 3.365791 8342706
5.665318 -6.315940 4.703727 8342706
6.284191 -5.531806 4.651593 8342706
5.981909 -6.216088 3.550900 8342706
5.761554 -5.645221 2.579449 8342706
6.086226 -6.563850 4.500922 8342706
5.530746 -5.781535 4.269640 8342706
5.528562 -6.143628 2.894402 8342706
6.097754 -5.647492 2.476963 8342706
5.684604 -5.900587 4.046256 8342706
5.880790 -5.428252 3.057528 8342706
6.507951 -5.803186 0.106133 8342706
6.041491 -5.456461 0.413145 8342706
6.400555 -5.718843 0.055640 8342706
6.059297 -5.772612 0.515744 8342706
5.673618 -5.714651 3.079727 8342706
6.348082 -6.222338 1.524182 8342706
6.143886 -5.806870 2.487629 8342706
5.781488 -6.148993 1.597412 8342706
5.970752 -6.229633 0.119706 8342706
5.853027 -6.023163 3.755421 8342706
5.730356 -6.157868 3.384748 8342706
6.309888 -6.242537 4.583382 8342706
6.341155 -6.445629 3.379323 8342706
6.039940 -6.545855 4.156327 8342706
6.017055 -5.688955 4.231800 8342706
5.712874 -5.639279 4.226812 8342706
6.194382 -5.891276 1.882710 8342706
5.513760 -6.236650 4.658743 8342706
5.900115 -6.317245 4.705973 8342706
6.057733 -6.443318 1.309246 8342706
6.114168 -5.621354 2.040120 8342706
5.938033 -6.206291 1.717027 8342706
6.027822 -6.024827 4.527435 8342706
6.096921 -5.625553 1.132577 8342706
6.125070 -6.298232 1.570000 8342706
5.755218 -5.728661 0.111432 8342706
6.343587 -6.183267 3.054422 8342706
6.110517 -5.583624 2.629366 8342706
6.264464 -5.869453 1.004859 8342706
5.645405 -6.083133 1.903007 8342706
5.718771 -5.678549 2.254521 8342706
5.819108 -5.645088 2.594282 8342706
5.528754 -5.943761 3.600298 8342706
6.014739 -5.830208 1.887309 8342706
5.716579 -5.874513 1.474722 8342706
5.732700 -6.261698 2.827190 8342706
5.997651 -6.294791 4.895148 8342706
5.973295 -6.452636 4.815310 8342706
6.084482 -5.590749 3.823290 8342706
5.627163 -5.574275 1.997581 8342706
6.526951 -6.037702 4.263163 8342706
5.665475 -5.596617 1.916100 8342706
6.085111 -6.463789 1.686957 8342706
5.613551 -6.226598 1.858674 8342706
6.317241 -5.920489 3.516703 8342706
6.483427 -5.813894 3.820996 8342706
6.403202 -6.108961 3.868735 8342706
6.118286 -5.849469 3.352800 8342706
6.145800 -6.392622 1.019724 8342706
5.665977 -6.140274 3.351460 8342706
6.508892 -6.321467 0.115633 8342706
6.391965 -6.083793 4.946052 8342706
5.456308 -5.883646 3.785749 8342706
6.464840 -6.039423 0.237682 8342706
6.227118 -5.650137 3.720284 8342706
6.103108 -6.012657 2.468919 8342706
6.274576 -5.989262 0.699793 8342706
6.430718 -5.955538 2.421533 8342706
6.090724 -6.498971 2.767226 8342706
6.384090 -6.098248 1.374648 8342706
6.193485 -5.627998 1.074119 8342706
6.258027 -5.595473 4.307868 8342706
6.176486 -6.442542 0.739047 8342706
5.645752 -6.070499 3.178522 8342706
6.523337 -5.797355 1.099462 8342706
6.165549 -5.776515 2.584081 8342706
5.993214 -6.075805 2.534273 8342706
6.393258 -5.692012 1.788467 8342706
5.976153 -6.104547 3.843399 8342706
6.495486 -6.003028 1.596855 8342706
5.509105 -6.274486 0.719784 8342706
5.817005 -6.352768 4.987649 8342706
6.471097 -5.778898 3.975524 8342706
6.241790 -6.007436 0.128506 8342706
6.271959 -5.832909 3.579005 8342706
6.502706 -6.072561 4.585740 8342706
5.915685 -6.050891 3.127871 8342706
6.389530 -6.253625 1.760189 8342706
6.025795 -5.440290 1.972836 8342706
5.427550 -5.967806 4.251616 8342706
6.088639 -6.057385 2.967475 8342706
6.248554 -5.936823 3.236640 8342706
5.641120 -6.155165 3.350710 8342706
6.153577 -6.343043 4.409587 8342706
6.091404 -5.507810 4.113974 8342706
5.919601 -5.856863 2.935299 8342706
5.420950 -6.100841 2.049322 8342706
6.298284 -6.444822 4.868253 8342706
5.646603 -6.367214 2.926790 8342706
6.316484 -6.333992 2.354130 8342706
6.431107 -5.810643 1.049764 8342706
6.459404 -5.850147 2.266828 8342706
5.989777 -5.516324 2.053365 8342706
6.216661 -5.754210 0.460454 8342706
5.888875 -6.285895 1.545588 8342706
6.390512 -5.765579 2.464016 8342706
6.370118 -5.533946 4.109017 8342706
6.461846 -6.156168 1.495052 8342706
6.165094 -5.819987 3.241920 8342706
5.733557 -6.377742 3.107282 8342706
6.266264 -5.553921 4.472926 8342706
6.017289 -5.896832 0.764840 8342706
5.578989 -6.375230 4.429756 8342706
5.600919 -5.765310 4.263692 8342706
6.190572 -5.844336 1.383269 8342706
5.732938 -5.789302 1.065030 8342706
5.873965 -6.112284 0.623472 8342706
6.189985 -5.456933 1.205242 8342706
6.268168 -5.529881 1.152379 8342706
5.676397 -6.265538 4.267759 8342706
5.914129 -6.071067 4.942340 8342706
6.210270 -5.569409 3.765929 8342706
5.654164 -6.019232 4.260543 8342706
6.091245 -6.578226 4.280517 8342706
5.698877 -5.739264 3.972507 8342706
5.535888 -6.086717 3.764523 8342706
6.237712 -6.417216 1.059913 8342706
6.562864 -5.943261 0.477719 8342706
6.002630 -5.547253 2.915624 8342706
6.221421 -6.396863 1.663133 8342706
5.529132 -6.212616 3.931993 8342706
5.613347 -6.439750 2.813724 8342706
5.806141 -5.524322 2.255413 8342706
6.528445 -6.234225 2.084738 8342706
6.062709 -6.353787 0.535742 8342706
5.455763 -5.864776 2.583094 8342706
5.827837 -5.664007 2.547384 8342706
6.279549 -6.070842 0.224868 8342706
6.044252 -5.609352 4.356585 8342706
6.502310 -6.266935 4.431040 8342706
5.803473 -6.396845 4.404612 8342706
5.468659 -5.767872 4.340282 8342706
5.964086 -5.499073 1.498454 8342706
6.540995 -6.204890 4.008543 8342706
6.380414 -6.153886 1.421761 8342706
5.829612 -6.176590 3.743283 8342706
6.114951 -6.328697 1.913308 8342706
5.539595 -5.643982 3.383122 8342706
5.784522 -6.463344 3.532357 8342706
5.489812 -5.671693 3.925404 8342706
6.169122 -5.567875 0.057936 8342706
6.364388 -5.965428 2.634339 8342706
6.377881 -6.075531 1.741658 8342706
5.810364 -5.775341 3.226207 8342706
6.016939 -5.802586 3.177690 8342706
6.302877 -6.064261 2.027714 8342706
6.378854 -5.831138 2.215766 8342706
6.069598 -5.808325 0.074051 8342706
5.819833 -6.070950 0.103679 8342706
6.224649 -6.445622 0.895855 8342706
6.344905 -6.477131 0.758556 8342706
6.143830 -6.366163 4.224037 8342706
5.874077 -6.520105 1.813277 8342706
5.615829 -5.920866 0.980993 8342706
5.771038 -5.677041 2.702747 8342706
6.200617 -5.746899 0.387915 8342706
6.088281 -5.424215 2.092527 8342706
6.012598 -6.493610 1.075347 8342706
6.260182 -5.555434 1.296955 8342706
6.463200 -5.681162 3.613433 8342706
6.478972 -6.278134 0.330675 8342706
5.785267 -5.932437 4.016071 8342706
6.167267 -6.104039 1.734817 8342706
6.098013 -6.244455 3.236014 8342706
5.603889 -6.266317 3.697555 8342706
6.553340 -6.135681 1.844747 8342706
6.276118 -6.212478 1.695210 8342706
5.557653 -5.800808 2.470619 8342706
6.369807 -6.410497 2.016744 8342706
6.093090 -6.208595 3.567026 8342706
6.155003 -6.566851 4.283560 8342706
6.426884 -6.386436 3.679789 8342706
6.124963 -5.544219 2.023135 8342706
6.103907 -5.457866 0.909895 8342706
6.156623 -6.441115 1.132005 8342706
5.663951 -6.059649 0.126219 8342706
5.844674 -5.600694 2.621219 8342706
5.788027 -6.379150 2.632331 8342706
6.100903 -5.486661 3.474773 8342706
5.753457 -6.280390 3.365338 8342706
6.305717 -6.314406 1.090089 8342706
5.815045 -6.531233 4.752639 8342706
6.248087 -5.672754 4.897472 8342706
6.011539 -6.469195 1.863508 8342706
5.682691 -5.781823 0.322812 8342706
6.300819 -5.548053 4.290458 8342706
5.601746 -5.831276 4.356848 8342706
6.234779 -5.593842 0.513793 8342706
6.263251 -6.375496 4.007709 8342706
6.171290 -6.545347 0.576468 8342706
6.170113 -5.860955 1.009154 8342706
6.454384 -6.160570 2.779542 8342706
6.021287 -6.374888 3.739254 8342706
5.994312 -5.515413 2.043341 8342706
6.458246 -6.194088 3.293350 8342706
6.112893 -5.432326 0.238745 8342706
5.493961 -5.698715 4.392954 8342706
6.164101 -6.349554 1.671378 8342706
6.417605 -5.610249 1.876786 8342706
5.853108 -6.109273 0.911623 8342706
6.366528 -5.604266 3.694663 8342706
5.640791 -6.148191 3.741212 8342706
6.509464 -5.906838 1.181870 8342706
5.743719 -6.010354 2.432770 8342706
6.227124 -6.340606 2.952749 8342706
5.708075 -6.380201 4.085087 8342706
6.047812 -6.300961 3.908858 8342706
6.407712 -5.572464 4.945833 8342706
6.514821 -6.259925 4.662071 8342706
6.022183 -5.943013 3.872522 8342706
6.165936 -6.388133 4.331674 8342706
5.724833 -6.178986 2.001116 8342706
6.424654 -5.877762 2.106620 8342706
6.450220 -5.973845 2.186866 8342706
5.857059 -5.430638 1.054431 8342706
6.471269 -5.809844 0.289279 8342706
5.837255 -5.457051 1.405242 8342706
6.243014 -5.708991 4.846149 8342706
5.971317 -5.645783 1.247238 8342706
6.483294 -5.795101 2.266395 8342706
5.774017 -6.220225 3.687764 8342706
6.289058 -6.167173 1.498981 8342706
5.972369 -6.402267 3.968802 8342706
6.010224 -5.835201 2.275590 8342706
6.159822 -6.034405 4.100838 8342706
6.162550 -6.424226 4.334409 8342706
6.278935 -5.597181 4.749192 8342706
6.374494 -5.839189 3.605282 8342706
5.985253 -5.793018 3.163088 8342706
6.546507 -5.869014 3.046421 8342706
6.268016 -5.859148 2.837057 8342706
6.283739 -6.314970 2.003670 8342706
5.765155 -5.690232 3.606957 8342706
5.720338 -5.724779 3.049139 8342706
6.256370 -5.981502 1.475583 8342706
6.382871 -6.220302 1.102940 8342706
5.843713 -5.593143 2.969245 8342706
5.530431 -5.877368 0.122792 8342706
5.658669 -5.664477 0.442432 8342706
5.612126 -5.569247 2.852888 8342706
5.971271 -5.501899 2.119955 8342706
5.519002 -6.112642 1.880939 8342706
6.118772 -5.497483 3.484794 8342706
5.436876 -5.917522 4.596134 8342706
5.443173 -5.811624 2.917308 8342706
6.179542 -6.320371 1.851918 8342706
5.560398 -6.373941 0.855577 8342706
5.883888 -6.509492 1.630124 8342706
6.090661 -6.336390 3.432968 8342706
5.946020 -6.492985 4.610998 8342706
6.328921 -6.176237 0.793107 8342706
6.502509 -6.327724 1.445106 8342706
6.563801 -5.907694 3.381064 8342706
5.565819 -6.098017 1.107844 8342706
6.291913 -6.278149 1.975329 8342706
6.163220 -6.292483 2.957028 8342706
6.079598 -6.503583 4.959121 8342706
5.998557 -6.463391 0.610792 8342706
6.295020 -5.783877 1.747092 8342706
6.398043 -5.919914 1.307496 8342706
6.225910 -6.405805 0.495398 8342706
6.299433 -6.123497 2.897532 8342706
6.489678 -6.134514 0.099903 8342706
6.087875 -5.663795 1.229085 8342706
6.467206 -6.266802 4.303873 8342706
6.447989 -5.656056 4.808965 8342706
6.493511 -6.167236 3.618480 8342706
6.331383 -6.329282 1.597800 8342706
5.763246 -6.315546 0.441694 8342706
6.162177 -5.574263 2.717631 8342706
6.245847 -6.058045 3.867913 8342706
6.315557 -5.843167 0.386543 8342706
6.199186 -5.847054 3.938972 8342706
5.786450 -6.408810 3.285363 8342706
6.411240 -6.212302 -0.013974 8342706
6.334238 -5.765434 1.359428 8342706
6.292827 -6.018349 4.241271 8342706
6.341510 -6.077689 2.037097 8342706
5.779407 -5.579850 4.393750 8342706
5.824936 -6.037506 0.843885 8342706
6.017662 -5.755193 4.170764 8342706
5.505577 -5.729835 3.982410 8342706
6.461546 -6.114546 1.752075 8342706
6.290113 -6.455129 1.696046 8342706
6.282519 -6.208213 4.638045 8342706
5.553091 -6.311244 1.212483 8342706
6.014403 -6.237768 3.449547 8342706
6.244289 -5.580261 3.764010 8342706
6.027326 -6.570827 3.678994 8342706
5.941419 -6.005890 1.752787 8342706
5.810589 -5.643177 2.752462 8342706
6.180533 -6.312105 0.913985 8342706
6.176105 -5.986401 3.888016 8342706
6.115688 -6.285922 1.975847 8342706
5.758565 -6.139019 1.049916 8342706
6.595707 -6.011073 1.761435 8342706
5.738476 -6.099088 4.324062 8342706
6.453500 -5.768835 1.014160 8342706
5.545146 -5.880627 0.775173 8342706
6.320361 -6.012413 5.006084 8342706
6.170961 -6.557727 4.114758 8342706
6.084837 -6.401020 4.692101 8342706
6.004817 -5.821460 1.368700 8342706
6.519168 -6.148504 4.988883 8342706
6.159122 -6.065281 1.671571 8342706
5.844384 -5.967235 2.092439 8342706
5.728870 -5.971882 3.049789 8342706
6.509346 -6.253417 4.101157 8342706
5.489707 -5.882429 3.591928 8342706
6.159052 -6.090906 1.007992 8342706
5.877589 -6.250669 1.911944 8342706
5.954730 -5.659112 2.399027 8342706
6.314748 -6.268693 0.081646 8342706
5.819790 -5.582059 4.538515 8342706
5.991811 -5.477552 4.067625 8342706
5.779542 -5.435050 3.549016 8342706
6.409426 -6.334846 1.565580 8342706
5.497341 -6.010947 4.731954 8342706
6.056242 -6.520929 0.127516 8342706
6.520454 -5.959662 1.504535 8342706
6.358708 -5.546839 3.370431 8342706
5.780516 -5.897758 0.832941 8342706
6.011827 -5.999236 0.878107 8342706
5.615018 -5.891471 2.234231 8342706
5.714123 -5.622683 2.277811 8342706
5.768609 -6.100958 3.530142 8342706
6.335304 -5.489095 1.131848 8342706
5.647756 -5.773848 4.830811 8342706
5.875108 -5.791505 0.093297 8342706
5.624975 -6.479600 2.457294 8342706
5.869543 -6.478815 3.630864 8342706
6.040359 -6.602623 0.609584 8342706
6.035740 -5.713581 1.734402 8342706
6.104693 -5.921999 1.782692 8342706
6.170398 -5.780654 4.172404 8342706
5.480912 -6.275417 4.956017 8342706
6.562457 -5.848085 2.161965 8342706
6.222057 -6.444293 3.910021 8342706
6.232565 -5.707886 2.530812 8342706
6.237716 -6.363935 2.393529 8342706
6.065937 -5.651465 4.516143 8342706
5.616540 -6.302273 3.471819 8342706
5.995291 -6.447745 2.710506 8342706
6.581244 -6.104318 0.466755 8342706
5.724796 -5.666907 4.800255 8342706
6.289519 -5.792860 0.276306 8342706
5.950003 -5.727935 4.689550 8342706
6.078418 -5.520539 2.431724 8342706
6.357614 -5.933263 1.857390 8342706
5.836235 -6.326583 3.406287 8342706
6.101172 -5.699656 4.215755 8342706
6.453042 -5.829608 0.470820 8342706
6.364274 -5.766205 4.625603 8342706
6.251099 -6.043854 2.763874 8342706
6.326283 -6.242398 0.706295 8342706
5.438774 -5.998223 2.417176 8342706
5.687457 -5.932935 4.299060 8342706
6.252102 -5.905752 4.815886 8342706
6.314852 -5.581116 1.388716 8342706
5.830393 -6.250003 4.073142 8342706
6.472078 -5.686136 4.592834 8342706
5.860467 -5.500643 4.353425 8342706
5.659790 -5.836466 0.475588 8342706
6.436024 -5.824279 3.470280 8342706
6.366740 -5.729636 0.646173 8342706
5.680184 -6.095731 0.749210 8342706
