# .PCD v0.7 - Point Cloud Data file format
VERSION 0.7
FIELDS x y z rgb
SIZE 4 4 4 4
TYPE F F F U
COUNT 1 1 1 1
WIDTH 1207
HEIGHT 1
VIEWPOINT 0 0 0 1 0 0 0
POINTS 1207
DATA ascii
-12.631939 0.133512 1.626074 15014169
-12.727840 0.657733 0.593338 15014169
-13.019371 0.339381 0.615407 15014169
-12.476483 0.195191 1.341988 15014169
-12.787166 0.177155 1.338685 15014169
-13.021048 0.653440 1.628911 15014169
-12.412710 0.336768 0.344279 15014169
-12.380343 0.279111 1.289284 15014169
-12.819164 0.044907 1.477100 15014169
-12.615915 0.577511 1.064187 15014169
-12.447236 0.679710 0.318248 15014169
-13.016962 0.212226 0.465501 15014169
-12.586476 0.325085 1.537601 15014169
-12.940987 0.354646 0.315967 15014169
-12.589832 0.372885 0.479614 15014169
-12.459507 0.684681 0.394645 15014169
-13.036534 0.351652 1.138293 15014169
-12.867460 0.539112 0.592106 15014169
-12.716134 0.443810 0.924938 15014169
-12.968614 0.231922 0.484617 15014169
-12.830670 0.223820 1.037794 15014169
-12.675625 0.354987 0.749714 15014169
-12.699848 0.652845 1.499940 15014169
-12.989777 0.268898 0.896701 15014169
-12.581282 0.542737 0.927327 15014169
-12.766543 0.606508 1.064064 15014169
-12.432614 0.094626 0.822484 15014169
-12.391180 0.527827 1.559467 15014169
-12.881925 0.570382 0.596643 15014169
-12.703774 0.217006 0.915604 15014169
-12.517376 0.254205 1.174667 15014169
-12.770555 0.671375 1.214968 15014169
-12.641250 0.301698 1.028950 15014169
-13.049996 0.098545 1.594783 15014169
-13.006505 0.690551 1.296367 15014169
-12.651374 0.559817 0.508083 15014169
-12.513394 0.552295 1.046594 15014169
-12.727701 0.376118 0.931912 15014169
-12.518222 0.242634 0.385358 15014169
-12.395921 0.361775 1.373254 15014169
-12.595961 0.438338 0.485876 15014169
-12.877024 0.354042 1.074843 15014169
-12.496191 0.264918 0.858877 15014169
-12.434108 0.630309 0.448496 15014169
-12.960805 0.498080 1.102894 15014169
-12.376288 0.566552 1.428082 15014169
-12.932351 0.405196 1.182452 15014169
-13.062494 0.397962 0.923810 15014169
-12.820438 0.233279 1.554397 15014169
-13.038175 0.273996 0.712364 15014169
-12.432922 0.066846 0.937269 15014169
-12.858113 0.542172 1.274006 15014169
-12.611094 0.673273 1.635663 15014169
-13.018575 0.132885 0.363715 15014169
-12.415833 0.732937 0.835021 15014169
-13.012125 0.144196 1.526334 15014169
-12.759775 0.203976 1.182336 15014169
-12.524038 0.381093 0.364469 15014169
-12.814345 0.657216 0.453314 15014169
-12.979554 0.597875 0.492975 15014169
-12.987402 0.210459 0.726133 15014169
-12.837212 0.586499 0.629910 15014169
-12.980964 0.146914 0.808928 15014169
-12.893307 0.627392 1.144383 15014169
-12.864521 0.761134 0.898365 15014169
-12.431135 0.246517 0.742491 15014169
-12.385877 0.100944 1.558408 15014169
-12.390401 0.279185 1.588107 15014169
-12.439517 0.746272 0.465473 15014169
-12.664067 0.608211 1.318196 15014169
-12.476452 0.051378 1.620407 15014169
-12.967558 0.071341 1.660015 15014169
-12.943801 0.640877 0.306533 15014169
-13.050454 0.074806 1.174527 15014169
-12.901099 0.356734 1.640363 15014169
-12.925999 0.218721 0.966486 15014169
-12.876383 0.398101 0.934432 15014169
-12.846840 0.064347 1.367210 15014169
-12.450742 0.276222 0.936127 15014169
-13.033063 0.560666 0.639738 15014169
-12.980575 0.153739 0.592063 15014169
-12.560795 0.370036 1.275259 15014169
-12.984680 0.212942 1.427925 15014169
-13.077674 0.219114 1.471715 15014169
-12.599162 0.230186 1.442695 15014169
-12.951914 0.415579 1.139006 15014169
-12.381297 0.519921 0.794997 15014169
-12.713188 0.212749 1.688894 15014169
-12.770092 0.107217 1.675816 15014169
-12.446526 0.435547 0.358637 15014169
-12.478011 0.669729 1.176444 15014169
-12.871899 0.690874 0.321917 15014169
-12.853357 0.292145 1.492507 15014169
-13.064788 0.476683 1.079748 15014169
-12.828454 0.116457 0.502470 15014169
-12.602841 0.087498 0.395370 15014169
-12.740559 0.431342 0.334988 15014169
-12.672790 0.141593 0.466645 15014169
-12.577179 0.268956 1.417535 15014169
-4.345002 7.190086 0.460255 10053171
-5.967777 7.114378 0.415596 10053171
-4.429158 6.988084 2.361693 10053171
-5.170998 7.152952 2.883881 10053171
-3.832428 7.002419 0.288823 10053171
-6.698366 6.757942 2.485552 10053171
-4.116506 7.152215 2.557275 10053171
-3.162947 6.960437 1.352947 10053171
-4.393925 6.969566 0.512023 10053171
-3.501970 7.205660 2.577050 10053171
-3.686186 7.180395 2.490098 10053171
-3.261870 6.961510 0.859690 10053171
-3.967595 7.058105 0.156476 10053171
-4.940451 6.809318 1.153928 10053171
-6.813697 7.002816 0.175774 10053171
-4.611373 7.109249 2.194379 10053171
-6.421142 6.971810 1.230466 10053171
-4.664204 6.921490 0.448019 10053171
-6.898867 6.760066 2.829082 10053171
-6.308522 7.222574 2.894532 10053171
-6.065332 7.072464 0.760269 10053171
-6.169954 6.806889 2.816612 10053171
-3.720950 6.882621 2.218721 10053171
-4.821418 7.047676 2.521374 10053171
-6.578599 7.000395 2.655564 10053171
-6.046356 7.138795 1.104823 10053171
-3.412503 7.148895 1.434243 10053171
-4.612461 6.960435 1.340306 10053171
-5.988553 7.215497 2.392491 10053171
-6.666121 7.048720 2.961279 10053171
-6.874235 7.072554 1.118156 10053171
-5.979114 6.750257 0.151889 10053171
-6.137012 7.029401 1.958342 10053171
-3.861067 6.964025 0.586071 10053171
-4.716441 7.150326 0.113689 10053171
-5.872053 7.162463 2.064307 10053171
-4.857551 6.972755 1.424538 10053171
-5.512827 7.226799 2.729459 10053171
-5.089470 6.737048 1.324543 10053171
-6.149882 6.987648 2.526882 10053171
-4.471130 6.930891 2.126330 10053171
-4.108443 7.124901 1.101724 10053171
-3.870772 6.754075 0.877773 10053171
-4.735248 6.935598 2.219969 10053171
-5.549030 6.955117 0.637363 10053171
-3.792710 7.052521 1.149293 10053171
-3.479635 7.064346 2.132671 10053171
-4.288599 7.180489 0.722202 10053171
-4.133541 7.247060 2.545100 10053171
-5.304598 6.976526 1.604554 10053171
-6.765424 7.066157 2.613843 10053171
-5.664085 6.979678 1.207008 10053171
-5.752968 6.868755 2.798818 10053171
-3.546186 6.835445 2.687038 10053171
-3.070376 6.910562 0.625299 10053171
-5.026333 7.024445 2.149945 10053171
-3.517408 7.052718 0.814199 10053171
-5.449344 7.043719 1.620871 10053171
-3.370278 7.091112 2.166640 10053171
-6.454454 7.182002 0.025099 10053171
-6.360524 6.747425 2.587919 10053171
-4.405977 6.957826 2.936290 10053171
-6.312577 6.955501 0.870173 10053171
-3.751004 7.174891 1.055655 10053171
-3.545256 7.066463 2.686770 10053171
-4.195987 6.925128 2.158967 10053171
-6.366032 6.804120 1.074657 10053171
-3.792630 7.012553 1.923591 10053171
-3.874543 7.058585 1.223139 10053171
-5.442664 7.207501 0.712366 10053171
-5.910261 6.939165 2.524966 10053171
-3.286369 6.921140 1.516419 10053171
-6.794044 6.760535 2.278722 10053171
-3.693575 6.995729 0.989843 10053171
-6.511667 7.208894 1.584070 10053171
-5.302668 6.984925 0.880112 10053171
-6.482692 6.896746 0.457618 10053171
-4.550954 7.082757 2.273470 10053171
-6.747004 7.175377 1.142868 10053171
-4.022077 6.896431 0.233615 10053171
-5.765724 7.227268 0.678371 10053171
-6.943025 7.068116 2.926615 10053171
-3.117721 7.097286 2.165863 10053171
-4.132340 7.100100 0.036351 10053171
-4.437530 7.152566 1.337392 10053171
-6.613230 7.223103 0.400133 10053171
-5.846621 6.889492 0.159431 10053171
-3.248394 6.867765 0.162811 10053171
-6.527564 6.911535 1.335232 10053171
-5.974448 6.837220 0.009730 10053171
-5.454645 7.029173 1.766660 10053171
-6.376281 7.016876 2.971312 10053171
-6.073571 6.822021 2.958859 10053171
-4.223649 7.209793 1.430779 10053171
-4.293925 7.133582 2.197015 10053171
-3.916936 7.186998 2.388196 10053171
-5.683284 7.223047 0.382849 10053171
-5.336946 6.913001 0.428301 10053171
-3.352334 6.948390 1.005270 10053171
-6.878581 6.968217 0.259173 10053171
-4.492276 6.799266 1.757997 10053171
-6.248196 7.229648 1.532318 10053171
-3.842642 7.181998 0.869338 10053171
-3.786203 6.952819 2.091637 10053171
-4.794022 7.129869 1.240830 10053171
-5.644083 7.240598 1.576793 10053171
-4.231121 6.956901 0.404798 10053171
-5.531556 7.203497 0.312732 10053171
-3.267534 7.078769 0.141069 10053171
-5.116578 6.789820 1.799332 10053171
-5.622326 7.068623 2.647488 10053171
-5.463868 6.889472 2.399453 10053171
-4.479105 6.926698 0.698842 10053171
-4.753046 6.938207 2.319699 10053171
-6.498616 6.957101 1.183039 10053171
-5.736695 6.790711 1.377966 10053171
-4.575281 6.927116 1.782543 10053171
-4.062364 7.059834 2.544779 10053171
-3.319423 7.030973 0.192241 10053171
-4.636637 6.760386 1.396530 10053171
-3.816495 7.206276 0.843307 10053171
-5.163187 6.856776 0.218704 10053171
-6.440825 6.746258 0.313633 10053171
-5.598354 7.024152 0.824664 10053171
-3.141154 7.169099 1.561817 10053171
-5.383529 7.077746 2.736678 10053171
-5.325737 6.916247 2.663066 10053171
-4.386032 6.888464 0.784666 10053171
-6.976595 7.111688 2.666955 10053171
-4.278461 7.042726 2.894998 10053171
-4.859069 6.981713 0.248867 10053171
-6.471385 6.908445 2.239537 10053171
-5.340475 6.903891 1.748926 10053171
-5.257710 7.055387 1.624181 10053171
-4.630019 6.832445 0.824908 10053171
-3.276836 6.829158 0.438011 10053171
-4.018140 6.956928 1.214562 10053171
-3.762741 7.240089 0.774839 10053171
-5.138561 7.037138 2.748418 10053171
-4.727290 7.174823 1.111337 10053171
-5.638702 6.796197 2.561438 10053171
-5.400264 7.176823 2.304516 10053171
-6.055778 6.991585 2.982245 10053171
-3.715477 6.930503 1.071741 10053171
-4.233322 7.092424 2.740317 10053171
-5.921889 7.050263 0.644655 10053171
-4.977489 6.807265 2.298744 10053171
-3.926241 6.811017 1.348075 10053171
-6.010357 7.196770 1.753747 10053171
-3.612940 7.195484 0.404785 10053171
-5.875075 6.941524 2.260607 10053171
-6.559145 6.869176 1.758348 10053171
-4.754614 6.780882 2.788169 10053171
-6.507323 7.172555 1.240309 10053171
-3.587853 7.011821 1.081314 10053171
-6.272047 6.830630 1.537880 10053171
-3.026398 6.861999 1.562899 10053171
-6.401179 7.227080 0.952603 10053171
-4.791024 7.003225 1.239709 10053171
-6.392228 7.093915 0.917588 10053171
-6.878131 6.883785 2.267674 10053171
-3.696642 7.227784 1.831406 10053171
-4.235508 7.179830 0.790819 10053171
-6.277580 6.809361 2.944319 10053171
-3.047488 6.761376 2.271721 10053171
-6.417209 6.907569 1.471993 10053171
-6.311475 6.987428 1.009578 10053171
-5.148953 6.782127 1.214605 10053171
-3.955180 7.147044 0.932299 10053171
-6.393548 7.074551 0.837577 10053171
-6.231869 6.739090 2.109612 10053171
-3.512433 7.030954 0.944392 10053171
-5.337648 6.974057 2.301836 10053171
-4.503766 6.767266 0.634886 10053171
-5.576967 7.222850 0.169027 10053171
-3.622322 6.938751 1.835629 10053171
-6.989676 7.179267 2.109538 10053171
-6.185629 7.162926 1.958593 10053171
-4.709135 6.909536 0.454896 10053171
-5.541453 6.940447 1.742201 10053171
-6.736961 6.801011 1.273312 10053171
-5.586021 6.811265 1.505021 10053171
-6.405696 6.881022 2.028274 10053171
-5.978173 6.783446 1.067450 10053171
-5.780842 6.742904 2.080503 10053171
-5.547297 6.802066 1.560650 10053171
-3.367635 7.060455 2.633461 10053171
-5.062516 7.029562 0.350803 10053171
-4.198505 7.201372 0.560055 10053171
-5.041648 7.130533 0.829103 10053171
-6.384908 6.906487 2.871321 10053171
-6.864719 6.838983 2.546404 10053171
-6.710213 6.764776 0.419317 10053171
-3.251721 7.092532 1.571870 10053171
-6.008642 6.753534 2.608980 10053171
-4.066936 6.931315 1.545624 10053171
-6.728179 7.236035 0.597073 10053171
-6.902513 6.960665 2.974340 10053171
-4.474166 6.944642 1.939919 10053171
-4.880325 7.072292 2.537743 10053171
-3.963981 7.086923 0.795650 10053171
-4.122260 7.261039 0.506607 10053171
-3.914230 6.790560 1.138294 10053171
-3.460946 7.218516 2.480273 10053171
-3.393770 7.179523 0.189633 10053171
-3.149733 6.806981 0.445614 10053171
-4.797574 7.195395 1.099358 10053171
-6.921103 7.084312 0.589804 10053171
-6.238645 6.766586 1.864133 10053171
-6.645994 6.937611 0.628570 10053171
-6.373993 7.179976 1.714032 10053171
-6.403609 6.804726 1.100079 10053171
-4.967012 6.804517 0.296153 10053171
-5.288446 7.036418 1.129158 10053171
-6.002324 7.084857 1.249157 10053171
-3.172824 7.009459 2.077450 10053171
-4.536101 6.927189 0.139229 10053171
-6.045589 6.839086 0.176710 10053171
-3.648368 7.150634 0.339108 10053171
-3.340731 7.198505 2.609636 10053171
-4.001689 6.897467 2.658485 10053171
-4.129869 6.853767 2.974554 10053171
-5.530120 7.089381 1.942489 10053171
-4.331186 7.155118 0.745942 10053171
-4.261708 6.940875 0.572322 10053171
-3.607376 7.144727 0.610066 10053171
-3.738650 6.925539 0.906857 10053171
-4.650786 7.020218 0.630848 10053171
-4.189230 6.953707 0.207971 10053171
-6.564622 6.806534 2.360031 10053171
-4.709515 7.161050 0.508653 10053171
-5.167407 6.995907 1.446422 10053171
-6.459139 7.245796 1.326726 10053171
-6.975941 7.018856 2.085242 10053171
-6.591411 7.240919 1.472126 10053171
-5.064198 7.154038 2.868736 10053171
-4.712962 6.830270 0.728708 10053171
-4.296644 6.946164 1.303555 10053171
-5.438439 6.805313 2.061233 10053171
-4.000640 6.770684 2.807365 10053171
-5.932586 7.022456 1.395451 10053171
-6.736890 6.781745 0.261370 10053171
-3.287881 7.162292 2.708231 10053171
-5.094723 7.066411 1.750224 10053171
-5.867547 7.190907 0.513123 10053171
-6.239832 6.876643 1.057599 10053171
-6.954336 7.102387 1.631813 10053171
-5.757722 7.232338 2.573668 10053171
-6.241063 6.943483 2.036310 10053171
-3.788564 6.968050 1.358341 10053171
-5.729798 7.146606 0.865871 10053171
-3.112396 6.789792 0.991589 10053171
-3.891208 6.858579 1.094858 10053171
-5.347176 7.194545 1.637874 10053171
-3.506436 6.772351 0.841398 10053171
-4.673281 7.245577 1.557809 10053171
-3.645008 6.997257 2.213244 10053171
-4.599319 7.126193 2.675230 10053171
-4.901465 7.078712 2.111923 10053171
-6.911778 6.772211 2.378082 10053171
-3.420133 7.128677 0.871908 10053171
-5.533972 7.048502 2.934600 10053171
-4.818140 6.922943 0.686547 10053171
-4.590186 6.996916 2.168380 10053171
-6.920446 7.028808 2.215527 10053171
-3.641892 6.866185 1.217467 10053171
-4.325733 6.936903 0.799465 10053171
-6.426910 6.779535 2.070205 10053171
-6.035671 6.794474 2.076646 10053171
-4.841285 6.770615 0.937774 10053171
-3.713888 6.863025 0.011107 10053171
-4.880892 7.129645 2.483850 10053171
-3.749771 7.014000 2.494495 10053171
-5.182598 7.084930 1.511908 10053171
-6.236090 6.843811 1.613289 10053171
-6.687906 7.153002 2.914507 10053171
-3.940214 6.913447 0.941126 10053171
-6.254513 7.054377 0.967212 10053171
-4.892449 7.146239 1.519119 10053171
-3.299351 7.219880 0.899001 10053171
-6.359652 7.089918 1.868332 10053171
-5.681630 6.811207 1.330833 10053171
-3.554348 6.904922 0.411103 10053171
-5.645017 6.809476 2.112790 10053171
-4.306186 7.254454 0.446677 10053171
-3.196223 6.997118 1.437581 10053171
-3.116493 6.931489 1.822289 10053171
-4.084686 6.761132 0.884789 10053171
-4.271964 7.206592 1.327098 10053171
-3.083312 6.844409 0.297971 10053171
-4.013193 7.130842 1.406796 10053171
-5.447673 6.927864 1.070351 10053171
-3.963286 6.961379 0.358343 10053171
-3.791316 6.949054 0.172379 10053171
-5.734235 7.249872 1.847869 10053171
-5.695010 7.195471 1.794050 10053171
-6.049228 6.760154 2.371227 10053171
-3.613516 6.956769 0.809355 10053171
-5.226795 7.116934 1.187845 10053171
-5.119785 6.837320 2.470240 10053171
-4.262383 7.187248 0.644757 10053171
-6.982543 7.213685 0.061132 10053171
-4.011706 6.787209 1.104935 10053171
-4.051162 6.787791 1.840442 10053171
-5.400764 6.847470 2.743141 10053171
-3.273643 7.037964 1.536122 10053171
-3.319326 7.222215 0.005542 10053171
-3.234478 6.819960 1.503055 10053171
-4.632815 6.958556 1.564620 10053171
-4.970297 6.869456 0.153204 10053171
-6.797255 6.825438 1.560115 10053171
-5.572960 6.935426 0.145634 10053171
-6.937503 6.930893 1.419646 10053171
-4.208181 6.755847 1.316398 10053171
-6.370886 6.926821 0.226931 10053171
-3.366762 6.755660 2.847921 10053171
-4.094059 6.779881 1.408805 10053171
-4.733455 6.822053 1.919080 10053171
-6.155868 6.781854 0.153111 10053171
-5.197781 7.139699 1.836847 10053171
-6.272911 7.134703 2.266867 10053171
-5.142544 7.077830 1.403311 10053171
-6.462418 6.944435 1.308535 10053171
-5.456936 7.099148 0.275240 10053171
-4.947155 7.175390 1.802937 10053171
-3.847096 6.983118 1.631215 10053171
-5.414327 7.075354 2.703053 10053171
-5.684288 7.068036 2.992841 10053171
-6.843926 7.132541 0.785180 10053171
-4.906555 7.171063 1.134605 10053171
-6.976960 6.939624 0.279786 10053171
-6.739033 6.977152 1.047575 10053171
-4.303097 6.791231 1.952105 10053171
-3.991516 7.168407 0.080792 10053171
-3.129886 7.044412 1.340997 10053171
-3.864437 7.021800 0.410047 10053171
-3.125238 6.759613 1.730345 10053171
-3.446243 6.856627 0.333281 10053171
-6.631599 7.075997 1.217912 10053171
-4.087808 7.143782 0.736452 10053171
-3.789186 7.005609 2.087003 10053171
-3.790054 7.024553 1.237957 10053171
-4.631025 7.154312 2.684315 10053171
-4.620990 7.236057 2.335979 10053171
-6.264618 7.173034 0.884346 10053171
-3.094020 6.911615 0.028376 10053171
-4.410178 6.765543 0.503149 10053171
-5.193803 7.035854 2.850255 10053171
-5.341011 7.004309 2.486907 10053171
-3.668614 7.228040 1.066016 10053171
-4.826427 6.797573 0.080863 10053171
-4.745851 7.127118 0.915947 10053171
-4.084107 6.867422 1.527664 10053171
-3.553686 6.958586 0.968145 10053171
-6.960573 7.108555 0.901674 10053171
-3.901518 6.912289 1.345280 10053171
-3.585266 6.954394 2.730579 10053171
-5.498464 6.827870 2.589411 10053171
-5.412483 6.769091 2.391561 10053171
-3.018955 6.830775 2.945941 10053171
-6.158848 6.832613 2.031926 10053171
-4.434987 7.131862 0.782843 10053171
-4.509167 7.025259 0.679983 10053171
-3.208141 7.230520 2.711948 10053171
-5.881622 7.181310 2.506817 10053171
-4.195910 6.900464 2.142193 10053171
-3.193802 6.943971 0.488726 10053171
-4.993378 6.832063 1.853425 10053171
-3.719615 6.977118 0.089025 10053171
-4.332283 7.220026 0.545600 10053171
-6.188304 6.873016 1.545338 10053171
-3.842540 7.203834 0.580161 10053171
-5.438451 6.773468 1.443505 10053171
-3.214926 6.824203 2.175999 10053171
-3.453842 6.972281 0.329893 10053171
-3.932120 7.237917 2.059823 10053171
-6.166742 7.199383 0.268619 10053171
-6.557813 6.914703 0.542776 10053171
-4.627429 6.896513 1.235937 10053171
-5.130186 6.791061 0.030091 10053171
-5.443207 6.796169 0.526705 10053171
-3.764227 6.801828 0.419886 10053171
-5.342658 7.206453 0.693080 10053171
-3.195649 7.186814 1.366105 10053171
-4.953253 6.759615 2.544284 10053171
-6.715643 7.136201 1.630711 10053171
-4.814477 6.779749 1.169732 10053171
-4.089604 7.038561 1.623482 10053171
-4.069473 7.006589 1.602026 10053171
-3.472505 6.940671 2.929027 10053171
-4.087131 7.150913 2.896286 10053171
-6.618179 6.921922 1.743142 10053171
-5.167845 7.058206 1.675321 10053171
-5.115401 7.175134 2.133963 10053171
-4.506814 6.857772 0.055478 10053171
-5.350183 6.723320 2.581518 10053171
-5.188563 6.757972 1.370245 10053171
-4.087943 6.879777 0.717011 10053171
-4.359994 7.048176 1.029372 10053171
-5.227135 7.128924 0.718133 10053171
-3.753340 6.783547 1.911815 10053171
-3.651234 7.242040 2.745673 10053171
-3.370173 7.148679 1.009774 10053171
-4.085725 7.214724 2.650344 10053171
-3.082455 7.173679 2.866114 10053171
-3.578022 7.044055 1.667095 10053171
-5.322582 7.098005 0.101322 10053171
-3.923890 6.937376 2.302283 10053171
-6.409119 7.042640 2.538893 10053171
-3.135624 7.095764 2.765632 10053171
-4.852801 7.174582 0.131772 10053171
-5.904489 6.902088 0.131351 10053171
-4.291901 7.042797 0.559790 10053171
-4.634118 7.146224 0.026297 10053171
-6.631025 7.225312 1.364058 10053171
-6.033868 6.942822 0.089259 10053171
-5.825589 6.770698 2.888949 10053171
-4.495538 7.052621 2.841497 10053171
-5.622313 7.206109 2.540273 10053171
-3.102743 6.963112 0.599399 10053171
-5.755406 6.943941 0.599628 10053171
-4.089383 7.110193 1.531711 10053171
-4.693498 6.787801 1.648584 10053171
-4.995240 7.133465 1.212636 10053171
-4.429678 6.972887 0.512033 10053171
-5.296037 7.228836 0.319687 10053171
-3.876810 6.966795 0.821207 10053171
-4.236084 6.944134 2.663909 10053171
-5.247694 7.114176 1.723626 10053171
-3.001170 6.978730 0.245580 10053171
-5.445540 6.839563 1.034245 10053171
-6.600814 7.069122 2.709485 10053171
-5.088890 6.808082 1.649205 10053171
-3.026408 6.914544 0.745016 10053171
-6.573510 6.980212 1.174770 10053171
-3.073345 7.009336 0.199789 10053171
-6.256474 7.211468 1.915839 10053171
-3.668715 6.933197 1.363776 10053171
-4.173108 7.120059 0.202859 10053171
-3.848383 7.152538 1.795977 10053171
-4.168364 7.014683 1.331959 10053171
-3.089623 6.819154 0.729845 10053171
-5.599695 7.226023 0.124822 10053171
-5.659392 7.015576 2.797438 10053171
-4.810752 6.941727 1.803401 10053171
-5.937650 7.169025 2.037339 10053171
-3.301589 7.101042 0.971056 10053171
-6.499596 6.803879 0.732477 10053171
-6.600398 7.068506 1.930966 10053171
-3.762203 6.856007 0.042833 10053171
-4.626710 7.118051 2.032881 10053171
-5.617809 6.778362 2.666799 10053171
-3.954511 7.078780 0.434257 10053171
-3.911438 6.764674 1.646025 10053171
-5.386287 7.019548 0.787432 10053171
-4.838026 6.841859 1.760725 10053171
-5.777878 6.943528 1.074785 10053171
-6.633955 6.868353 0.174554 10053171
-4.532679 6.975493 1.718093 10053171
-3.723614 7.099989 2.794860 10053171
-5.708450 6.862797 0.070611 10053171
-5.677218 7.050208 0.397641 10053171
-4.260545 6.852956 0.851624 10053171
-5.864651 6.856707 2.060843 10053171
-4.911669 6.833855 2.919129 10053171
-3.161275 6.998560 2.018608 10053171
-3.620570 6.913241 1.095380 10053171
-4.787841 7.140085 2.852046 10053171
-4.523141 7.148153 1.471240 10053171
-3.450311 7.102637 1.073548 10053171
-3.142968 7.158556 0.522178 10053171
-5.420910 7.106867 0.835267 10053171
-6.657390 6.963950 2.564600 10053171
-3.296257 6.923578 2.378502 10053171
-5.845733 7.145429 2.043973 10053171
-4.668622 6.912313 1.473393 10053171
-4.293949 6.801546 2.104428 10053171
-3.006365 6.742015 2.452687 10053171
-3.053080 6.970179 1.065246 10053171
-4.372240 7.187107 0.336605 10053171
-5.477127 7.228293 2.275780 10053171
-5.612071 7.141133 1.115277 10053171
-3.876229 6.886928 1.851044 10053171
-4.685142 7.104266 2.941636 10053171
-4.745489 7.188182 2.668632 10053171
-6.276153 7.045732 1.598184 10053171
-3.101931 7.212975 0.312275 10053171
-4.516658 6.865895 2.798881 10053171
-3.031685 6.911991 1.121668 10053171
-4.450089 7.257791 2.841827 10053171
-5.030877 6.912812 2.686171 10053171
-3.201144 6.971590 0.487862 10053171
-5.983849 6.820084 0.808762 10053171
-4.696321 7.134680 0.327516 10053171
-3.007093 7.084370 0.539843 10053171
-5.441551 6.923254 1.080083 10053171
-3.932312 6.814929 0.624647 10053171
-6.049752 6.977520 2.726007 10053171
-3.312454 6.919433 0.550162 10053171
-5.730164 6.790484 2.835072 10053171
-4.175287 6.841932 0.631662 10053171
-6.624724 6.989759 2.924837 10053171
-6.924840 7.236247 2.530814 10053171
-6.900283 7.207483 0.757292 10053171
-5.284788 7.000563 2.462175 10053171
-5.213028 6.957545 1.264114 10053171
-3.175500 7.140654 1.891008 10053171
-6.366931 6.950363 1.704966 10053171
-4.071466 6.848995 0.138038 10053171
-3.493564 6.888041 0.016722 10053171
-6.106400 6.878650 1.891481 10053171
-3.120042 7.082428 0.786575 10053171
-3.562840 7.043953 2.715626 10053171
-4.244625 7.047232 2.632573 10053171
-3.441243 6.883487 2.430606 10053171
-5.104144 6.901657 2.890212 10053171
-4.443564 7.111684 1.054433 10053171
-6.606954 6.831115 2.026202 10053171
-3.843845 6.888196 2.281222 10053171
-3.551054 6.989848 1.027480 10053171
-4.266628 6.755745 0.875623 10053171
-3.862959 6.996404 1.011263 10053171
-5.356992 6.963393 2.062007 10053171
-3.241568 6.836460 0.491904 10053171
-3.417596 7.235129 0.647156 10053171
-6.374112 6.751021 1.224649 10053171
-5.819207 7.218827 1.577500 10053171
-3.805568 6.894979 0.832527 10053171
-6.558160 6.887229 1.603215 10053171
-4.354952 6.816698 0.972492 10053171
-5.651265 6.935214 0.059468 10053171
-4.415705 7.026329 1.179506 10053171
-4.172048 6.900481 2.096770 10053171
-3.254343 7.183962 1.299666 10053171
-3.741546 7.234429 2.659423 10053171
-5.905669 6.812707 0.049850 10053171
-5.679269 6.813296 1.544905 10053171
-4.944222 6.943551 2.461590 10053171
-6.082809 7.057175 1.125448 10053171
-6.767299 7.221046 2.114913 10053171
-5.455162 6.874569 1.259688 10053171
-6.176091 6.927772 2.932374 10053171
-5.558254 6.757350 2.416007 10053171
-4.528692 7.166617 1.524786 10053171
-5.278316 6.876614 0.596225 10053171
-6.029434 7.229694 1.484781 10053171
-3.525513 6.860178 2.512036 10053171
-5.670108 6.950373 2.270972 10053171
-6.085008 6.973034 1.433291 10053171
-6.570418 6.871376 1.253607 10053171
-6.761065 7.076198 2.635213 10053171
-6.569032 6.861858 1.843266 10053171
-6.069669 6.973397 2.784646 10053171
-4.222310 7.193896 2.771078 10053171
-4.901825 7.080376 2.181815 10053171
-4.870388 7.141096 0.037501 10053171
-4.065177 6.865520 1.564841 10053171
-6.960537 7.235262 0.319543 10053171
-5.491173 7.169025 0.036319 10053171
-3.506552 6.800223 0.722521 10053171
-6.068093 6.792417 0.887723 10053171
-3.534633 6.815131 2.834413 10053171
-3.561233 7.176188 0.925278 10053171
-5.212437 6.836819 2.948063 10053171
-6.946849 6.871798 2.345181 10053171
-4.316077 6.832515 0.549529 10053171
-4.578260 6.866972 0.871221 10053171
-3.482719 6.840259 0.285634 10053171
-6.420695 6.978024 1.125202 10053171
-5.289727 7.212735 1.663761 10053171
-4.234321 7.160522 1.715051 10053171
-5.743991 7.111966 0.942528 10053171
-4.644214 6.942475 2.955680 10053171
-5.841729 7.020847 1.038527 10053171
-5.182998 7.141818 0.292800 10053171
-4.781829 6.851416 2.746567 10053171
-3.342260 6.991155 0.802346 10053171
-3.898318 7.008824 1.789814 10053171
-5.783932 6.982012 1.288936 10053171
-3.312173 6.968096 1.652054 10053171
-2.999925 7.232686 0.791830 10053171
-3.199081 7.220326 2.765336 10053171
-3.156337 7.172958 2.298834 10053171
-6.064472 6.929033 2.245992 10053171
-6.811240 7.051661 2.056647 10053171
-4.084296 6.812463 1.156589 10053171
-3.209480 7.243989 1.701281 10053171
-6.949883 7.157876 1.470767 10053171
-4.313005 6.897735 1.097271 10053171
-5.311839 7.036866 0.097787 10053171
-6.794927 7.139570 2.899842 10053171
-4.208753 6.814290 2.410544 10053171
-3.450417 7.042028 2.660796 10053171
-3.058620 6.779167 1.150494 10053171
-3.482353 7.219175 0.579364 10053171
-3.460392 6.950437 2.301269 10053171
-4.084941 7.088238 2.699186 10053171
-3.747427 7.042593 2.912356 10053171
-5.756234 6.925850 0.482446 10053171
-4.738074 7.120121 1.556229 10053171
5.883861 -5.965034 1.156950 8342706
6.133966 -5.737059 1.795296 8342706
5.438879 -6.088784 3.647605 8342706
6.159271 -6.471236 0.569784 8342706
5.449339 -6.217619 3.024775 8342706
6.159618 -6.441999 4.084444 8342706
6.334729 -6.046906 4.926496 8342706
6.203424 -5.625867 0.323342 8342706
5.994594 -6.162692 3.993664 8342706
6.194006 -5.973018 0.493288 8342706
5.603893 -5.660353 2.001932 8342706
6.161040 -6.435289 3.310166 8342706
6.535512 -5.788893 4.842199 8342706
6.052555 -5.620312 2.412378 8342706
6.451179 -5.947472 1.332890 8342706
6.084387 -6.230386 2.941244 8342706
6.548810 -5.869510 0.298508 8342706
6.355599 -6.425759 2.979385 8342706
6.306178 -5.505954 2.213691 8342706
6.456364 -6.359667 2.675185 8342706
6.180110 -6.081019 2.974285 8342706
6.274150 -5.564272 2.057258 8342706
5.619340 -6.292776 3.537931 8342706
5.823247 -5.559588 0.187613 8342706
5.654511 -5.768478 0.521342 8342706
6.508962 -5.800823 1.415923 8342706
6.024466 -5.400539 0.761019 8342706
6.210711 -6.326576 1.498601 8342706
6.437319 -6.160963 1.610716 8342706
6.524909 -6.055934 3.463565 8342706
5.619910 -6.183151 3.381063 8342706
5.849538 -6.197474 4.715310 8342706
5.785899 -5.535296 2.056494 8342706
6.334100 -5.778478 2.906646 8342706
6.250637 -5.939716 3.540262 8342706
5.444129 -6.103019 0.549284 8342706
6.415797 -5.814244 1.979706 8342706
5.905210 -5.788977 1.738516 8342706
5.740057 -5.875466 3.147888 8342706
5.650963 -6.169283 1.828627 8342706
5.815748 -5.527587 0.784927 8342706
6.459923 -6.090282 0.388578 8342706
6.005483 -6.123592 4.286851 8342706
5.598330 -6.182538 4.563978 8342706
5.738149 -5.762889 4.153818 8342706
5.748017 -5.913972 3.112975 8342706
6.026720 -5.985061 1.422558 8342706
6.429685 -6.285557 2.006627 8342706
5.654186 -5.726059 3.091108 8342706
6.276552 -6.098186 3.887266 8342706
5.417474 -5.993947 4.568410 8342706
5.941075 -5.470016 4.490548 8342706
5.490738 -5.973236 3.240982 8342706
6.421110 -5.930310 1.933722 8342706
6.166529 -6.492109 4.289028 8342706
6.388809 -5.877045 1.211653 8342706
5.400979 -5.962582 2.338246 8342706
5.504850 -5.752421 4.331181 8342706
6.437915 -5.994270 3.004103 8342706
6.113279 -5.680778 4.817130 8342706
6.286508 -5.874846 2.111370 8342706
5.799461 -5.466087 2.076313 8342706
5.863444 -6.334016 3.535096 8342706
5.998410 -5.500769 3.492914 8342706
5.772857 -6.031177 4.527689 8342706
5.874779 -6.065682 1.762204 8342706
6.158271 -5.744780 2.015852 8342706
6.154284 -6.290658 1.961689 8342706
5.796707 -6.224395 1.522154 8342706
5.604342 -6.253039 1.053038 8342706
5.842470 -6.388302 1.250048 8342706
5.960467 -5.951183 3.028894 8342706
6.047285 -6.125537 4.771583 8342706
5.780454 -5.825710 0.604268 8342706
5.727480 -6.074622 2.502720 8342706
5.939930 -6.007703 3.152611 8342706
5.478339 -6.190842 1.933281 8342706
6.081271 -5.593614 0.141647 8342706
6.418582 -5.945714 1.218288 8342706
6.572409 -6.082577 3.867321 8342706
6.026040 -6.226778 3.288532 8342706
5.572212 -5.652122 1.975865 8342706
6.106279 -6.277606 4.451439 8342706
6.113270 -5.595687 4.629930 8342706
6.415614 -5.686376 0.219235 8342706
5.957720 -6.171435 2.698586 8342706
6.226681 -5.971349 2.441899 8342706
5.501119 -6.161983 3.670336 8342706
6.047792 -6.319531 1.991362 8342706
5.883810 -6.354723 0.995548 8342706
6.192388 -6.419006 4.432686 8342706
5.539568 -5.931268 3.871663 8342706
5.680077 -6.374780 2.520647 8342706
6.116522 -6.503680 1.378269 8342706
5.826795 -5.897331 4.553532 8342706
5.612106 -5.771151 2.350082 8342706
6.467309 -5.848205 2.619059 8342706
6.104966 -6.437216 0.586735 8342706
5.579187 -6.152092 1.895592 8342706
6.291049 -6.054987 1.878933 8342706
6.562280 -6.061337 3.635796 8342706
5.668302 -6.373441 0.630086 8342706
5.689771 -6.449153 0.776574 8342706
6.218864 -6.029763 2.564823 8342706
5.653665 -6.021551 3.303274 8342706
5.774099 -5.588438 4.712600 8342706
5.766803 -6.233485 4.037288 8342706
5.661497 -5.824192 1.235658 8342706
6.424030 -5.966944 4.455245 8342706
5.804893 -5.601861 3.495440 8342706
6.010767 -5.803424 0.924938 8342706
6.169411 -6.367002 1.761855 8342706
6.138457 -5.782478 1.604295 8342706
5.958982 -5.755589 4.097383 8342706
6.025232 -6.187536 4.597354 8342706
5.766880 -6.143753 0.220553 8342706
5.901433 -5.641820 1.675086 8342706
6.218997 -5.637366 3.840020 8342706
5.707852 -5.995747 3.094830 8342706
5.820728 -6.197250 2.563163 8342706
5.678656 -5.840006 2.915478 8342706
5.618222 -6.237520 3.718308 8342706
5.905944 -6.582303 1.075173 8342706
6.107532 -5.798593 1.673238 8342706
6.293996 -6.342544 0.554229 8342706
6.356769 -5.693546 2.317486 8342706
6.128545 -5.575222 3.079786 8342706
5.678375 -5.668452 1.212757 8342706
5.997489 -5.719866 3.707104 8342706
6.200362 -6.018992 4.391192 8342706
6.502554 -6.103735 2.690632 8342706
6.325912 -6.147642 3.372829 8342706
5.664867 -6.310311 4.699327 8342706
6.283245 -5.544399 4.635842 8342706
5.975025 -6.212531 3.558024 8342706
5.750641 -5.672275 2.606741 8342706
6.078229 -6.566601 4.479206 8342706
5.536705 -5.763840 4.275398 8342706
5.529946 -6.140876 2.894544 8342706
6.091444 -5.638904 2.483853 8342706
5.678502 -5.884415 4.049329 8342706
5.875549 -5.434104 3.048329 8342706
6.510162 -5.817904 0.120797 8342706
6.077529 -5.459795 0.396163 8342706
6.385261 -5.743946 0.076084 8342706
6.052043 -5.761792 0.506493 8342706
5.662086 -5.705297 3.084530 8342706
6.334652 -6.217676 1.530345 8342706
6.145373 -5.796187 2.506278 8342706
5.776932 -6.150171 1.612910 8342706
5.996099 -6.203759 0.124870 8342706
5.854686 -6.046987 3.744716 8342706
5.733796 -6.161110 3.401973 8342706
6.300323 -6.247519 4.597321 8342706
6.328576 -6.446513 3.356639 8342706
6.030805 -6.546414 4.187223 8342706
6.003288 -5.669993 4.231756 8342706
5.701323 -5.630254 4.205433 8342706
6.200878 -5.891289 1.878133 8342706
5.502562 -6.221453 4.638438 8342706
5.886696 -6.341426 4.700763 8342706
6.059280 -6.447098 1.322515 8342706
6.138174 -5.625301 2.024699 8342706
5.942060 -6.211375 1.724011 8342706
6.042357 -6.026303 4.539496 8342706
6.081562 -5.653943 1.151833 8342706
6.114859 -6.290194 1.567525 8342706
5.739690 -5.746857 0.132551 8342706
6.347267 -6.173205 3.038052 8342706
6.105402 -5.579970 2.642728 8342706
6.264304 -5.855221 1.024294 8342706
5.618714 -6.094246 1.901843 8342706
5.717020 -5.677840 2.254368 8342706
5.797991 -5.654448 2.590115 8342706
5.521155 -5.922459 3.600275 8342706
6.021384 -5.839859 1.864236 8342706
5.700135 -5.892020 1.463597 8342706
5.727357 -6.265602 2.817389 8342706
6.002703 -6.308027 4.907718 8342706
5.975098 -6.438896 4.827675 8342706
6.080778 -5.607665 3.834365 8342706
5.626512 -5.577086 2.002300 8342706
6.537721 -6.036807 4.248311 8342706
5.656690 -5.608213 1.927263 8342706
6.082810 -6.461055 1.681814 8342706
5.611801 -6.222939 1.881121 8342706
6.323161 -5.918567 3.522286 8342706
6.489205 -5.825788 3.823498 8342706
6.415124 -6.109620 3.872550 8342706
6.133644 -5.843080 3.370102 8342706
6.155671 -6.416471 1.038738 8342706
5.662271 -6.160000 3.347120 8342706
6.510408 -6.325619 0.121896 8342706
6.371207 -6.103910 4.945317 8342706
5.430349 -5.922905 3.788161 8342706
6.467140 -6.032008 0.221413 8342706
6.219448 -5.648453 3.708387 8342706
6.106061 -6.008205 2.479149 8342706
6.260636 -5.975087 0.692151 8342706
6.421883 -5.943210 2.414299 8342706
6.080849 -6.511206 2.770891 8342706
6.406105 -6.077651 1.366868 8342706
6.210746 -5.664168 1.068949 8342706
6.267693 -5.587156 4.333454 8342706
6.165405 -6.439488 0.746062 8342706
5.635007 -6.059222 3.181947 8342706
6.522636 -5.806773 1.120530 8342706
6.181203 -5.791485 2.584280 8342706
5.974798 -6.097550 2.525227 8342706
6.371642 -5.681690 1.811308 8342706
5.958723 -6.110579 3.837902 8342706
6.480996 -6.016858 1.573683 8342706
5.501368 -6.280051 0.736679 8342706
5.818554 -6.350593 4.981440 8342706
6.476596 -5.780110 3.972271 8342706
6.249739 -6.014403 0.141551 8342706
6.273570 -5.829962 3.582360 8342706
6.483478 -6.077016 4.573903 8342706
5.920442 -6.075220 3.129691 8342706
6.399807 -6.262343 1.759982 8342706
6.036277 -5.434717 1.975422 8342706
5.408777 -5.962017 4.248541 8342706
6.096453 -6.067089 2.973050 8342706
6.264941 -5.925007 3.245381 8342706
5.637980 -6.190250 3.362035 8342706
6.143782 -6.348795 4.402839 8342706
6.118457 -5.530036 4.123604 8342706
5.942210 -5.845790 2.937436 8342706
5.434464 -6.105645 2.048957 8342706
6.317078 -6.430383 4.875398 8342706
5.623169 -6.362511 2.937880 8342706
6.335405 -6.341226 2.405272 8342706
6.425004 -5.816037 1.078250 8342706
6.445354 -5.871334 2.260471 8342706
5.980040 -5.529692 2.053939 8342706
6.229058 -5.737630 0.474361 8342706
5.892948 -6.283148 1.567972 8342706
6.386953 -5.764708 2.446368 8342706
6.371627 -5.535293 4.083165 8342706
6.469978 -6.177987 1.492917 8342706
6.170446 -5.805115 3.232582 8342706
5.730113 -6.396868 3.105864 8342706
6.269917 -5.558372 4.452553 8342706
6.033850 -5.885467 0.768439 8342706
5.590522 -6.362911 4.394752 8342706
5.604706 -5.753885 4.264206 8342706
6.207733 -5.836792 1.375031 8342706
5.743002 -5.797306 1.060118 8342706
5.885780 -6.091788 0.631350 8342706
6.182328 -5.443384 1.192940 8342706
6.291547 -5.550433 1.160789 8342706
5.654661 -6.251120 4.290930 8342706
5.938484 -6.050708 4.921772 8342706
6.207633 -5.560057 3.768520 8342706
5.669999 -6.037653 4.277045 8342706
6.079357 -6.558300 4.300920 8342706
5.696051 -5.731644 3.961513 8342706
5.535873 -6.096805 3.751946 8342706
6.222646 -6.414586 1.044751 8342706
6.570128 -5.958602 0.487714 8342706
6.004011 -5.543386 2.931376 8342706
6.213990 -6.390028 1.669424 8342706
5.501082 -6.225942 3.931268 8342706
5.617719 -6.431839 2.799933 8342706
5.810712 -5.502081 2.236797 8342706
6.549462 -6.242325 2.106177 8342706
6.060309 -6.381780 0.545863 8342706
5.435277 -5.865705 2.589481 8342706
5.819276 -5.676718 2.555270 8342706
6.303975 -6.085283 0.229053 8342706
6.048949 -5.621382 4.348243 8342706
6.511105 -6.291907 4.415249 8342706
5.807337 -6.382025 4.405333 8342706
5.455690 -5.766578 4.321527 8342706
5.948873 -5.488337 1.501503 8342706
6.544415 -6.200636 4.017325 8342706
6.379080 -6.157807 1.429061 8342706
5.824921 -6.183603 3.729257 8342706
6.116764 -6.343022 1.941114 8342706
5.554669 -5.627038 3.379548 8342706
5.777662 -6.455947 3.544083 8342706
5.519520 -5.673200 3.921863 8342706
6.157684 -5.574149 0.044427 8342706
6.341407 -5.964385 2.644442 8342706
6.381719 -6.079195 1.744623 8342706
5.792542 -5.800494 3.214566 8342706
6.033520 -5.807626 3.182628 8342706
6.303383 -6.061784 2.033237 8342706
6.364706 -5.828886 2.235927 8342706
6.057857 -5.805417 0.120895 8342706
5.838856 -6.075609 0.098319 8342706
6.223116 -6.455866 0.879317 8342706
6.344099 -6.466065 0.764928 8342706
6.149078 -6.364019 4.226735 8342706
5.873557 -6.531675 1.815506 8342706
5.632650 -5.889965 1.017181 8342706
5.801688 -5.661914 2.693525 8342706
6.200161 -5.745045 0.399805 8342706
6.093165 -5.418928 2.091457 8342706
6.003705 -6.487593 1.076356 8342706
6.238117 -5.534930 1.301036 8342706
6.437558 -5.683373 3.617039 8342706
6.492338 -6.240218 0.322682 8342706
5.761748 -5.922387 4.002097 8342706
6.157265 -6.102874 1.746553 8342706
6.087661 -6.229539 3.252625 8342706
5.604078 -6.253754 3.699317 8342706
6.534473 -6.162529 1.837680 8342706
6.267782 -6.203794 1.692980 8342706
5.533546 -5.801921 2.472139 8342706
6.374097 -6.399833 2.027593 8342706
6.110019 -6.201645 3.572575 8342706
6.152549 -6.580988 4.291643 8342706
6.442826 -6.375551 3.679077 8342706
6.128677 -5.542562 1.999485 8342706
6.096306 -5.451204 0.906587 8342706
6.150938 -6.434939 1.167106 8342706
5.670527 -6.062140 0.115061 8342706
5.862468 -5.609530 2.618969 8342706
5.806264 -6.375176 2.630905 8342706
6.085197 -5.501988 3.474969 8342706
5.762532 -6.281641 3.372922 8342706
6.332020 -6.331673 1.088321 8342706
5.819685 -6.550321 4.755084 8342706
6.266496 -5.678982 4.902912 8342706
6.019915 -6.481732 1.869536 8342706
5.700777 -5.777579 0.292816 8342706
6.283335 -5.541863 4.295889 8342706
5.588133 -5.852018 4.350336 8342706
6.229048 -5.583867 0.490388 8342706
6.267505 -6.391022 4.026833 8342706
6.196673 -6.550118 0.543785 8342706
6.202026 -5.839323 1.035964 8342706
6.455201 -6.156145 2.770030 8342706
6.045024 -6.374892 3.738457 8342706
5.989510 -5.541453 2.062341 8342706
6.456614 -6.197190 3.298571 8342706
6.119467 -5.439846 0.244445 8342706
5.489051 -5.706050 4.408294 8342706
6.176498 -6.336926 1.667285 8342706
6.429946 -5.601707 1.859174 8342706
5.873487 -6.109125 0.913806 8342706
6.356294 -5.598763 3.704393 8342706
5.632143 -6.142518 3.736652 8342706
6.492606 -5.911442 1.175106 8342706
5.721058 -5.998510 2.424258 8342706
6.238297 -6.338013 2.947510 8342706
5.713798 -6.389943 4.111690 8342706
6.046665 -6.271568 3.895759 8342706
6.404037 -5.550256 4.952135 8342706
6.528218 -6.269508 4.660969 8342706
6.046685 -5.921143 3.875476 8342706
6.145064 -6.383683 4.341505 8342706
5.738349 -6.196352 2.001390 8342706
6.432606 -5.884271 2.107276 8342706
6.438145 -5.989978 2.198573 8342706
5.834151 -5.443175 1.049420 8342706
6.498752 -5.792450 0.291133 8342706
5.851667 -5.462915 1.379640 8342706
6.230343 -5.690406 4.851341 8342706
5.971118 -5.650182 1.235791 8342706
6.495308 -5.817330 2.259279 8342706
5.790757 -6.216652 3.682186 8342706
6.254571 -6.193841 1.527714 8342706
5.952465 -6.394544 3.975690 8342706
6.004203 -5.807863 2.297494 8342706
6.146795 -6.052656 4.109620 8342706
6.172541 -6.423868 4.351943 8342706
6.291937 -5.581439 4.747702 8342706
6.322319 -5.826595 3.598818 8342706
5.989437 -5.791394 3.187037 8342706
6.553056 -5.883446 3.051455 8342706
6.260448 -5.860357 2.848519 8342706
6.288753 -6.328291 1.981729 8342706
5.761528 -5.721776 3.630928 8342706
5.713909 -5.714390 3.080850 8342706
6.270461 -5.964542 1.468610 8342706
6.367309 -6.216597 1.090589 8342706
5.848630 -5.593796 2.974936 8342706
5.507787 -5.886267 0.140890 8342706
5.655227 -5.630227 0.449120 8342706
5.611311 -5.574191 2.881050 8342706
6.000777 -5.520822 2.116080 8342706
5.526902 -6.124139 1.881761 8342706
6.110775 -5.495762 3.473852 8342706
5.428732 -5.910521 4.601553 8342706
5.466112 -5.802845 2.920361 8342706
6.196187 -6.309000 1.842249 8342706
5.559675 -6.396605 0.861396 8342706
5.877766 -6.531500 1.632590 8342706
6.102713 -6.330956 3.430883 8342706
5.955833 -6.496281 4.601991 8342706
6.354294 -6.165085 0.811282 8342706
6.510719 -6.349881 1.438833 8342706
6.570403 -5.923245 3.416930 8342706
5.581440 -6.099617 1.106573 8342706
6.279683 -6.291699 1.952211 8342706
6.181608 -6.312116 2.953273 8342706
6.073747 -6.520341 4.973807 8342706
5.980834 -6.456111 0.620324 8342706
6.300304 -5.768456 1.751060 8342706
6.401677 -5.932715 1.294266 8342706
6.211659 -6.397339 0.485041 8342706
6.311398 -6.138168 2.890000 8342706
6.484220 -6.137837 0.095835 8342706
6.093515 -5.652191 1.229031 8342706
6.473326 -6.280171 4.286075 8342706
6.445442 -5.632250 4.806979 8342706
6.503108 -6.165517 3.622005 8342706
6.322797 -6.331944 1.596799 8342706
5.757266 -6.278753 0.441150 8342706
6.159588 -5.591552 2.715636 8342706
6.261658 -6.031601 3.865819 8342706
6.331309 -5.852642 0.387034 8342706
6.180536 -5.856908 3.955192 8342706
5.776135 -6.419935 3.290880 8342706
6.405967 -6.203373 0.001145 8342706
6.347780 -5.747758 1.357126 8342706
6.283370 -6.010190 4.242967 8342706
6.351050 -6.070734 2.045187 8342706
5.770617 -5.588504 4.376193 8342706
5.843249 -6.017048 0.843898 8342706
6.042810 -5.748079 4.168968 8342706
5.517962 -5.735002 3.994631 8342706
6.452026 -6.126559 1.768923 8342706
6.285698 -6.448004 1.710383 8342706
6.265207 -6.208425 4.643460 8342706
5.537990 -6.322767 1.238062 8342706
6.006288 -6.234198 3.473916 8342706
6.248499 -5.565242 3.766569 8342706
6.033240 -6.553576 3.671101 8342706
5.933946 -6.017110 1.750880 8342706
5.797254 -5.655895 2.747287 8342706
6.155240 -6.316444 0.940146 8342706
6.176703 -5.981595 3.876939 8342706
6.102340 -6.298917 1.978133 8342706
5.757629 -6.150133 1.049132 8342706
6.568312 -6.015225 1.739786 8342706
5.745817 -6.101540 4.296841 8342706
6.470271 -5.791681 1.035264 8342706
5.554296 -5.862801 0.765763 8342706
6.312447 -6.007386 4.998066 8342706
6.185295 -6.560123 4.115961 8342706
6.084480 -6.388684 4.704064 8342706
5.995083 -5.822024 1.407279 8342706
6.520387 -6.153037 5.004703 8342706
6.149247 -6.081727 1.665450 8342706
5.819152 -5.973847 2.059472 8342706
5.739680 -5.953318 3.036767 8342706
6.493086 -6.243125 4.098161 8342706
5.483054 -5.851340 3.602305 8342706
6.153395 -6.082250 0.987116 8342706
5.877417 -6.255237 1.878926 8342706
5.944266 -5.647905 2.417846 8342706
6.324896 -6.277253 0.086888 8342706
5.807673 -5.582403 4.556078 8342706
5.998415 -5.467517 4.058488 8342706
5.781622 -5.421487 3.554469 8342706
6.410712 -6.362528 1.528034 8342706
5.517590 -5.999811 4.722089 8342706
6.048091 -6.540114 0.129528 8342706
6.536931 -5.973411 1.482710 8342706
6.357297 -5.555497 3.362002 8342706
5.789397 -5.906738 0.822692 8342706
5.998988 -6.003709 0.863137 8342706
5.623815 -5.930873 2.223910 8342706
5.737628 -5.619346 2.278861 8342706
5.791615 -6.093793 3.528046 8342706
6.311573 -5.498215 1.146926 8342706
5.637613 -5.775522 4.829245 8342706
5.876884 -5.789682 0.088401 8342706
5.648086 -6.487529 2.450877 8342706
5.884953 -6.447154 3.640293 8342706
6.030359 -6.613294 0.574634 8342706
6.042006 -5.703293 1.738025 8342706
6.115357 -5.897943 1.778728 8342706
6.153670 -5.790465 4.174485 8342706
5.507440 -6.264218 4.951823 8342706
6.561952 -5.848059 2.157318 8342706
6.221640 -6.441073 3.888044 8342706
6.231711 -5.692905 2.539174 8342706
6.220374 -6.374057 2.408498 8342706
6.090716 -5.650136 4.497238 8342706
5.643090 -6.306431 3.471101 8342706
5.993115 -6.421786 2.716506 8342706
6.577251 -6.092007 0.460171 8342706
5.716868 -5.668491 4.788137 8342706
6.299462 -5.789793 0.280122 8342706
5.954651 -5.727123 4.692669 8342706
6.051634 -5.537482 2.429288 8342706
6.370944 -5.933025 1.874219 8342706
5.862522 -6.331910 3.433968 8342706
6.112109 -5.705374 4.221648 8342706
6.451045 -5.843742 0.468267 8342706
6.386466 -5.784988 4.603988 8342706
6.261844 -6.050120 2.750389 8342706
6.324657 -6.239280 0.704325 8342706
5.432108 -6.025729 2.407314 8342706
5.674567 -5.951070 4.299001 8342706
6.277450 -5.896106 4.822231 8342706
6.316254 -5.586081 1.378545 8342706
5.817905 -6.239491 4.056623 8342706
6.436670 -5.684984 4.610681 8342706
5.863161 -5.481867 4.359574 8342706
5.665215 -5.864242 0.488669 8342706
6.410475 -5.823524 3.477963 8342706
6.365109 -5.744221 0.647964 8342706
5.686388 -6.081372 0.754473 8342706
