# .PCD v0.7 - Point Cloud Data file format
VERSION 0.7
FIELDS x y z rgb
SIZE 4 4 4 4
TYPE F F F U
COUNT 1 1 1 1
WIDTH 1207
HEIGHT 1
VIEWPOINT 0 0 0 1 0 0 0
POINTS 1207
DATA ascii
-12.478365 0.195757 1.646515 15014169
-12.595969 0.710590 0.596882 15014169
-12.925673 0.375650 0.630178 15014169
-12.356823 0.230435 1.333237 15014169
-12.686465 0.219045 1.345020 15014169
-12.882788 0.715323 1.633460 15014169
-12.289381 0.399521 0.340128 15014169
-12.272300 0.322821 1.277271 15014169
-12.689736 0.123367 1.499118 15014169
-12.495644 0.634067 1.067361 15014169
-12.333054 0.727228 0.313054 15014169
-12.907291 0.265112 0.481018 15014169
-12.489488 0.379551 1.540611 15014169
-12.816958 0.394820 0.336325 15014169
-12.459714 0.424492 0.493330 15014169
-12.324287 0.722780 0.403952 15014169
-12.917923 0.404880 1.154740 15014169
-12.724439 0.566729 0.578365 15014169
-12.569323 0.488805 0.914257 15014169
-12.858697 0.257665 0.473030 15014169
-12.723473 0.241642 1.036134 15014169
-12.561582 0.402271 0.780674 15014169
-12.562046 0.680890 1.491137 15014169
-12.881275 0.317888 0.881423 15014169
-12.478628 0.577113 0.922543 15014169
-12.668900 0.653776 1.065022 15014169
-12.288449 0.144538 0.800622 15014169
-12.281009 0.583015 1.563544 15014169
-12.759417 0.586516 0.589074 15014169
-12.585502 0.249796 0.896173 15014169
-12.367363 0.316296 1.180513 15014169
-12.656308 0.725252 1.209259 15014169
-12.496981 0.358477 1.045718 15014169
-12.905436 0.148612 1.594203 15014169
-12.914285 0.736129 1.309740 15014169
-12.529997 0.622582 0.491978 15014169
-12.387893 0.588981 1.071844 15014169
-12.607887 0.422153 0.925014 15014169
-12.377971 0.275858 0.385717 15014169
-12.269543 0.414967 1.351765 15014169
-12.469975 0.455153 0.469800 15014169
-12.778560 0.411378 1.093893 15014169
-12.383252 0.318738 0.845733 15014169
-12.323715 0.661789 0.449955 15014169
-12.844129 0.540095 1.107918 15014169
-12.258069 0.629927 1.423352 15014169
-12.785185 0.443019 1.194271 15014169
-12.948530 0.449495 0.921355 15014169
-12.694773 0.279050 1.571278 15014169
-12.927705 0.316364 0.689526 15014169
-12.278597 0.102349 0.954986 15014169
-12.728387 0.572131 1.261215 15014169
-12.460077 0.706503 1.616003 15014169
-12.893374 0.154875 0.353484 15014169
-12.301617 0.768027 0.825704 15014169
-12.905878 0.166341 1.532689 15014169
-12.648419 0.247302 1.172347 15014169
-12.422215 0.413363 0.365477 15014169
-12.693702 0.724525 0.438818 15014169
-12.869793 0.633510 0.479358 15014169
-12.843046 0.263420 0.708204 15014169
-12.721230 0.659385 0.626235 15014169
-12.867768 0.186765 0.805026 15014169
-12.782332 0.667986 1.155833 15014169
-12.753672 0.788487 0.888110 15014169
-12.328479 0.281833 0.742153 15014169
-12.243298 0.144152 1.559119 15014169
-12.269404 0.338609 1.590317 15014169
-12.321783 0.791816 0.472849 15014169
-12.533209 0.652282 1.312339 15014169
-12.384541 0.103292 1.627017 15014169
-12.857479 0.117466 1.667218 15014169
-12.813753 0.670770 0.306937 15014169
-12.909259 0.136910 1.195446 15014169
-12.779844 0.395542 1.648517 15014169
-12.808485 0.260484 0.998966 15014169
-12.759386 0.471038 0.924023 15014169
-12.714269 0.107842 1.370841 15014169
-12.325514 0.332589 0.953178 15014169
-12.919691 0.614359 0.628718 15014169
-12.866265 0.198115 0.586350 15014169
-12.451286 0.404391 1.282761 15014169
-12.872098 0.251220 1.438126 15014169
-12.944990 0.255772 1.476063 15014169
-12.479429 0.293737 1.446431 15014169
-12.810284 0.479188 1.139577 15014169
-12.267692 0.565948 0.808731 15014169
-12.599448 0.279650 1.698300 15014169
-12.655189 0.159338 1.668863 15014169
-12.318484 0.449850 0.338529 15014169
-12.354303 0.740163 1.185779 15014169
-12.761123 0.748829 0.325873 15014169
-12.720716 0.330114 1.493111 15014169
-12.936023 0.528317 1.069926 15014169
-12.720948 0.153510 0.515967 15014169
-12.500842 0.130264 0.394785 15014169
-12.643441 0.456145 0.345740 15014169
-12.551823 0.174651 0.462284 15014169
-12.472506 0.311937 1.408036 15014169
-4.368184 7.169872 0.459284 10053171
-5.980139 7.099174 0.416929 10053171
-4.418817 6.977808 2.362942 10053171
-5.161356 7.159126 2.875423 10053171
-3.841555 7.009670 0.293881 10053171
-6.683313 6.767247 2.482239 10053171
-4.112736 7.161551 2.565111 10053171
-3.139856 6.950973 1.348930 10053171
-4.393177 6.981078 0.523359 10053171
-3.514611 7.191174 2.561304 10053171
-3.668409 7.202240 2.477224 10053171
-3.286332 6.962566 0.858979 10053171
-4.000171 7.062966 0.156299 10053171
-4.986310 6.817528 1.155649 10053171
-6.824185 6.986556 0.183889 10053171
-4.610871 7.133023 2.205782 10053171
-6.416116 6.994020 1.208902 10053171
-4.665100 6.940743 0.425914 10053171
-6.907955 6.750280 2.822648 10053171
-6.308977 7.222855 2.884355 10053171
-6.084816 7.064734 0.754506 10053171
-6.157892 6.792863 2.797355 10053171
-3.706600 6.857949 2.220497 10053171
-4.804810 7.055858 2.533847 10053171
-6.565869 6.997675 2.676014 10053171
-6.051442 7.157127 1.092800 10053171
-3.402936 7.159034 1.440437 10053171
-4.620040 6.957895 1.366655 10053171
-5.982352 7.225420 2.392627 10053171
-6.663484 7.029091 2.959577 10053171
-6.873360 7.061104 1.111431 10053171
-5.986016 6.760133 0.139906 10053171
-6.121772 7.019143 1.953912 10053171
-3.866987 6.990216 0.592582 10053171
-4.719071 7.152349 0.126362 10053171
-5.873222 7.183066 2.092155 10053171
-4.849935 6.955420 1.399094 10053171
-5.523040 7.243528 2.739257 10053171
-5.067539 6.756052 1.302751 10053171
-6.172593 6.985342 2.533385 10053171
-4.477283 6.925304 2.124070 10053171
-4.110212 7.119024 1.109837 10053171
-3.869308 6.758338 0.870550 10053171
-4.716204 6.943368 2.250685 10053171
-5.541827 6.966455 0.636465 10053171
-3.811313 7.051777 1.172644 10053171
-3.513975 7.068250 2.125181 10053171
-4.280008 7.172691 0.691020 10053171
-4.130893 7.248985 2.547957 10053171
-5.291365 6.982002 1.625862 10053171
-6.767542 7.072626 2.614292 10053171
-5.672410 6.983246 1.200944 10053171
-5.760955 6.865640 2.780211 10053171
-3.537825 6.848971 2.693757 10053171
-3.070372 6.893618 0.619173 10053171
-5.015189 7.025199 2.170628 10053171
-3.523459 7.051602 0.835447 10053171
-5.449671 7.034183 1.619882 10053171
-3.348999 7.092086 2.161808 10053171
-6.460523 7.175045 0.047426 10053171
-6.390973 6.751282 2.576962 10053171
-4.414497 6.944955 2.936786 10053171
-6.315054 6.951004 0.865181 10053171
-3.745475 7.191648 1.034824 10053171
-3.561019 7.053528 2.672178 10053171
-4.178642 6.917954 2.131588 10053171
-6.342486 6.796331 1.054755 10053171
-3.782671 7.023587 1.923162 10053171
-3.863176 7.058462 1.230437 10053171
-5.451153 7.186110 0.705914 10053171
-5.936754 6.934677 2.513784 10053171
-3.266803 6.927667 1.504256 10053171
-6.811959 6.775256 2.292729 10053171
-3.691252 6.974466 0.995379 10053171
-6.526067 7.216363 1.590123 10053171
-5.300211 6.971095 0.859443 10053171
-6.484571 6.872007 0.448661 10053171
-4.530689 7.081937 2.286143 10053171
-6.720647 7.169901 1.135463 10053171
-4.045965 6.890540 0.257401 10053171
-5.790758 7.203944 0.687176 10053171
-6.959186 7.075678 2.913057 10053171
-3.128125 7.086835 2.173658 10053171
-4.150046 7.081664 0.036015 10053171
-4.432165 7.179481 1.348720 10053171
-6.604428 7.219902 0.421471 10053171
-5.845759 6.847599 0.162294 10053171
-3.245792 6.873756 0.163853 10053171
-6.522863 6.925949 1.322768 10053171
-5.960177 6.837220 -0.017456 10053171
-5.436255 7.035885 1.770345 10053171
-6.384507 7.015797 2.972569 10053171
-6.079244 6.820940 2.968146 10053171
-4.219160 7.223462 1.406749 10053171
-4.288461 7.109820 2.188442 10053171
-3.904146 7.199220 2.385966 10053171
-5.664305 7.216468 0.406807 10053171
-5.339440 6.914386 0.482421 10053171
-3.348758 6.949211 0.996928 10053171
-6.874141 6.956094 0.255855 10053171
-4.467271 6.799982 1.787731 10053171
-6.247578 7.215609 1.540228 10053171
-3.857862 7.184090 0.853915 10053171
-3.802795 6.970506 2.076704 10053171
-4.789909 7.126983 1.232671 10053171
-5.661859 7.256955 1.597770 10053171
-4.222169 6.971410 0.431099 10053171
-5.526958 7.207394 0.309061 10053171
-3.246683 7.085419 0.139452 10053171
-5.126500 6.789735 1.782785 10053171
-5.642920 7.033038 2.632708 10053171
-5.455728 6.870884 2.394855 10053171
-4.451626 6.928770 0.687392 10053171
-4.775950 6.960072 2.307444 10053171
-6.477322 6.962871 1.184743 10053171
-5.721112 6.788950 1.381829 10053171
-4.569446 6.920271 1.786533 10053171
-4.055305 7.074654 2.551240 10053171
-3.307409 7.018543 0.190850 10053171
-4.624202 6.752843 1.410874 10053171
-3.809137 7.228118 0.836797 10053171
-5.159354 6.863582 0.252860 10053171
-6.414881 6.746468 0.297630 10053171
-5.594027 7.034961 0.819859 10053171
-3.131075 7.190058 1.555928 10053171
-5.382062 7.068662 2.738536 10053171
-5.320446 6.912695 2.704506 10053171
-4.400487 6.913042 0.777748 10053171
-6.981182 7.095510 2.666124 10053171
-4.281387 7.054720 2.877667 10053171
-4.866919 6.974900 0.243214 10053171
-6.494236 6.903673 2.229610 10053171
-5.356578 6.907245 1.743271 10053171
-5.263040 7.041977 1.636708 10053171
-4.655340 6.852814 0.816840 10053171
-3.274513 6.842444 0.444265 10053171
-4.011653 6.950718 1.216440 10053171
-3.771595 7.236771 0.789234 10053171
-5.100465 7.060737 2.743875 10053171
-4.730697 7.161737 1.108085 10053171
-5.654204 6.766336 2.547099 10053171
-5.419068 7.152468 2.269400 10053171
-6.055061 6.992496 2.981989 10053171
-3.705070 6.920830 1.070704 10053171
-4.250149 7.093051 2.725788 10053171
-5.915944 7.043633 0.647653 10053171
-4.950151 6.810005 2.312576 10053171
-3.923991 6.813405 1.344505 10053171
-6.013950 7.194959 1.732959 10053171
-3.611629 7.198792 0.400434 10053171
-5.866564 6.923218 2.268450 10053171
-6.564725 6.875025 1.736294 10053171
-4.765940 6.797783 2.795387 10053171
-6.470986 7.178446 1.217649 10053171
-3.581918 6.999147 1.082521 10053171
-6.270310 6.827813 1.549169 10053171
-3.004547 6.841102 1.579820 10053171
-6.398409 7.241666 0.957264 10053171
-4.788995 6.973991 1.237023 10053171
-6.418262 7.100170 0.929960 10053171
-6.896871 6.869957 2.249325 10053171
-3.719788 7.202387 1.810505 10053171
-4.224440 7.189009 0.798769 10053171
-6.305892 6.781241 2.956334 10053171
-3.036932 6.758955 2.273777 10053171
-6.422629 6.937747 1.487446 10053171
-6.294886 6.997227 0.989839 10053171
-5.153167 6.780992 1.221363 10053171
-3.952852 7.157007 0.930571 10053171
-6.426901 7.079994 0.852924 10053171
-6.230023 6.745430 2.074771 10053171
-3.540446 7.039577 0.945329 10053171
-5.298819 6.975525 2.325651 10053171
-4.485465 6.788471 0.622097 10053171
-5.574389 7.212147 0.156224 10053171
-3.626013 6.922574 1.825467 10053171
-6.987381 7.184812 2.107603 10053171
-6.181817 7.159411 1.944201 10053171
-4.715165 6.898197 0.449236 10053171
-5.543334 6.953639 1.763557 10053171
-6.755170 6.774650 1.274518 10053171
-5.586801 6.803277 1.485016 10053171
-6.397659 6.874520 2.033547 10053171
-5.976025 6.772614 1.056897 10053171
-5.809647 6.774655 2.084651 10053171
-5.554955 6.797341 1.576556 10053171
-3.370338 7.066648 2.626024 10053171
-5.049314 7.035347 0.345084 10053171
-4.173903 7.201817 0.548034 10053171
-5.066114 7.111734 0.847494 10053171
-6.401020 6.908782 2.851014 10053171
-6.872680 6.809197 2.526561 10053171
-6.694765 6.769761 0.421588 10053171
-3.236628 7.093657 1.591049 10053171
-6.027709 6.744228 2.617427 10053171
-4.067905 6.911709 1.541480 10053171
-6.730016 7.220175 0.603840 10053171
-6.907785 6.943867 2.965703 10053171
-4.481584 6.934311 1.942899 10053171
-4.909850 7.078382 2.556159 10053171
-3.965301 7.125080 0.772109 10053171
-4.138338 7.247110 0.527584 10053171
-3.908149 6.801109 1.137907 10053171
-3.479418 7.215028 2.471717 10053171
-3.395397 7.186066 0.186251 10053171
-3.143332 6.789681 0.461624 10053171
-4.778893 7.196782 1.101955 10053171
-6.920614 7.082075 0.567557 10053171
-6.240802 6.773096 1.869993 10053171
-6.637517 6.943915 0.611692 10053171
-6.354805 7.159563 1.713610 10053171
-6.412555 6.827950 1.139391 10053171
-4.973410 6.844636 0.278732 10053171
-5.307403 7.043952 1.136960 10053171
-6.001077 7.090210 1.251800 10053171
-3.174449 6.991907 2.052553 10053171
-4.523540 6.932757 0.159321 10053171
-6.045037 6.834583 0.171815 10053171
-3.657355 7.150704 0.319632 10053171
-3.339320 7.190228 2.609082 10053171
-4.038105 6.909998 2.668386 10053171
-4.127995 6.840593 2.979987 10053171
-5.524460 7.112586 1.936046 10053171
-4.321330 7.143787 0.744038 10053171
-4.253627 6.944808 0.574205 10053171
-3.595172 7.143782 0.603970 10053171
-3.742932 6.942751 0.908064 10053171
-4.652776 7.019170 0.616877 10053171
-4.194698 6.960375 0.209208 10053171
-6.541520 6.811395 2.340390 10053171
-4.722842 7.151796 0.518897 10053171
-5.155326 6.993701 1.465491 10053171
-6.464944 7.246784 1.321002 10053171
-6.978958 7.040752 2.114075 10053171
-6.606601 7.253574 1.485282 10053171
-5.042221 7.118909 2.886753 10053171
-4.727029 6.861004 0.744709 10053171
-4.285211 6.931124 1.336332 10053171
-5.443585 6.839578 2.060115 10053171
-3.999507 6.775144 2.795073 10053171
-5.950377 7.031056 1.411042 10053171
-6.738563 6.770850 0.250735 10053171
-3.276753 7.150145 2.700467 10053171
-5.106641 7.051128 1.728215 10053171
-5.856588 7.194190 0.499555 10053171
-6.233922 6.890887 1.065704 10053171
-6.948878 7.073123 1.635350 10053171
-5.759008 7.210773 2.561618 10053171
-6.224124 6.913003 2.034570 10053171
-3.801772 6.963030 1.343498 10053171
-5.704200 7.160369 0.878613 10053171
-3.121895 6.793741 0.958898 10053171
-3.916574 6.837275 1.138932 10053171
-5.323374 7.184068 1.635317 10053171
-3.504285 6.769878 0.856925 10053171
-4.681227 7.229781 1.550733 10053171
-3.640338 7.016778 2.194718 10053171
-4.567005 7.130657 2.680447 10053171
-4.905693 7.091969 2.097897 10053171
-6.902699 6.790365 2.370640 10053171
-3.419724 7.106453 0.868676 10053171
-5.530320 7.050974 2.904542 10053171
-4.827036 6.934925 0.673845 10053171
-4.611180 7.019876 2.175926 10053171
-6.928501 7.030712 2.193509 10053171
-3.656672 6.854808 1.232639 10053171
-4.336196 6.909582 0.828579 10053171
-6.436274 6.775631 2.079456 10053171
-6.034635 6.794207 2.078654 10053171
-4.819993 6.777817 0.951079 10053171
-3.711946 6.852130 0.011591 10053171
-4.875834 7.106311 2.467256 10053171
-3.743191 6.998787 2.483306 10053171
-5.167964 7.096090 1.518885 10053171
-6.239430 6.869956 1.612725 10053171
-6.661657 7.173698 2.933380 10053171
-3.937619 6.903747 0.931834 10053171
-6.239139 7.022523 0.945009 10053171
-4.870010 7.153051 1.525876 10053171
-3.269914 7.222891 0.923649 10053171
-6.354833 7.076128 1.848935 10053171
-5.661960 6.787189 1.329450 10053171
-3.555330 6.909458 0.416258 10053171
-5.635273 6.795956 2.112768 10053171
-4.293653 7.237590 0.443085 10053171
-3.197601 7.013213 1.433006 10053171
-3.114220 6.944963 1.827556 10053171
-4.060027 6.741331 0.910784 10053171
-4.266188 7.202290 1.317406 10053171
-3.061762 6.864967 0.308478 10053171
-4.005982 7.107725 1.439310 10053171
-5.432779 6.925949 1.062726 10053171
-3.990872 6.949453 0.357478 10053171
-3.805580 6.946454 0.160292 10053171
-5.749709 7.241097 1.879447 10053171
-5.679327 7.215865 1.782807 10053171
-6.021889 6.758428 2.364562 10053171
-3.599597 6.942175 0.804615 10053171
-5.210615 7.139704 1.186073 10053171
-5.109134 6.845902 2.492635 10053171
-4.273666 7.195086 0.643470 10053171
-6.984786 7.200137 0.092059 10053171
-4.042628 6.787458 1.121932 10053171
-4.042214 6.786322 1.826723 10053171
-5.400898 6.860282 2.734558 10053171
-3.274568 7.033249 1.515617 10053171
-3.313988 7.217281 0.009629 10053171
-3.241746 6.815814 1.500371 10053171
-4.641690 6.959770 1.553809 10053171
-4.951031 6.860547 0.156687 10053171
-6.812908 6.833287 1.547455 10053171
-5.556358 6.928367 0.133022 10053171
-6.923123 6.906597 1.436019 10053171
-4.191130 6.757960 1.303356 10053171
-6.385401 6.917492 0.232656 10053171
-3.388849 6.770967 2.835886 10053171
-4.108338 6.787454 1.395270 10053171
-4.716923 6.851196 1.926784 10053171
-6.157718 6.823438 0.113033 10053171
-5.220098 7.129151 1.839724 10053171
-6.270931 7.110148 2.259847 10053171
-5.153823 7.093745 1.398502 10053171
-6.472983 6.934793 1.313149 10053171
-5.472672 7.083462 0.284001 10053171
-4.959721 7.170635 1.778883 10053171
-3.859473 6.982135 1.630581 10053171
-5.428749 7.072434 2.723693 10053171
-5.712183 7.046598 2.990495 10053171
-6.825302 7.145047 0.791135 10053171
-4.926925 7.162301 1.132342 10053171
-6.974834 6.928719 0.269420 10053171
-6.747770 6.966160 1.035830 10053171
-4.324180 6.794342 1.938400 10053171
-3.990774 7.170466 0.069717 10053171
-3.104293 7.034297 1.307556 10053171
-3.863588 7.020802 0.399243 10053171
-3.125882 6.738083 1.718526 10053171
-3.473689 6.849281 0.325802 10053171
-6.636266 7.092628 1.237925 10053171
-4.097185 7.151517 0.730197 10053171
-3.797927 7.005278 2.080833 10053171
-3.791770 7.017736 1.229119 10053171
-4.608264 7.143713 2.667973 10053171
-4.594216 7.205501 2.348486 10053171
-6.242804 7.151469 0.873819 10053171
-3.102196 6.905683 0.020119 10053171
-4.405382 6.758476 0.509592 10053171
-5.184476 7.033468 2.860760 10053171
-5.340959 6.992215 2.471761 10053171
-3.640076 7.226033 1.063855 10053171
-4.829630 6.785171 0.065496 10053171
-4.755904 7.121093 0.912462 10053171
-4.074233 6.865758 1.503602 10053171
-3.549919 6.968085 0.966670 10053171
-6.958984 7.117669 0.901828 10053171
-3.904860 6.947438 1.365734 10053171
-3.605089 6.942524 2.710813 10053171
-5.493558 6.835874 2.586188 10053171
-5.401137 6.772357 2.396561 10053171
-3.027316 6.809894 2.930656 10053171
-6.131806 6.845257 2.048876 10053171
-4.439195 7.135159 0.772296 10053171
-4.526207 7.027884 0.679089 10053171
-3.178711 7.214407 2.723161 10053171
-5.889742 7.193552 2.537479 10053171
-4.232758 6.908907 2.138955 10053171
-3.175434 6.934145 0.512432 10053171
-5.000740 6.818879 1.829243 10053171
-3.721895 6.984323 0.088896 10053171
-4.302580 7.235091 0.552091 10053171
-6.179938 6.871454 1.548837 10053171
-3.862002 7.212036 0.570825 10053171
-5.429650 6.793779 1.449699 10053171
-3.219888 6.810485 2.203097 10053171
-3.448719 6.959526 0.315828 10053171
-3.953087 7.262166 2.052669 10053171
-6.183328 7.193944 0.275178 10053171
-6.571315 6.917616 0.527831 10053171
-4.613627 6.884147 1.271663 10053171
-5.144441 6.801630 0.002866 10053171
-5.471227 6.816963 0.523178 10053171
-3.768721 6.779473 0.389321 10053171
-5.342374 7.225494 0.680987 10053171
-3.191513 7.175459 1.388685 10053171
-4.936883 6.744928 2.564449 10053171
-6.742371 7.137576 1.623413 10053171
-4.827954 6.795776 1.170063 10053171
-4.083921 7.036793 1.626105 10053171
-4.073948 7.038026 1.614341 10053171
-3.490691 6.913810 2.940510 10053171
-4.092242 7.144232 2.882537 10053171
-6.598996 6.917482 1.730197 10053171
-5.192716 7.049437 1.671045 10053171
-5.106663 7.173597 2.147352 10053171
-4.508902 6.870154 0.035146 10053171
-5.328649 6.761027 2.591688 10053171
-5.173664 6.762482 1.380738 10053171
-4.062003 6.890271 0.718282 10053171
-4.375859 7.039726 1.032971 10053171
-5.219694 7.120420 0.696316 10053171
-3.752024 6.782360 1.885066 10053171
-3.657642 7.230904 2.743430 10053171
-3.370893 7.152256 0.992099 10053171
-4.062147 7.204053 2.642819 10053171
-3.096418 7.161651 2.852185 10053171
-3.556726 7.034273 1.654749 10053171
-5.317161 7.105783 0.087267 10053171
-3.930222 6.928292 2.316275 10053171
-6.390432 7.033323 2.531199 10053171
-3.099616 7.081542 2.777871 10053171
-4.850287 7.172118 0.131845 10053171
-5.895142 6.884459 0.141957 10053171
-4.286646 7.050418 0.578506 10053171
-4.640664 7.140899 0.025380 10053171
-6.637103 7.216092 1.387434 10053171
-6.048437 6.918915 0.098102 10053171
-5.836635 6.753112 2.914797 10053171
-4.491971 7.037721 2.836911 10053171
-5.615211 7.201926 2.538297 10053171
-3.114279 6.949113 0.615422 10053171
-5.761204 6.940878 0.607545 10053171
-4.070837 7.117267 1.530008 10053171
-4.685246 6.783995 1.671065 10053171
-4.988666 7.142859 1.205885 10053171
-4.439854 6.971811 0.499886 10053171
-5.291280 7.244463 0.309600 10053171
-3.889273 6.961102 0.826416 10053171
-4.252728 6.945660 2.677636 10053171
-5.240078 7.105619 1.711151 10053171
-3.011641 6.984395 0.235439 10053171
-5.435976 6.855480 1.053969 10053171
-6.592777 7.085178 2.709593 10053171
-5.115062 6.805022 1.653667 10053171
-3.023930 6.907673 0.759787 10053171
-6.573451 6.983469 1.175840 10053171
-3.076800 7.007163 0.200370 10053171
-6.273485 7.214435 1.903801 10053171
-3.692086 6.926519 1.347172 10053171
-4.169365 7.095427 0.203928 10053171
-3.858503 7.152613 1.792626 10053171
-4.172904 7.007593 1.341002 10053171
-3.109338 6.811017 0.717091 10053171
-5.588458 7.233269 0.135268 10053171
-5.674951 7.021813 2.816945 10053171
-4.785698 6.954999 1.817502 10053171
-5.933750 7.164362 2.025261 10053171
-3.337489 7.115346 0.988700 10053171
-6.478163 6.799841 0.728863 10053171
-6.585276 7.078082 1.903250 10053171
-3.751372 6.853624 0.033788 10053171
-4.620015 7.122594 2.008178 10053171
-5.596886 6.741546 2.653286 10053171
-3.965903 7.085254 0.423291 10053171
-3.929227 6.775061 1.626986 10053171
-5.386382 7.025119 0.792489 10053171
-4.825042 6.823856 1.747632 10053171
-5.774180 6.932661 1.070653 10053171
-6.596826 6.873619 0.172789 10053171
-4.516817 6.965493 1.724490 10053171
-3.713829 7.098838 2.790662 10053171
-5.705303 6.853916 0.056352 10053171
-5.673210 7.068594 0.370272 10053171
-4.249804 6.857604 0.861171 10053171
-5.844311 6.843673 2.062805 10053171
-4.902075 6.842139 2.922060 10053171
-3.203285 7.008503 2.017430 10053171
-3.635461 6.913478 1.074492 10053171
-4.789361 7.141167 2.875498 10053171
-4.527731 7.152938 1.494313 10053171
-3.453868 7.095405 1.069284 10053171
-3.153105 7.149060 0.506411 10053171
-5.420646 7.113560 0.825819 10053171
-6.660073 6.976382 2.579301 10053171
-3.293661 6.904334 2.365615 10053171
-5.859818 7.133514 2.051386 10053171
-4.673731 6.917034 1.483423 10053171
-4.314264 6.818750 2.100402 10053171
-3.016901 6.747296 2.460883 10053171
-3.056816 6.981997 1.086191 10053171
-4.384346 7.211284 0.305601 10053171
-5.496418 7.227833 2.289282 10053171
-5.580799 7.119105 1.128475 10053171
-3.869702 6.885410 1.851217 10053171
-4.656261 7.089120 2.926810 10053171
-4.733743 7.168715 2.681601 10053171
-6.275594 7.034214 1.605152 10053171
-3.110723 7.209638 0.312564 10053171
-4.511659 6.873466 2.789806 10053171
-3.050084 6.920706 1.114596 10053171
-4.441413 7.242260 2.855957 10053171
-5.027205 6.928290 2.689070 10053171
-3.208866 6.987175 0.511860 10053171
-5.987651 6.813493 0.798792 10053171
-4.709887 7.150239 0.321349 10053171
-3.012489 7.053039 0.540855 10053171
-5.453286 6.903764 1.097873 10053171
-3.936223 6.795505 0.618483 10053171
-6.068894 6.980811 2.729281 10053171
-3.307535 6.928070 0.566530 10053171
-5.728716 6.749312 2.822217 10053171
-4.181457 6.843729 0.620946 10053171
-6.593487 7.010516 2.951250 10053171
-6.923347 7.248378 2.513676 10053171
-6.882648 7.202910 0.746600 10053171
-5.251104 7.007503 2.450410 10053171
-5.212108 6.979761 1.269288 10053171
-3.176834 7.162062 1.914780 10053171
-6.396044 6.946895 1.718395 10053171
-4.092376 6.837706 0.124809 10053171
-3.506634 6.888190 0.013580 10053171
-6.105674 6.868289 1.890138 10053171
-3.103728 7.090964 0.772883 10053171
-3.560761 7.029728 2.737305 10053171
-4.245572 7.060816 2.628050 10053171
-3.428369 6.897700 2.424510 10053171
-5.113696 6.888097 2.906109 10053171
-4.467698 7.127161 1.030924 10053171
-6.596760 6.829427 2.042334 10053171
-3.821041 6.878167 2.284278 10053171
-3.551594 6.975896 1.030765 10053171
-4.279166 6.755872 0.866873 10053171
-3.869903 7.009816 1.002150 10053171
-5.350511 6.948376 2.078897 10053171
-3.248639 6.816070 0.503562 10053171
-3.400915 7.245247 0.645099 10053171
-6.382403 6.750037 1.227497 10053171
-5.804982 7.233166 1.583003 10053171
-3.793999 6.898467 0.811977 10053171
-6.560734 6.877627 1.597338 10053171
-4.377993 6.810035 0.981158 10053171
-5.642727 6.918578 0.083048 10053171
-4.412521 7.037372 1.186809 10053171
-4.179930 6.944434 2.101358 10053171
-3.262847 7.182453 1.294463 10053171
-3.731979 7.229806 2.651218 10053171
-5.915622 6.797009 0.040486 10053171
-5.684144 6.805270 1.586609 10053171
-4.937352 6.971802 2.452240 10053171
-6.078759 7.057822 1.125607 10053171
-6.755597 7.244153 2.092205 10053171
-5.453580 6.885843 1.247424 10053171
-6.181918 6.918839 2.901799 10053171
-5.548823 6.772875 2.380621 10053171
-4.509682 7.176449 1.521961 10053171
-5.296869 6.881595 0.631112 10053171
-6.019045 7.242871 1.500721 10053171
-3.504184 6.858136 2.511817 10053171
-5.697032 6.948701 2.287563 10053171
-6.083030 6.977874 1.466827 10053171
-6.578711 6.867613 1.244785 10053171
-6.769309 7.079059 2.629177 10053171
-6.574253 6.863863 1.832989 10053171
-6.064449 6.988741 2.785301 10053171
-4.222056 7.185454 2.768418 10053171
-4.889114 7.076825 2.185525 10053171
-4.864423 7.148952 0.039222 10053171
-4.087264 6.838640 1.572388 10053171
-6.973838 7.243966 0.321949 10053171
-5.478800 7.153130 0.043821 10053171
-3.509831 6.791220 0.735055 10053171
-6.082825 6.777563 0.893269 10053171
-3.533608 6.822848 2.857355 10053171
-3.542053 7.170050 0.915654 10053171
-5.205084 6.816863 2.962097 10053171
-6.952798 6.861119 2.330849 10053171
-4.331670 6.844542 0.564198 10053171
-4.592091 6.853358 0.862174 10053171
-3.505912 6.814517 0.304507 10053171
-6.434287 6.981528 1.157940 10053171
-5.300067 7.249459 1.632578 10053171
-4.216109 7.185301 1.734485 10053171
-5.741764 7.123534 0.946519 10053171
-4.628707 6.946507 2.949770 10053171
-5.851138 7.018972 1.033590 10053171
-5.189235 7.163234 0.288549 10053171
-4.791388 6.874354 2.725829 10053171
-3.333423 6.972209 0.816992 10053171
-3.912543 7.003692 1.816240 10053171
-5.770002 7.006363 1.281506 10053171
-3.318173 6.959258 1.671041 10053171
-3.006839 7.222728 0.795887 10053171
-3.209198 7.213169 2.798008 10053171
-3.175336 7.183742 2.299619 10053171
-6.050626 6.926421 2.260183 10053171
-6.804000 7.041699 2.074209 10053171
-4.065427 6.796967 1.137858 10053171
-3.191164 7.216753 1.689349 10053171
-6.909191 7.164162 1.476408 10053171
-4.287929 6.882330 1.094369 10053171
-5.316483 7.030282 0.093993 10053171
-6.794807 7.130105 2.872021 10053171
-4.214949 6.840457 2.423962 10053171
-3.445891 7.025422 2.665468 10053171
-3.082746 6.775060 1.146849 10053171
-3.479922 7.215828 0.568271 10053171
-3.459033 6.945329 2.322548 10053171
-4.081430 7.081355 2.684892 10053171
-3.733501 7.076135 2.907172 10053171
-5.746281 6.914872 0.493959 10053171
-4.748139 7.104638 1.561802 10053171
5.900407 -5.976839 1.158129 8342706
6.111095 -5.719080 1.806153 8342706
5.441431 -6.100343 3.639472 8342706
6.167551 -6.459848 0.564142 8342706
5.438954 -6.217194 3.044270 8342706
6.189868 -6.436422 4.064398 8342706
6.359314 -6.042633 4.924178 8342706
6.200634 -5.624286 0.310249 8342706
5.999427 -6.170171 4.011660 8342706
6.194653 -6.015928 0.483367 8342706
5.571335 -5.664959 1.998218 8342706
6.169271 -6.431302 3.306015 8342706
6.539866 -5.780300 4.837911 8342706
6.049939 -5.630738 2.413520 8342706
6.463226 -5.960783 1.315765 8342706
6.087805 -6.232285 2.917738 8342706
6.536789 -5.866229 0.297228 8342706
6.342587 -6.422837 2.994581 8342706
6.290231 -5.514030 2.201037 8342706
6.460999 -6.364728 2.665710 8342706
6.194606 -6.100122 2.959387 8342706
6.290401 -5.572851 2.041512 8342706
5.634503 -6.307841 3.531401 8342706
5.822443 -5.568182 0.215693 8342706
5.649320 -5.776627 0.521825 8342706
6.498250 -5.794930 1.422893 8342706
6.054565 -5.439469 0.778875 8342706
6.212052 -6.316106 1.512675 8342706
6.433464 -6.159118 1.597442 8342706
6.531059 -6.035648 3.465362 8342706
5.620803 -6.200320 3.390701 8342706
5.845319 -6.198971 4.702407 8342706
5.800852 -5.544346 2.031770 8342706
6.317075 -5.781746 2.893265 8342706
6.273569 -5.955074 3.519592 8342706
5.454655 -6.110019 0.547336 8342706
6.398785 -5.825742 1.976063 8342706
5.903917 -5.789525 1.727640 8342706
5.745071 -5.841796 3.150832 8342706
5.654727 -6.163390 1.859093 8342706
5.785592 -5.529544 0.779965 8342706
6.460622 -6.083745 0.388581 8342706
5.995137 -6.121034 4.289385 8342706
5.580297 -6.205194 4.557581 8342706
5.743371 -5.754961 4.161748 8342706
5.755119 -5.939362 3.121032 8342706
6.041607 -6.002704 1.449333 8342706
6.417744 -6.274226 2.015045 8342706
5.649691 -5.734429 3.082222 8342706
6.302172 -6.094469 3.904546 8342706
5.409279 -5.992793 4.567735 8342706
5.965192 -5.446040 4.464516 8342706
5.491856 -5.959333 3.217525 8342706
6.403322 -5.941072 1.947018 8342706
6.171933 -6.479835 4.290687 8342706
6.375994 -5.869849 1.196515 8342706
5.416137 -5.960263 2.335064 8342706
5.505290 -5.761231 4.309207 8342706
6.452501 -5.968812 3.006232 8342706
6.092340 -5.663538 4.835265 8342706
6.262370 -5.869890 2.128619 8342706
5.808562 -5.456518 2.076297 8342706
5.867316 -6.339301 3.546922 8342706
6.006080 -5.490525 3.506419 8342706
5.769664 -6.044960 4.522287 8342706
5.850620 -6.093967 1.755926 8342706
6.167607 -5.752747 1.994530 8342706
6.179866 -6.289565 1.945176 8342706
5.773961 -6.244507 1.525974 8342706
5.623123 -6.252519 1.065347 8342706
5.845895 -6.390400 1.255722 8342706
5.951388 -5.959150 3.021933 8342706
6.053639 -6.114349 4.759049 8342706
5.796003 -5.810341 0.608824 8342706
5.716362 -6.096595 2.495151 8342706
5.956777 -5.984394 3.154798 8342706
5.475080 -6.189485 1.910116 8342706
6.090046 -5.602414 0.153160 8342706
6.446236 -5.921048 1.231127 8342706
6.564884 -6.072382 3.864143 8342706
6.034017 -6.231096 3.287791 8342706
5.577494 -5.670712 1.953083 8342706
6.086442 -6.262136 4.464169 8342706
6.096984 -5.594573 4.637555 8342706
6.430772 -5.707468 0.241154 8342706
5.953643 -6.173546 2.705145 8342706
6.216878 -5.987105 2.453515 8342706
5.500653 -6.162543 3.685348 8342706
6.059263 -6.334984 1.990281 8342706
5.874851 -6.325916 1.017910 8342706
6.189489 -6.405498 4.440548 8342706
5.555039 -5.930440 3.865601 8342706
5.681274 -6.388458 2.515173 8342706
6.113929 -6.492859 1.391305 8342706
5.850243 -5.894691 4.555841 8342706
5.608756 -5.759909 2.327636 8342706
6.480542 -5.848711 2.617897 8342706
6.100089 -6.427087 0.592546 8342706
5.557267 -6.162512 1.873116 8342706
6.307944 -6.042548 1.864949 8342706
6.558053 -6.050825 3.637646 8342706
5.661955 -6.385861 0.617822 8342706
5.688639 -6.453888 0.766258 8342706
6.218237 -6.018301 2.574728 8342706
5.648280 -6.031044 3.307806 8342706
5.758541 -5.578896 4.712561 8342706
5.764329 -6.237093 4.028661 8342706
5.639186 -5.832532 1.236200 8342706
6.424267 -5.957020 4.444333 8342706
5.851701 -5.620356 3.518578 8342706
6.029728 -5.811097 0.938010 8342706
6.168840 -6.375579 1.756218 8342706
6.153255 -5.817546 1.580040 8342706
5.969411 -5.783175 4.087678 8342706
6.044506 -6.212235 4.601424 8342706
5.790751 -6.151754 0.219111 8342706
5.896191 -5.647456 1.680114 8342706
6.199626 -5.639365 3.859247 8342706
5.712350 -5.964854 3.107491 8342706
5.818867 -6.206472 2.590800 8342706
5.673797 -5.865693 2.903521 8342706
5.617552 -6.236983 3.705331 8342706
5.899926 -6.587489 1.077803 8342706
6.114833 -5.815055 1.661389 8342706
6.287430 -6.315147 0.553166 8342706
6.359029 -5.701130 2.308366 8342706
6.134062 -5.574381 3.063459 8342706
5.690145 -5.684314 1.223726 8342706
5.996210 -5.723218 3.694163 8342706
6.212953 -6.014909 4.412491 8342706
6.505691 -6.101485 2.692972 8342706
6.338461 -6.142220 3.359873 8342706
5.672946 -6.310773 4.707605 8342706
6.287336 -5.544323 4.622261 8342706
5.970894 -6.224404 3.545528 8342706
5.764340 -5.652400 2.595708 8342706
6.082228 -6.558454 4.492867 8342706
5.531144 -5.767095 4.258639 8342706
5.524264 -6.146694 2.880165 8342706
6.103493 -5.630540 2.475576 8342706
5.679806 -5.875999 4.023313 8342706
5.879448 -5.441573 3.050365 8342706
6.485101 -5.822177 0.123588 8342706
6.074374 -5.450256 0.421334 8342706
6.408065 -5.737638 0.057767 8342706
6.033100 -5.755272 0.501451 8342706
5.664021 -5.697025 3.055738 8342706
6.360540 -6.218330 1.510412 8342706
6.136116 -5.795711 2.494454 8342706
5.781388 -6.160512 1.615912 8342706
5.998046 -6.203487 0.124889 8342706
5.855876 -6.027752 3.729506 8342706
5.713095 -6.151465 3.392691 8342706
6.304402 -6.258202 4.598345 8342706
6.325448 -6.459427 3.373201 8342706
6.030019 -6.548653 4.177151 8342706
6.029747 -5.670152 4.220186 8342706
5.698609 -5.617915 4.240319 8342706
6.210056 -5.859629 1.872399 8342706
5.507644 -6.231524 4.652892 8342706
5.933228 -6.362353 4.703537 8342706
6.042572 -6.435557 1.303943 8342706
6.116961 -5.617315 2.021056 8342706
5.960876 -6.232305 1.699469 8342706
6.026013 -6.015088 4.528513 8342706
6.091206 -5.621559 1.164795 8342706
6.128491 -6.303626 1.563685 8342706
5.745622 -5.728816 0.129790 8342706
6.331387 -6.181178 3.032814 8342706
6.112670 -5.585065 2.639570 8342706
6.260352 -5.871116 1.020466 8342706
5.620975 -6.071692 1.915228 8342706
5.716696 -5.678746 2.251621 8342706
5.812112 -5.659694 2.621737 8342706
5.515451 -5.935651 3.584423 8342706
6.017334 -5.811903 1.880378 8342706
5.696908 -5.907867 1.466710 8342706
5.748675 -6.260112 2.827296 8342706
5.999590 -6.320199 4.889096 8342706
6.002604 -6.443729 4.839417 8342706
6.093865 -5.599877 3.822954 8342706
5.621299 -5.579846 2.002903 8342706
6.542594 -6.048729 4.264878 8342706
5.668749 -5.578723 1.913102 8342706
6.084263 -6.458847 1.680424 8342706
5.597373 -6.235734 1.863410 8342706
6.312172 -5.914026 3.518251 8342706
6.469872 -5.810648 3.799856 8342706
6.419074 -6.099722 3.864026 8342706
6.135562 -5.873807 3.378144 8342706
6.139618 -6.397164 1.025467 8342706
5.658945 -6.149793 3.350758 8342706
6.495080 -6.317791 0.120588 8342706
6.386296 -6.082088 4.928777 8342706
5.443031 -5.892838 3.776529 8342706
6.499798 -6.021862 0.233834 8342706
6.257835 -5.671252 3.727278 8342706
6.095311 -6.008565 2.469959 8342706
6.269353 -5.995722 0.695733 8342706
6.416393 -5.959559 2.416959 8342706
6.091544 -6.507518 2.776484 8342706
6.396692 -6.078337 1.394902 8342706
6.212783 -5.645109 1.101940 8342706
6.258425 -5.571828 4.331811 8342706
6.149050 -6.445924 0.730224 8342706
5.635846 -6.043200 3.177668 8342706
6.520456 -5.791337 1.103766 8342706
6.171803 -5.790253 2.583049 8342706
6.005578 -6.089095 2.525248 8342706
6.379162 -5.674471 1.815367 8342706
5.958910 -6.107190 3.857955 8342706
6.494704 -6.010579 1.583650 8342706
5.502923 -6.271436 0.721866 8342706
5.824019 -6.358029 4.999042 8342706
6.468840 -5.775876 3.965581 8342706
6.217270 -6.038583 0.116027 8342706
6.275788 -5.823123 3.570719 8342706
6.482323 -6.082021 4.603571 8342706
5.909581 -6.050011 3.140929 8342706
6.375067 -6.248319 1.761090 8342706
6.039143 -5.439739 1.957821 8342706
5.423815 -5.956305 4.252255 8342706
6.091929 -6.066078 2.966328 8342706
6.267931 -5.936273 3.254818 8342706
5.650656 -6.162938 3.367996 8342706
6.139851 -6.364513 4.420870 8342706
6.102779 -5.514227 4.129000 8342706
5.934475 -5.856619 2.906750 8342706
5.440742 -6.111317 2.050867 8342706
6.315168 -6.423748 4.889863 8342706
5.637719 -6.382735 2.931291 8342706
6.330564 -6.331625 2.377644 8342706
6.425435 -5.806186 1.063431 8342706
6.450353 -5.879848 2.275536 8342706
5.989125 -5.521796 2.082929 8342706
6.220482 -5.750892 0.488623 8342706
5.924289 -6.298383 1.571938 8342706
6.386276 -5.760934 2.445451 8342706
6.370162 -5.535010 4.090337 8342706
6.461980 -6.172581 1.498682 8342706
6.158107 -5.815826 3.239192 8342706
5.740498 -6.402340 3.122758 8342706
6.250391 -5.552998 4.470628 8342706
6.030787 -5.899747 0.772400 8342706
5.569154 -6.376059 4.404538 8342706
5.587294 -5.746344 4.261979 8342706
6.210737 -5.823390 1.364635 8342706
5.748119 -5.804038 1.066093 8342706
5.869147 -6.100739 0.612076 8342706
6.183767 -5.447272 1.171357 8342706
6.285109 -5.551686 1.163459 8342706
5.649222 -6.253327 4.302082 8342706
5.933305 -6.062809 4.926503 8342706
6.207018 -5.566408 3.772394 8342706
5.658826 -6.043519 4.250979 8342706
6.093009 -6.589607 4.270770 8342706
5.696415 -5.716461 3.957865 8342706
5.547656 -6.078358 3.757705 8342706
6.220433 -6.412055 1.033038 8342706
6.562200 -5.952652 0.500939 8342706
5.986485 -5.527719 2.919917 8342706
6.181688 -6.406151 1.657023 8342706
5.508777 -6.196367 3.919896 8342706
5.602621 -6.456340 2.810960 8342706
5.812779 -5.493153 2.238761 8342706
6.540666 -6.232781 2.089436 8342706
6.066845 -6.361001 0.533430 8342706
5.438721 -5.870509 2.608803 8342706
5.836549 -5.672860 2.546991 8342706
6.315198 -6.076763 0.205627 8342706
6.051130 -5.612357 4.356313 8342706
6.518161 -6.278384 4.422258 8342706
5.806122 -6.389111 4.399442 8342706
5.452096 -5.762534 4.326097 8342706
5.943942 -5.495443 1.521668 8342706
6.533054 -6.206718 4.022733 8342706
6.371570 -6.174078 1.421212 8342706
5.831801 -6.198903 3.750327 8342706
6.125703 -6.334058 1.930717 8342706
5.535851 -5.634150 3.398610 8342706
5.790239 -6.451245 3.533872 8342706
5.512786 -5.666559 3.886873 8342706
6.159173 -5.579807 0.035007 8342706
6.369862 -5.951684 2.652081 8342706
6.368273 -6.067472 1.756668 8342706
5.775433 -5.783873 3.219025 8342706
6.020541 -5.809177 3.177325 8342706
6.305344 -6.057653 2.017155 8342706
6.363775 -5.814021 2.206938 8342706
6.048516 -5.796307 0.097359 8342706
5.827133 -6.079969 0.114543 8342706
6.212911 -6.440811 0.886738 8342706
6.339251 -6.475665 0.740016 8342706
6.134858 -6.354015 4.228273 8342706
5.867188 -6.514256 1.818121 8342706
5.635939 -5.929133 0.985617 8342706
5.776460 -5.663285 2.698148 8342706
6.195202 -5.740647 0.416004 8342706
6.081470 -5.425827 2.113004 8342706
6.011415 -6.496599 1.063776 8342706
6.237195 -5.544981 1.300036 8342706
6.454802 -5.679244 3.604437 8342706
6.460661 -6.240203 0.326576 8342706
5.762185 -5.920455 4.028286 8342706
6.169154 -6.093810 1.745633 8342706
6.109204 -6.222227 3.239994 8342706
5.588575 -6.251923 3.686810 8342706
6.542164 -6.144216 1.837619 8342706
6.274056 -6.231290 1.694791 8342706
5.563235 -5.796945 2.484473 8342706
6.380162 -6.406816 2.026460 8342706
6.143371 -6.226012 3.581220 8342706
6.148580 -6.573574 4.287529 8342706
6.441593 -6.386874 3.681066 8342706
6.105445 -5.537831 2.031491 8342706
6.103857 -5.456585 0.883872 8342706
6.147010 -6.431049 1.151030 8342706
5.669493 -6.069049 0.124427 8342706
5.857144 -5.601418 2.622431 8342706
5.813166 -6.377690 2.627805 8342706
6.094323 -5.483629 3.487349 8342706
5.745771 -6.291692 3.366878 8342706
6.328695 -6.324295 1.076417 8342706
5.806540 -6.536799 4.766942 8342706
6.251426 -5.679369 4.900867 8342706
5.995064 -6.474715 1.862991 8342706
5.673074 -5.793601 0.279640 8342706
6.292144 -5.535705 4.284248 8342706
5.596597 -5.843665 4.344725 8342706
6.223727 -5.592119 0.488465 8342706
6.273345 -6.353007 4.013348 8342706
6.176108 -6.562499 0.569014 8342706
6.179439 -5.865857 1.012735 8342706
6.431208 -6.171290 2.770659 8342706
6.027546 -6.381762 3.742517 8342706
5.989634 -5.555937 2.028029 8342706
6.455192 -6.183974 3.308467 8342706
6.122216 -5.434019 0.257367 8342706
5.485584 -5.702055 4.403304 8342706
6.172534 -6.343634 1.652834 8342706
6.429720 -5.602923 1.853922 8342706
5.865387 -6.100849 0.903837 8342706
6.352667 -5.604405 3.705988 8342706
5.624673 -6.126452 3.767044 8342706
6.504026 -5.898093 1.190226 8342706
5.716582 -6.001831 2.409289 8342706
6.230209 -6.331304 2.956946 8342706
5.721610 -6.374078 4.088010 8342706
6.049055 -6.272637 3.888699 8342706
6.388822 -5.541809 4.936654 8342706
6.525365 -6.260385 4.648892 8342706
6.020923 -5.928470 3.883327 8342706
6.175477 -6.382889 4.340053 8342706
5.708651 -6.209543 2.006531 8342706
6.430842 -5.866369 2.105694 8342706
6.454114 -5.989936 2.204112 8342706
5.857615 -5.453770 1.057397 8342706
6.470389 -5.797934 0.283588 8342706
5.843200 -5.473516 1.397231 8342706
6.237846 -5.717373 4.829907 8342706
5.974234 -5.661315 1.228389 8342706
6.479016 -5.818961 2.260383 8342706
5.773965 -6.212222 3.692211 8342706
6.271244 -6.191912 1.521608 8342706
5.983566 -6.389461 3.997384 8342706
5.996921 -5.809261 2.269047 8342706
6.164776 -6.050000 4.113163 8342706
6.190560 -6.412741 4.319421 8342706
6.298256 -5.612337 4.743816 8342706
6.364205 -5.812060 3.601578 8342706
6.011455 -5.793040 3.173163 8342706
6.548882 -5.874017 3.044688 8342706
6.261102 -5.874032 2.844295 8342706
6.284337 -6.322324 1.986041 8342706
5.775550 -5.707643 3.619950 8342706
5.697196 -5.722832 3.056101 8342706
6.265990 -5.987276 1.467448 8342706
6.367048 -6.237922 1.074056 8342706
5.843743 -5.590369 2.983374 8342706
5.518625 -5.903466 0.139860 8342706
5.637850 -5.646288 0.444081 8342706
5.627768 -5.586301 2.871391 8342706
5.993753 -5.506870 2.139702 8342706
5.529961 -6.108179 1.866423 8342706
6.117137 -5.496891 3.471569 8342706
5.439847 -5.915659 4.608184 8342706
5.465503 -5.812860 2.941916 8342706
6.186584 -6.329275 1.846791 8342706
5.560433 -6.377104 0.859479 8342706
5.884067 -6.514244 1.621344 8342706
6.079998 -6.348697 3.436133 8342706
5.948850 -6.493533 4.606297 8342706
6.361641 -6.160061 0.807204 8342706
6.503505 -6.318601 1.446848 8342706
6.555017 -5.918574 3.398994 8342706
5.564344 -6.091945 1.103947 8342706
6.264339 -6.294333 1.964371 8342706
6.163686 -6.292428 2.953156 8342706
6.074950 -6.506371 4.967832 8342706
5.966521 -6.456019 0.612964 8342706
6.280851 -5.775825 1.742166 8342706
6.416857 -5.901061 1.318981 8342706
6.228185 -6.389920 0.482504 8342706
6.303730 -6.125098 2.908878 8342706
6.490935 -6.130479 0.099680 8342706
6.092679 -5.654036 1.220242 8342706
6.492078 -6.249743 4.301190 8342706
6.448560 -5.646314 4.789293 8342706
6.492354 -6.163919 3.634296 8342706
6.339110 -6.348246 1.611504 8342706
5.741847 -6.301030 0.441812 8342706
6.182331 -5.588078 2.697248 8342706
6.218501 -6.018979 3.861478 8342706
6.307007 -5.850135 0.373151 8342706
6.194541 -5.870812 3.935403 8342706
5.778313 -6.389874 3.284654 8342706
6.398051 -6.195585 0.019407 8342706
6.345811 -5.749971 1.345814 8342706
6.265850 -6.005866 4.248935 8342706
6.332158 -6.106152 2.045183 8342706
5.765724 -5.563351 4.373154 8342706
5.839454 -6.024384 0.876001 8342706
6.044738 -5.752769 4.183327 8342706
5.515043 -5.722640 3.991024 8342706
6.484650 -6.119499 1.775189 8342706
6.285591 -6.453329 1.697401 8342706
6.283952 -6.215828 4.622808 8342706
5.536998 -6.337461 1.239317 8342706
5.993968 -6.230418 3.462861 8342706
6.238962 -5.562948 3.791216 8342706
6.044855 -6.584190 3.681798 8342706
5.939184 -6.011823 1.746359 8342706
5.793622 -5.632632 2.748564 8342706
6.166814 -6.325728 0.924561 8342706
6.193211 -6.001485 3.881625 8342706
6.156398 -6.307084 1.996338 8342706
5.782927 -6.143527 1.028532 8342706
6.587378 -6.011152 1.772061 8342706
5.757320 -6.093624 4.296807 8342706
6.464290 -5.802835 1.028338 8342706
5.566639 -5.856363 0.778120 8342706
6.327436 -6.006474 4.991493 8342706
6.166386 -6.553030 4.112373 8342706
6.081821 -6.417597 4.719331 8342706
5.999233 -5.833364 1.395634 8342706
6.517502 -6.155849 5.016086 8342706
6.131162 -6.068230 1.672580 8342706
5.826712 -5.954866 2.084349 8342706
5.734949 -5.972272 3.027029 8342706
6.487387 -6.243939 4.097544 8342706
5.480444 -5.882100 3.566419 8342706
6.169660 -6.076597 0.992247 8342706
5.875092 -6.247975 1.912145 8342706
5.951146 -5.667350 2.392895 8342706
6.314458 -6.282665 0.105541 8342706
5.815361 -5.586100 4.553546 8342706
5.993305 -5.475435 4.071671 8342706
5.777796 -5.458374 3.549652 8342706
6.409540 -6.372186 1.555659 8342706
5.501473 -6.005091 4.742584 8342706
6.051503 -6.516760 0.114448 8342706
6.549858 -5.965255 1.498250 8342706
6.371798 -5.560652 3.371894 8342706
5.775226 -5.908739 0.829079 8342706
6.014953 -5.993804 0.865437 8342706
5.604034 -5.905586 2.229961 8342706
5.716273 -5.619061 2.279009 8342706
5.773675 -6.111251 3.524655 8342706
6.333283 -5.509640 1.124330 8342706
5.640660 -5.779899 4.832623 8342706
5.908117 -5.806689 0.085251 8342706
5.631967 -6.468348 2.443923 8342706
5.865334 -6.454308 3.638982 8342706
6.021063 -6.599766 0.598246 8342706
6.071463 -5.716217 1.750932 8342706
6.109734 -5.928244 1.774035 8342706
6.168044 -5.769631 4.158031 8342706
5.487165 -6.240555 4.963310 8342706
6.564905 -5.851261 2.158248 8342706
6.219355 -6.455794 3.916809 8342706
6.226583 -5.728851 2.524204 8342706
6.223415 -6.373985 2.391403 8342706
6.088183 -5.640459 4.491601 8342706
5.648177 -6.305658 3.471519 8342706
5.994393 -6.438141 2.715781 8342706
6.587248 -6.089481 0.462279 8342706
5.722882 -5.659170 4.808684 8342706
6.288223 -5.778678 0.273148 8342706
5.937040 -5.733961 4.675661 8342706
6.065304 -5.551876 2.415383 8342706
6.358068 -5.927409 1.862138 8342706
5.844230 -6.332618 3.445588 8342706
6.103172 -5.694139 4.232190 8342706
6.465452 -5.824395 0.453653 8342706
6.370512 -5.786487 4.636027 8342706
6.239963 -6.054080 2.757983 8342706
6.331820 -6.235550 0.721253 8342706
5.460986 -6.013580 2.436990 8342706
5.668884 -5.933162 4.304601 8342706
6.274721 -5.908149 4.808850 8342706
6.291675 -5.579391 1.370709 8342706
5.818881 -6.236892 4.046345 8342706
6.441794 -5.672016 4.620957 8342706
5.863930 -5.498441 4.356797 8342706
5.672036 -5.839149 0.479863 8342706
6.429926 -5.801958 3.477987 8342706
6.371050 -5.761833 0.660341 8342706
5.692081 -6.092628 0.761474 8342706
