# .PCD v0.7 - Point Cloud Data file format
VERSION 0.7
FIELDS x y z rgb
SIZE 4 4 4 4
TYPE F F F U
COUNT 1 1 1 1
WIDTH 1262
HEIGHT 1
VIEWPOINT 0 0 0 1 0 0 0
POINTS 1262
DATA ascii
25.129112 -5.776822 0.625878 1690649
24.849833 -6.186526 0.784749 1690649
25.067335 -6.127436 0.692737 1690649
24.514582 -6.197988 1.326156 1690649
25.181814 -6.040092 0.473696 1690649
24.863749 -5.962011 0.586190 1690649
25.114399 -6.050756 1.022432 1690649
24.845039 -6.134686 1.059149 1690649
25.365381 -6.127640 1.301029 1690649
24.660307 -6.073032 0.936174 1690649
25.319468 -5.966169 0.514501 1690649
24.996246 -6.197329 1.765984 1690649
24.917397 -6.437009 0.171097 1690649
24.619198 -5.860886 1.069748 1690649
25.001543 -5.737925 1.024891 1690649
25.138620 -6.390822 1.143690 1690649
25.304333 -6.167660 1.000039 1690649
24.754183 -6.230135 0.575195 1690649
25.064226 -5.934346 1.396872 1690649
25.007795 -6.123293 1.131686 1690649
25.020792 -5.669766 1.715519 1690649
25.007191 -6.466967 1.174546 1690649
24.522453 -6.245808 0.853567 1690649
24.502680 -6.237623 0.888508 1690649
24.646235 -5.702308 1.522483 1690649
25.055939 -6.161277 1.844497 1690649
24.591635 -6.170204 1.411422 1690649
25.087782 -5.748937 1.833468 1690649
24.915920 -6.357202 0.630753 1690649
25.169268 -5.825426 1.235878 1690649
24.757673 -5.749853 1.428078 1690649
24.746096 -5.916115 1.601093 1690649
25.300039 -6.252590 0.985587 1690649
24.736879 -5.967137 0.779662 1690649
24.941521 -6.181954 1.054586 1690649
25.188669 -5.705606 1.102489 1690649
24.500029 -6.038564 0.533333 1690649
24.994455 -5.845512 0.606830 1690649
24.609100 -6.166238 1.283651 1690649
24.964252 -5.780765 1.868297 1690649
25.081362 -5.904161 1.080635 1690649
24.768938 -6.357085 0.354501 1690649
25.058214 -5.927058 1.876223 1690649
24.899529 -6.341041 0.987546 1690649
24.646296 -5.750913 1.910383 1690649
25.136211 -6.233240 1.134408 1690649
24.941940 -6.379128 1.422430 1690649
24.885101 -5.900548 0.976500 1690649
24.748972 -5.635582 1.029894 1690649
24.888443 -5.718956 1.384332 1690649
24.739967 -5.893191 1.218277 1690649
25.067820 -5.623113 0.431291 1690649
25.298525 -5.928116 1.505739 1690649
24.710182 -5.831262 1.031579 1690649
24.522743 -6.229954 1.840059 1690649
24.861633 -6.404075 1.689779 1690649
24.743721 -6.143718 0.806577 1690649
24.745968 -5.897940 0.570529 1690649
25.236275 -6.305081 0.901835 1690649
24.879463 -6.071342 1.456711 1690649
24.579262 -6.071208 0.920776 1690649
25.064825 -6.041791 0.121667 1690649
24.677197 -5.905166 0.203870 1690649
24.954107 -6.432570 0.175139 1690649
24.880798 -5.796162 0.985478 1690649
25.037840 -6.265594 1.740989 1690649
24.729464 -6.333385 1.680367 1690649
24.965069 -6.498199 1.785807 1690649
24.703653 -5.892358 0.241884 1690649
24.590990 -6.193215 0.338699 1690649
24.734293 -5.950801 1.356923 1690649
25.036661 -6.197839 0.648330 1690649
24.759335 -6.289977 1.644993 1690649
25.281694 -6.108519 1.148261 1690649
25.072992 -6.079652 0.137238 1690649
24.878052 -5.709548 1.228976 1690649
24.931660 -5.904100 0.227467 1690649
24.901070 -6.398773 1.118728 1690649
25.212479 -6.092123 0.719781 1690649
25.090906 -5.760474 1.180928 1690649
24.861237 -5.614235 0.227114 1690649
24.901220 -6.243394 0.492075 1690649
25.008747 -5.882056 0.914671 1690649
24.755789 -6.005076 1.779225 1690649
24.563444 -5.949169 0.673364 1690649
25.027000 -6.413208 0.196763 1690649
24.892267 -6.423380 1.445814 1690649
24.729162 -6.326172 0.141254 1690649
25.118845 -5.856611 1.500899 1690649
25.195980 -6.266065 1.257404 1690649
24.943460 -5.770539 1.711078 1690649
24.872368 -5.716014 1.113319 1690649
25.122105 -5.745221 0.757678 1690649
24.710505 -6.150630 0.182933 1690649
24.684984 -5.709144 1.267486 1690649
25.208324 -6.325221 0.584786 1690649
24.690716 -5.930459 1.669416 1690649
24.823021 -6.021253 1.892145 1690649
25.200493 -5.878506 0.498973 1690649
24.788420 -6.240790 1.612493 1690649
24.563643 -6.271448 0.959023 1690649
24.795164 -5.754932 1.723959 1690649
24.756477 -6.288352 1.458572 1690649
24.589834 -5.826423 0.614200 1690649
24.690462 -5.836942 0.154426 1690649
24.616142 -6.365130 1.131874 1690649
24.659298 -5.814500 0.614851 1690649
24.726234 -5.824704 1.065929 1690649
24.570919 -6.240988 0.775256 1690649
24.718773 -6.174608 1.277618 1690649
25.265558 -6.325279 0.142778 1690649
24.923588 -5.652628 1.880094 1690649
25.310146 -5.958436 0.963768 1690649
25.098337 -6.436149 1.829547 1690649
25.277243 -5.951804 1.447282 1690649
25.052164 -6.304241 1.064481 1690649
25.154331 -5.871789 1.376054 1690649
24.946230 -6.378127 1.141320 1690649
24.847910 -5.721032 0.782080 1690649
24.973286 -6.442339 0.146839 1690649
24.539324 -6.089295 0.968938 1690649
24.611340 -5.781846 0.287215 1690649
25.206226 -5.933810 1.333104 1690649
25.133924 -6.337254 0.115713 1690649
24.685677 -6.052347 1.059345 1690649
24.949965 -6.247061 0.246199 1690649
24.561342 -6.091900 0.942420 1690649
24.891302 -6.346715 0.490447 1690649
25.295696 -5.854168 0.680112 1690649
24.592009 -5.950712 1.869289 1690649
24.817890 -5.927469 0.232507 1690649
25.044703 -6.085742 0.443967 1690649
25.234154 -6.358510 0.914105 1690649
24.509886 -5.905053 1.391228 1690649
24.652029 -5.974453 1.534174 1690649
24.731817 -6.031241 0.321987 1690649
25.086540 -6.333559 1.458226 1690649
24.849567 -6.092324 0.507997 1690649
25.123039 -6.206429 1.372156 1690649
25.079189 -5.828810 0.194367 1690649
24.530312 -6.080628 0.662746 1690649
25.308435 -6.188354 0.762543 1690649
25.199036 -5.925420 1.279402 1690649
24.787113 -5.957350 0.894257 1690649
24.608255 -6.059153 0.646746 1690649
25.300959 -5.891165 1.192980 1690649
24.977997 -6.167814 1.296347 1690649
24.743647 -5.947555 1.667696 1690649
24.953728 -5.660647 1.179504 1690649
25.329184 -6.033865 1.254653 1690649
25.132973 -6.251055 0.515839 1690649
24.689425 -6.055286 1.012450 1690649
25.010633 -6.034410 1.230479 1690649
25.083782 -6.141783 0.687500 1690649
-4.380331 7.178728 0.471704 10053171
-5.967831 7.104903 0.414739 10053171
-4.421325 6.977458 2.354357 10053171
-5.173586 7.171024 2.881391 10053171
-3.848986 7.000858 0.303162 10053171
-6.702579 6.762256 2.485125 10053171
-4.091906 7.137156 2.539505 10053171
-3.171823 6.961189 1.338531 10053171
-4.400198 6.980534 0.505917 10053171
-3.477930 7.181972 2.563192 10053171
-3.656493 7.184341 2.487019 10053171
-3.262910 6.966987 0.862524 10053171
-3.998157 7.055097 0.169028 10053171
-4.954969 6.820767 1.159929 10053171
-6.815693 6.966176 0.201468 10053171
-4.607918 7.125669 2.205926 10053171
-6.429328 6.974992 1.199080 10053171
-4.665782 6.972846 0.458473 10053171
-6.899652 6.771330 2.836563 10053171
-6.309904 7.215084 2.875116 10053171
-6.069394 7.083654 0.784602 10053171
-6.147554 6.804504 2.810521 10053171
-3.729026 6.868686 2.246224 10053171
-4.816742 7.048131 2.505648 10053171
-6.586108 7.000709 2.664609 10053171
-6.039676 7.136363 1.109763 10053171
-3.399984 7.156562 1.456407 10053171
-4.600837 6.951965 1.351155 10053171
-6.004577 7.217557 2.382051 10053171
-6.656224 7.021145 2.953644 10053171
-6.855467 7.060147 1.129930 10053171
-5.975296 6.767564 0.151944 10053171
-6.139925 7.026242 1.961890 10053171
-3.874803 6.959151 0.583650 10053171
-4.714745 7.160323 0.124563 10053171
-5.888511 7.179412 2.061733 10053171
-4.840614 6.953996 1.398383 10053171
-5.479306 7.254237 2.738984 10053171
-5.053662 6.764886 1.317495 10053171
-6.159522 6.969440 2.525520 10053171
-4.473929 6.951377 2.133551 10053171
-4.105461 7.107520 1.114164 10053171
-3.878336 6.780973 0.889570 10053171
-4.732050 6.938376 2.249269 10053171
-5.550121 6.948101 0.652658 10053171
-3.813291 7.039279 1.154841 10053171
-3.487597 7.066204 2.127666 10053171
-4.286472 7.202705 0.705249 10053171
-4.126305 7.248776 2.538591 10053171
-5.291181 6.964813 1.597417 10053171
-6.778953 7.058904 2.627986 10053171
-5.666625 6.989929 1.202972 10053171
-5.744355 6.849222 2.784193 10053171
-3.545132 6.848094 2.694717 10053171
-3.076455 6.891373 0.610579 10053171
-5.029377 7.031141 2.179597 10053171
-3.518509 7.038350 0.813515 10053171
-5.453951 7.033525 1.609740 10053171
-3.330715 7.075413 2.182103 10053171
-6.479422 7.174639 0.025771 10053171
-6.364364 6.746237 2.594890 10053171
-4.378311 6.970193 2.941131 10053171
-6.302849 6.919082 0.869418 10053171
-3.782891 7.188231 1.041479 10053171
-3.544531 7.064729 2.683383 10053171
-4.189045 6.930550 2.154595 10053171
-6.363024 6.813817 1.055613 10053171
-3.771863 7.013737 1.931681 10053171
-3.898673 7.067960 1.223661 10053171
-5.438215 7.202325 0.707841 10053171
-5.926427 6.931014 2.522855 10053171
-3.292060 6.940826 1.482540 10053171
-6.809093 6.759103 2.275270 10053171
-3.692691 6.981969 1.010420 10053171
-6.524633 7.204707 1.587613 10053171
-5.289180 6.973410 0.846820 10053171
-6.480660 6.895885 0.450542 10053171
-4.529059 7.094245 2.269861 10053171
-6.714971 7.188363 1.133179 10053171
-4.027533 6.883437 0.231925 10053171
-5.782729 7.225273 0.704190 10053171
-6.956922 7.069488 2.895676 10053171
-3.110608 7.070235 2.161390 10053171
-4.133296 7.105900 0.054443 10053171
-4.445090 7.180345 1.342822 10053171
-6.618238 7.215800 0.419384 10053171
-5.841522 6.865151 0.177515 10053171
-3.242353 6.882418 0.159617 10053171
-6.530545 6.925981 1.329774 10053171
-5.973395 6.852380 -0.005421 10053171
-5.456305 7.031486 1.762813 10053171
-6.373909 7.016403 2.962587 10053171
-6.073720 6.834665 2.934382 10053171
-4.231790 7.221137 1.414233 10053171
-4.289133 7.096835 2.191866 10053171
-3.907802 7.200274 2.393293 10053171
-5.666970 7.196585 0.383929 10053171
-5.355687 6.911775 0.458851 10053171
-3.330059 6.975199 1.001193 10053171
-6.873933 6.962873 0.243432 10053171
-4.490079 6.810004 1.771119 10053171
-6.248434 7.218703 1.532946 10053171
-3.826365 7.192570 0.877368 10053171
-3.779580 6.951264 2.103552 10053171
-4.793670 7.142835 1.234245 10053171
-5.638639 7.235670 1.603272 10053171
-4.242980 6.956146 0.421723 10053171
-5.519404 7.208473 0.308750 10053171
-3.280863 7.075760 0.151154 10053171
-5.109087 6.787523 1.797461 10053171
-5.616713 7.060393 2.650183 10053171
-5.452754 6.862032 2.380162 10053171
-4.457519 6.932233 0.693555 10053171
-4.768447 6.942512 2.303803 10053171
-6.495134 6.973899 1.177083 10053171
-5.739408 6.781931 1.378047 10053171
-4.571472 6.925696 1.802609 10053171
-4.042960 7.074801 2.559685 10053171
-3.310305 7.028540 0.202267 10053171
-4.650281 6.736609 1.401406 10053171
-3.793735 7.209776 0.834269 10053171
-5.160106 6.872705 0.237364 10053171
-6.438353 6.780945 0.295479 10053171
-5.595634 7.003982 0.829834 10053171
-3.129519 7.197299 1.538119 10053171
-5.375038 7.064632 2.737636 10053171
-5.331050 6.932571 2.685718 10053171
-4.377229 6.897866 0.772379 10053171
-6.975842 7.113286 2.661882 10053171
-4.275299 7.033114 2.868407 10053171
-4.869655 6.968671 0.228932 10053171
-6.489135 6.898632 2.237235 10053171
-5.356941 6.907748 1.740513 10053171
-5.245747 7.080364 1.632532 10053171
-4.644033 6.841726 0.834131 10053171
-3.257321 6.815133 0.456389 10053171
-4.012728 6.942450 1.224099 10053171
-3.765846 7.235826 0.783104 10053171
-5.114834 7.038846 2.778694 10053171
-4.734438 7.168874 1.083137 10053171
-5.633451 6.786674 2.556260 10053171
-5.396860 7.169876 2.284930 10053171
-6.032025 6.996705 2.964335 10053171
-3.696371 6.942705 1.078758 10053171
-4.238915 7.077958 2.715937 10053171
-5.920695 7.050074 0.651897 10053171
-4.949131 6.804066 2.320477 10053171
-3.931425 6.811092 1.357018 10053171
-6.009341 7.194147 1.731939 10053171
-3.602607 7.196404 0.401953 10053171
-5.870179 6.934253 2.279070 10053171
-6.575138 6.880241 1.748905 10053171
-4.764556 6.791920 2.797072 10053171
-6.486126 7.169535 1.217029 10053171
-3.557699 7.001815 1.076318 10053171
-6.256716 6.826691 1.568746 10053171
-3.038058 6.853837 1.552186 10053171
-6.385259 7.244181 0.939509 10053171
-4.806493 6.988649 1.216075 10053171
-6.402982 7.099989 0.933405 10053171
-6.892269 6.900460 2.265206 10053171
-3.714967 7.202360 1.812836 10053171
-4.214176 7.186451 0.805117 10053171
-6.310697 6.797523 2.942010 10053171
-3.045747 6.769777 2.274303 10053171
-6.419460 6.922731 1.508577 10053171
-6.306130 6.982911 0.989734 10053171
-5.170348 6.774936 1.216790 10053171
-3.952795 7.158101 0.933971 10053171
-6.424435 7.078712 0.846659 10053171
-6.220624 6.749309 2.100816 10053171
-3.521346 7.048749 0.967968 10053171
-5.339213 6.972616 2.311898 10053171
-4.498773 6.771992 0.619097 10053171
-5.580949 7.197222 0.179645 10053171
-3.608835 6.917913 1.824967 10053171
-6.986655 7.191629 2.075169 10053171
-6.211358 7.156091 1.953300 10053171
-4.699984 6.909911 0.457627 10053171
-5.541800 6.964242 1.773727 10053171
-6.747116 6.760924 1.269557 10053171
-5.562655 6.821311 1.509140 10053171
-6.409299 6.887730 2.034977 10053171
-5.969797 6.783587 1.066781 10053171
-5.790426 6.769691 2.073837 10053171
-5.546631 6.793920 1.572783 10053171
-3.368798 7.077135 2.638863 10053171
-5.052189 7.027045 0.346630 10053171
-4.191829 7.189927 0.558962 10053171
-5.042036 7.152553 0.825275 10053171
-6.402734 6.910577 2.857880 10053171
-6.853785 6.831885 2.531553 10053171
-6.719118 6.769055 0.434658 10053171
-3.249228 7.079713 1.589787 10053171
-6.029347 6.765934 2.608788 10053171
-4.049891 6.918206 1.558012 10053171
-6.729578 7.220829 0.619333 10053171
-6.918945 6.958423 2.984741 10053171
-4.482597 6.936098 1.927851 10053171
-4.899020 7.080384 2.525183 10053171
-3.952262 7.112705 0.791926 10053171
-4.124571 7.239282 0.480928 10053171
-3.908451 6.789212 1.149938 10053171
-3.464433 7.212650 2.483628 10053171
-3.382643 7.172413 0.177695 10053171
-3.165953 6.794342 0.450956 10053171
-4.780405 7.208193 1.112864 10053171
-6.905899 7.096639 0.569670 10053171
-6.252747 6.758516 1.887143 10053171
-6.631781 6.935767 0.624439 10053171
-6.339676 7.172913 1.715141 10053171
-6.404633 6.806535 1.114123 10053171
-4.966577 6.819293 0.320841 10053171
-5.286413 7.016562 1.135893 10053171
-6.015264 7.067340 1.251181 10053171
-3.179075 7.006692 2.077882 10053171
-4.533690 6.924226 0.164965 10053171
-6.048894 6.837205 0.171990 10053171
-3.639569 7.164955 0.317976 10053171
-3.338792 7.191533 2.589049 10053171
-4.026932 6.909782 2.661316 10053171
-4.113633 6.846508 2.985833 10053171
-5.543658 7.095136 1.933003 10053171
-4.330670 7.154356 0.738501 10053171
-4.247307 6.949773 0.593355 10053171
-3.617621 7.172750 0.604128 10053171
-3.729718 6.931973 0.909594 10053171
-4.652066 7.033040 0.615936 10053171
-4.174634 6.925625 0.200620 10053171
-6.554652 6.808764 2.371699 10053171
-4.724414 7.159208 0.516052 10053171
-5.173152 6.974394 1.449448 10053171
-6.446230 7.249202 1.326597 10053171
-6.986754 7.034392 2.112004 10053171
-6.611194 7.249500 1.474948 10053171
-5.043391 7.133654 2.902574 10053171
-4.716731 6.836389 0.734372 10053171
-4.294218 6.918228 1.302285 10053171
-5.448522 6.810289 2.063911 10053171
-4.017448 6.753965 2.825977 10053171
-5.957284 7.002061 1.415316 10053171
-6.746867 6.759401 0.256407 10053171
-3.271810 7.165576 2.701900 10053171
-5.108314 7.058719 1.716061 10053171
-5.856870 7.189684 0.495195 10053171
-6.254222 6.883986 1.074891 10053171
-6.932568 7.076121 1.627785 10053171
-5.757729 7.209595 2.552099 10053171
-6.210630 6.947328 2.031096 10053171
-3.801495 6.954856 1.355765 10053171
-5.705728 7.163654 0.876138 10053171
-3.113185 6.804624 0.981133 10053171
-3.895391 6.862127 1.119434 10053171
-5.333076 7.180206 1.634529 10053171
-3.510970 6.765499 0.857295 10053171
-4.681853 7.236303 1.581513 10053171
-3.652561 7.007009 2.213892 10053171
-4.583657 7.132492 2.710162 10053171
-4.905578 7.093902 2.088127 10053171
-6.899955 6.780188 2.377333 10053171
-3.414927 7.110554 0.872402 10053171
-5.530026 7.059141 2.927573 10053171
-4.837237 6.919823 0.670906 10053171
-4.603810 6.996222 2.163393 10053171
-6.914724 7.031522 2.200788 10053171
-3.643596 6.850928 1.208839 10053171
-4.324656 6.914165 0.816607 10053171
-6.435951 6.793140 2.087512 10053171
-6.040386 6.772686 2.076095 10053171
-4.837353 6.761659 0.959128 10053171
-3.722376 6.855175 0.005611 10053171
-4.877118 7.104930 2.471786 10053171
-3.766387 7.025059 2.488429 10053171
-5.161863 7.087479 1.529912 10053171
-6.236095 6.846770 1.614564 10053171
-6.684035 7.173938 2.924349 10053171
-3.927999 6.907272 0.942471 10053171
-6.237338 7.054237 0.950988 10053171
-4.901470 7.150468 1.504411 10053171
-3.271992 7.217428 0.915370 10053171
-6.352842 7.084658 1.848206 10053171
-5.706997 6.817157 1.325911 10053171
-3.573361 6.891501 0.409646 10053171
-5.644347 6.782285 2.111694 10053171
-4.308766 7.247877 0.442687 10053171
-3.208570 6.992411 1.451606 10053171
-3.108864 6.945079 1.822583 10053171
-4.068479 6.765180 0.905190 10053171
-4.281309 7.198075 1.315457 10053171
-3.099474 6.877539 0.285530 10053171
-3.994516 7.143656 1.426666 10053171
-5.448554 6.936085 1.057449 10053171
-3.991151 6.948587 0.370717 10053171
-3.782682 6.952294 0.156145 10053171
-5.732963 7.246287 1.847530 10053171
-5.686152 7.217781 1.776174 10053171
-6.036979 6.741185 2.390598 10053171
-3.611004 6.951694 0.824531 10053171
-5.219587 7.122579 1.178390 10053171
-5.141021 6.831419 2.476606 10053171
-4.279359 7.200364 0.626109 10053171
-6.978220 7.229615 0.062420 10053171
-4.012322 6.792657 1.105958 10053171
-4.063543 6.810511 1.860032 10053171
-5.402990 6.864964 2.742190 10053171
-3.286073 7.049493 1.525304 10053171
-3.328187 7.185148 0.001068 10053171
-3.242267 6.825969 1.501115 10053171
-4.658763 6.954927 1.547966 10053171
-4.968945 6.852175 0.131093 10053171
-6.793177 6.816169 1.562482 10053171
-5.555874 6.938325 0.137612 10053171
-6.911772 6.919349 1.429864 10053171
-4.204867 6.756834 1.324679 10053171
-6.366445 6.924578 0.215704 10053171
-3.357721 6.764548 2.842599 10053171
-4.102327 6.787790 1.416425 10053171
-4.751415 6.844167 1.922299 10053171
-6.164054 6.795306 0.131088 10053171
-5.184974 7.146697 1.833237 10053171
-6.260013 7.109810 2.246088 10053171
-5.134594 7.072823 1.380962 10053171
-6.463243 6.959172 1.298370 10053171
-5.466564 7.075963 0.278442 10053171
-4.938802 7.184862 1.813535 10053171
-3.847670 6.992912 1.625830 10053171
-5.405873 7.092232 2.721549 10053171
-5.703597 7.055968 2.981448 10053171
-6.845934 7.139918 0.775839 10053171
-4.918220 7.165941 1.115527 10053171
-6.966223 6.939450 0.286827 10053171
-6.738371 6.980155 1.038849 10053171
-4.317035 6.791457 1.948098 10053171
-4.003047 7.146110 0.075993 10053171
-3.099688 7.043779 1.328929 10053171
-3.857196 7.022145 0.422009 10053171
-3.116771 6.761477 1.717110 10053171
-3.467797 6.864602 0.326420 10053171
-6.638780 7.093108 1.214754 10053171
-4.091756 7.137117 0.737820 10053171
-3.783455 7.006433 2.079995 10053171
-3.794886 7.027441 1.243698 10053171
-4.638279 7.124178 2.659080 10053171
-4.601402 7.224830 2.346503 10053171
-6.243649 7.138996 0.871876 10053171
-3.074740 6.903974 0.028412 10053171
-4.374374 6.754992 0.506818 10053171
-5.196296 7.026787 2.862066 10053171
-5.352985 6.993603 2.465484 10053171
-3.680492 7.218926 1.082074 10053171
-4.841419 6.792645 0.063918 10053171
-4.737841 7.106904 0.913041 10053171
-4.072845 6.846321 1.511393 10053171
-3.559250 6.952513 0.989297 10053171
-6.963054 7.110769 0.900135 10053171
-3.891514 6.916246 1.384291 10053171
-3.579530 6.929846 2.715915 10053171
-5.492009 6.833071 2.587154 10053171
-5.404799 6.782148 2.416929 10053171
-3.044868 6.828555 2.937355 10053171
-6.144430 6.841596 2.056121 10053171
-4.427406 7.141930 0.771709 10053171
-4.533681 7.020485 0.703248 10053171
-3.203078 7.225981 2.718907 10053171
-5.875544 7.216003 2.535864 10053171
-4.228325 6.888183 2.135864 10053171
-3.189908 6.937543 0.507766 10053171
-4.998480 6.810118 1.847960 10053171
-3.739203 6.962946 0.095439 10053171
-4.316449 7.230539 0.537401 10053171
-6.192553 6.866646 1.539388 10053171
-3.868834 7.207651 0.603416 10053171
-5.445221 6.798356 1.453465 10053171
-3.209262 6.818221 2.174438 10053171
-3.451615 6.960039 0.330197 10053171
-3.953693 7.242367 2.062931 10053171
-6.184306 7.210673 0.268345 10053171
-6.576567 6.898249 0.544017 10053171
-4.609379 6.877804 1.240973 10053171
-5.144773 6.786183 0.006144 10053171
-5.450357 6.816207 0.518075 10053171
-3.780046 6.806381 0.398652 10053171
-5.358530 7.210840 0.684391 10053171
-3.184909 7.176970 1.380976 10053171
-4.947010 6.748768 2.551038 10053171
-6.755152 7.150539 1.615313 10053171
-4.810123 6.788790 1.164353 10053171
-4.068990 7.032638 1.636143 10053171
-4.082103 7.030260 1.631795 10053171
-3.474857 6.925629 2.902751 10053171
-4.096430 7.146411 2.893296 10053171
-6.631096 6.931482 1.749627 10053171
-5.194304 7.048045 1.689376 10053171
-5.114679 7.184438 2.150812 10053171
-4.513920 6.874937 0.031668 10053171
-5.340138 6.734978 2.579965 10053171
-5.168472 6.760139 1.373293 10053171
-4.075672 6.887365 0.708377 10053171
-4.395306 7.041231 1.061746 10053171
-5.235817 7.109467 0.704035 10053171
-3.742895 6.775984 1.905569 10053171
-3.651938 7.260656 2.730444 10053171
-3.368716 7.162015 0.986377 10053171
-4.064216 7.210151 2.638071 10053171
-3.098213 7.182357 2.878480 10053171
-3.587852 7.055869 1.673598 10053171
-5.313214 7.118631 0.107763 10053171
-3.934620 6.944165 2.295973 10053171
-6.413200 7.023957 2.557593 10053171
-3.123814 7.082259 2.796773 10053171
-4.852381 7.149796 0.121411 10053171
-5.897182 6.869010 0.154353 10053171
-4.284765 7.069646 0.558421 10053171
-4.633774 7.138490 0.011309 10053171
-6.619843 7.217820 1.386385 10053171
-6.055622 6.942658 0.109643 10053171
-5.829296 6.762094 2.903346 10053171
-4.462754 7.050334 2.841784 10053171
-5.624987 7.212714 2.547434 10053171
-3.115535 6.938168 0.576548 10053171
-5.749124 6.938764 0.623423 10053171
-4.083313 7.104166 1.539450 10053171
-4.703304 6.762602 1.672347 10053171
-4.992404 7.141132 1.213426 10053171
-4.440163 6.950119 0.508316 10053171
-5.276342 7.259830 0.306194 10053171
-3.858700 6.958991 0.834131 10053171
-4.248629 6.949219 2.668947 10053171
-5.245902 7.103415 1.712790 10053171
-3.027216 6.971013 0.242190 10053171
-5.438667 6.871301 1.045324 10053171
-6.591458 7.079947 2.707177 10053171
-5.122481 6.817069 1.637786 10053171
-3.038359 6.913792 0.760810 10053171
-6.566417 6.984733 1.178086 10053171
-3.077725 6.996211 0.210475 10053171
-6.256320 7.220548 1.910703 10053171
-3.670909 6.937199 1.339328 10053171
-4.167177 7.100898 0.216647 10053171
-3.846568 7.146073 1.784847 10053171
-4.189953 7.032284 1.335079 10053171
-3.102806 6.824040 0.720281 10053171
-5.605110 7.221428 0.120889 10053171
-5.674053 7.015741 2.783416 10053171
-4.811608 6.939081 1.805523 10053171
-5.937907 7.160349 2.034726 10053171
-3.307445 7.090491 0.976593 10053171
-6.494260 6.796911 0.725476 10053171
-6.585492 7.064780 1.911773 10053171
-3.746011 6.860981 0.026097 10053171
-4.636143 7.122961 2.011834 10053171
-5.615721 6.747616 2.682552 10053171
-3.977963 7.080433 0.438897 10053171
-3.919896 6.794911 1.627966 10053171
-5.370780 7.006598 0.781500 10053171
-4.829203 6.830928 1.740760 10053171
-5.787889 6.942768 1.076073 10053171
-6.628529 6.868637 0.164218 10053171
-4.504592 6.965475 1.705924 10053171
-3.710871 7.110094 2.783692 10053171
-5.699441 6.840333 0.070078 10053171
-5.663134 7.051013 0.388595 10053171
-4.244011 6.848464 0.846641 10053171
-5.864695 6.860734 2.065279 10053171
-4.907051 6.859862 2.915322 10053171
-3.172048 6.993151 2.020721 10053171
-3.607734 6.928719 1.082185 10053171
-4.809848 7.132037 2.850152 10053171
-4.532051 7.160731 1.483317 10053171
-3.450973 7.089336 1.064647 10053171
-3.155689 7.184223 0.495329 10053171
-5.424365 7.087874 0.831895 10053171
-6.652193 6.976641 2.582236 10053171
-3.298049 6.901535 2.373686 10053171
-5.832418 7.136262 2.046481 10053171
-4.672482 6.925871 1.461019 10053171
-4.298757 6.804499 2.096872 10053171
-3.019996 6.757437 2.466475 10053171
-3.051719 6.988648 1.049828 10053171
-4.382852 7.195704 0.293964 10053171
-5.478097 7.224678 2.297365 10053171
-5.593965 7.118669 1.111150 10053171
-3.862682 6.902754 1.859948 10053171
-4.677046 7.084157 2.929456 10053171
-4.744950 7.178948 2.681910 10053171
-6.272910 7.037989 1.597979 10053171
-3.119499 7.211529 0.312476 10053171
-4.507196 6.867655 2.805780 10053171
-3.046335 6.918589 1.115358 10053171
-4.456686 7.236187 2.832503 10053171
-5.020020 6.931072 2.702409 10053171
-3.212404 6.971443 0.499875 10053171
-5.988329 6.826094 0.786362 10053171
-4.700479 7.152119 0.318947 10053171
-3.017878 7.071555 0.552845 10053171
-5.449928 6.902907 1.105857 10053171
-3.915604 6.826271 0.626247 10053171
-6.076145 6.961391 2.708498 10053171
-3.294811 6.923826 0.544166 10053171
-5.749383 6.748167 2.854045 10053171
-4.197951 6.847095 0.634325 10053171
-6.610796 7.011880 2.937567 10053171
-6.916620 7.238967 2.512553 10053171
-6.912536 7.210678 0.738002 10053171
-5.269283 7.005092 2.449921 10053171
-5.220317 6.944952 1.272242 10053171
-3.174070 7.159659 1.899911 10053171
-6.387065 6.957461 1.709804 10053171
-4.062680 6.875652 0.148637 10053171
-3.500195 6.899609 0.004365 10053171
-6.104068 6.883253 1.889612 10053171
-3.119530 7.065491 0.787733 10053171
-3.562750 7.025697 2.724365 10053171
-4.250261 7.044919 2.610676 10053171
-3.447739 6.922738 2.416326 10053171
-5.089100 6.877464 2.884885 10053171
-4.439907 7.122450 1.063379 10053171
-6.593161 6.842012 2.025379 10053171
-3.813241 6.862598 2.272670 10053171
-3.549628 6.976051 1.034669 10053171
-4.272356 6.765227 0.878307 10053171
-3.848604 7.019348 0.992035 10053171
-5.355315 6.980926 2.077201 10053171
-3.240990 6.829709 0.508613 10053171
-3.387862 7.255821 0.623063 10053171
-6.378797 6.767407 1.220525 10053171
-5.832744 7.215605 1.590594 10053171
-3.781450 6.894450 0.806279 10053171
-6.567598 6.867155 1.595026 10053171
-4.366907 6.795919 0.978693 10053171
-5.672502 6.914100 0.054588 10053171
-4.415865 7.021088 1.186367 10053171
-4.186407 6.899052 2.128019 10053171
-3.253447 7.170005 1.297663 10053171
-3.726634 7.215569 2.652055 10053171
-5.875767 6.807782 0.037709 10053171
-5.671755 6.797408 1.551628 10053171
-4.941612 6.960244 2.466164 10053171
-6.079392 7.055112 1.104111 10053171
-6.762681 7.235596 2.092289 10053171
-5.434789 6.862072 1.229078 10053171
-6.173334 6.909806 2.903996 10053171
-5.557764 6.767256 2.408497 10053171
-4.520142 7.177979 1.520871 10053171
-5.316103 6.882339 0.632093 10053171
-6.030050 7.243627 1.485484 10053171
-3.529888 6.841762 2.516039 10053171
-5.683350 6.939059 2.286144 10053171
-6.053504 6.994784 1.450417 10053171
-6.566796 6.876861 1.252523 10053171
-6.782198 7.072494 2.620284 10053171
-6.557797 6.864576 1.844228 10053171
-6.061784 6.997064 2.792539 10053171
-4.234414 7.188966 2.771009 10053171
-4.885895 7.061009 2.193680 10053171
-4.871052 7.127920 0.061769 10053171
-4.087969 6.829255 1.564022 10053171
-7.002219 7.238675 0.319681 10053171
-5.474056 7.162669 0.035947 10053171
-3.502974 6.818900 0.730436 10053171
-6.067910 6.800652 0.910739 10053171
-3.535194 6.814392 2.841491 10053171
-3.537443 7.177282 0.924313 10053171
-5.211162 6.816431 2.963967 10053171
-6.940596 6.866140 2.343416 10053171
-4.343109 6.864388 0.580374 10053171
-4.560757 6.864177 0.863276 10053171
-3.499675 6.818651 0.311471 10053171
-6.440134 6.994602 1.150170 10053171
-5.298421 7.224072 1.681413 10053171
-4.225444 7.167577 1.726071 10053171
-5.743980 7.125915 0.929749 10053171
-4.625041 6.933707 2.943228 10053171
-5.855050 7.042029 1.049346 10053171
-5.186864 7.138015 0.289243 10053171
-4.817378 6.863923 2.741083 10053171
-3.343280 6.982965 0.790504 10053171
-3.923091 7.012864 1.805948 10053171
-5.796159 7.000526 1.300523 10053171
-3.327696 6.962272 1.652540 10053171
-2.978686 7.204844 0.807763 10053171
-3.214308 7.237679 2.787951 10053171
-3.164856 7.189791 2.285764 10053171
-6.069087 6.911721 2.252152 10053171
-6.813180 7.057112 2.076123 10053171
-4.069754 6.802619 1.170800 10053171
-3.199156 7.220388 1.678247 10053171
-6.922251 7.154582 1.476864 10053171
-4.307158 6.922886 1.103873 10053171
-5.290262 7.041267 0.106325 10053171
-6.795917 7.152705 2.868314 10053171
-4.227122 6.824134 2.433951 10053171
-3.450475 7.034053 2.663034 10053171
-3.060638 6.796483 1.139609 10053171
-3.501877 7.223306 0.552328 10053171
-3.452468 6.937695 2.299463 10053171
-4.109831 7.071975 2.688553 10053171
-3.738875 7.054501 2.917891 10053171
-5.755603 6.922626 0.480150 10053171
-4.746198 7.115283 1.560950 10053171
5.880774 -5.983464 1.137680 8342706
6.127052 -5.711997 1.804181 8342706
5.439064 -6.104114 3.659378 8342706
6.167204 -6.482869 0.560671 8342706
5.463458 -6.230179 3.045647 8342706
6.195386 -6.460072 4.096368 8342706
6.365478 -6.042232 4.906458 8342706
6.221342 -5.635381 0.310030 8342706
5.997131 -6.178354 3.998579 8342706
6.176377 -5.987710 0.469941 8342706
5.587880 -5.661481 1.989612 8342706
6.162099 -6.411559 3.310880 8342706
6.543309 -5.794124 4.818584 8342706
6.045166 -5.613068 2.392465 8342706
6.478855 -5.966603 1.320225 8342706
6.100310 -6.228510 2.936915 8342706
6.560086 -5.867920 0.281145 8342706
6.327488 -6.420158 2.971358 8342706
6.309754 -5.528363 2.205825 8342706
6.474471 -6.375228 2.677320 8342706
6.202066 -6.100590 2.963750 8342706
6.274035 -5.581786 2.055114 8342706
5.613413 -6.278781 3.538081 8342706
5.802176 -5.555057 0.210316 8342706
5.641989 -5.766547 0.520226 8342706
6.506853 -5.794030 1.410201 8342706
6.031927 -5.423636 0.788494 8342706
6.229453 -6.299526 1.500266 8342706
6.442101 -6.162177 1.602846 8342706
6.532963 -6.028471 3.483258 8342706
5.604247 -6.168026 3.384860 8342706
5.845973 -6.181373 4.700596 8342706
5.783592 -5.548672 2.041065 8342706
6.309513 -5.773563 2.904422 8342706
6.265137 -5.937474 3.545006 8342706
5.461702 -6.104370 0.550568 8342706
6.383556 -5.803427 1.991968 8342706
5.919923 -5.783359 1.714160 8342706
5.736979 -5.856809 3.157612 8342706
5.669296 -6.170140 1.858449 8342706
5.828525 -5.533453 0.789080 8342706
6.466924 -6.076899 0.411510 8342706
5.998419 -6.127177 4.306056 8342706
5.583297 -6.190690 4.544096 8342706
5.736498 -5.748451 4.142957 8342706
5.738106 -5.922468 3.111198 8342706
6.026577 -5.983614 1.441942 8342706
6.413462 -6.297497 1.998141 8342706
5.670700 -5.743072 3.088731 8342706
6.277474 -6.083237 3.905905 8342706
5.412285 -5.995459 4.576394 8342706
5.955898 -5.468895 4.492594 8342706
5.504712 -5.975392 3.225042 8342706
6.410128 -5.955698 1.925277 8342706
6.167586 -6.489194 4.299376 8342706
6.381544 -5.884760 1.227530 8342706
5.414260 -5.973740 2.345002 8342706
5.515921 -5.758078 4.327576 8342706
6.446853 -5.993849 2.995936 8342706
6.113925 -5.652982 4.855602 8342706
6.276906 -5.868136 2.107815 8342706
5.822864 -5.474832 2.083315 8342706
5.881302 -6.342085 3.533549 8342706
5.991854 -5.501784 3.505489 8342706
5.756368 -6.032349 4.520275 8342706
5.849827 -6.082477 1.752453 8342706
6.165392 -5.751890 2.004722 8342706
6.157966 -6.286425 1.945125 8342706
5.775777 -6.224084 1.532100 8342706
5.601103 -6.253574 1.066582 8342706
5.854021 -6.376406 1.245449 8342706
5.973162 -5.951621 3.034219 8342706
6.067121 -6.111546 4.757901 8342706
5.784050 -5.809007 0.622788 8342706
5.725664 -6.073210 2.503197 8342706
5.943499 -5.981719 3.162211 8342706
5.481908 -6.197112 1.915586 8342706
6.106746 -5.591474 0.144901 8342706
6.442453 -5.923000 1.214904 8342706
6.567657 -6.062026 3.871946 8342706
6.016262 -6.194205 3.285414 8342706
5.559982 -5.662323 1.990876 8342706
6.106271 -6.289773 4.473106 8342706
6.100996 -5.596088 4.616557 8342706
6.449202 -5.690698 0.215443 8342706
5.965239 -6.158103 2.695900 8342706
6.227963 -5.989507 2.430907 8342706
5.490237 -6.168934 3.684112 8342706
6.075854 -6.312361 2.002100 8342706
5.888391 -6.333372 1.021241 8342706
6.158321 -6.408284 4.421152 8342706
5.574520 -5.927883 3.871892 8342706
5.692430 -6.391374 2.514964 8342706
6.120581 -6.491933 1.418653 8342706
5.833693 -5.878034 4.548533 8342706
5.598788 -5.772136 2.348068 8342706
6.454479 -5.834173 2.599455 8342706
6.105288 -6.427995 0.602533 8342706
5.568347 -6.127072 1.884066 8342706
6.305733 -6.059718 1.875043 8342706
6.565162 -6.053354 3.638862 8342706
5.672257 -6.360341 0.597930 8342706
5.685486 -6.447658 0.787021 8342706
6.227029 -6.014407 2.569361 8342706
5.669433 -6.033994 3.296146 8342706
5.781932 -5.580282 4.716976 8342706
5.773928 -6.247057 4.035451 8342706
5.637598 -5.829063 1.232451 8342706
6.417027 -5.946915 4.445807 8342706
5.808811 -5.608619 3.503553 8342706
6.027287 -5.814475 0.942934 8342706
6.161431 -6.370831 1.771321 8342706
6.140544 -5.817817 1.598203 8342706
5.970354 -5.758480 4.080079 8342706
6.035192 -6.208447 4.609276 8342706
5.781951 -6.165433 0.246630 8342706
5.891717 -5.634178 1.688403 8342706
6.201268 -5.632119 3.854376 8342706
5.692167 -5.981683 3.116739 8342706
5.813595 -6.187449 2.620136 8342706
5.696811 -5.844621 2.900198 8342706
5.620247 -6.252121 3.718733 8342706
5.886700 -6.568125 1.062417 8342706
6.114059 -5.804027 1.650249 8342706
6.295247 -6.311081 0.543873 8342706
6.342093 -5.698495 2.301602 8342706
6.142410 -5.585422 3.086716 8342706
5.657913 -5.702703 1.210639 8342706
6.012742 -5.717296 3.683872 8342706
6.212339 -6.033921 4.406005 8342706
6.502358 -6.118307 2.683985 8342706
6.339849 -6.141564 3.360964 8342706
5.702103 -6.308415 4.673303 8342706
6.277669 -5.536954 4.645526 8342706
5.989161 -6.219112 3.559257 8342706
5.754296 -5.662618 2.593467 8342706
6.078337 -6.568076 4.475944 8342706
5.536017 -5.751820 4.264561 8342706
5.530724 -6.160671 2.891174 8342706
6.106029 -5.623177 2.488756 8342706
5.686063 -5.890090 4.041844 8342706
5.865211 -5.428372 3.055901 8342706
6.491498 -5.816098 0.117941 8342706
6.062735 -5.451118 0.417699 8342706
6.366368 -5.728954 0.064002 8342706
6.042922 -5.764031 0.509485 8342706
5.647337 -5.695186 3.086452 8342706
6.352262 -6.223743 1.514444 8342706
6.134107 -5.799332 2.492885 8342706
5.772725 -6.140771 1.623059 8342706
5.991745 -6.209618 0.124629 8342706
5.847652 -6.062821 3.754596 8342706
5.738994 -6.175237 3.365888 8342706
6.301842 -6.216297 4.609050 8342706
6.324977 -6.439434 3.393255 8342706
6.039578 -6.542516 4.191173 8342706
6.011473 -5.658772 4.231595 8342706
5.689576 -5.606548 4.233772 8342706
6.194351 -5.862546 1.890000 8342706
5.505410 -6.246409 4.649134 8342706
5.924197 -6.329139 4.701317 8342706
6.059452 -6.432278 1.310337 8342706
6.132214 -5.621420 2.030002 8342706
5.963192 -6.205559 1.698730 8342706
6.013704 -6.024439 4.522160 8342706
6.099792 -5.617080 1.125205 8342706
6.140039 -6.313299 1.569412 8342706
5.740957 -5.748796 0.129883 8342706
6.350021 -6.159976 3.029712 8342706
6.097736 -5.571946 2.651853 8342706
6.254141 -5.866137 1.002859 8342706
5.605408 -6.083624 1.903545 8342706
5.711902 -5.675777 2.254233 8342706
5.792438 -5.657153 2.615729 8342706
5.522549 -5.940974 3.598987 8342706
5.988950 -5.828740 1.869173 8342706
5.712563 -5.883450 1.475146 8342706
5.735661 -6.264956 2.823134 8342706
6.009546 -6.333296 4.885067 8342706
5.977264 -6.432674 4.837189 8342706
6.093797 -5.598639 3.838368 8342706
5.636426 -5.574148 2.018365 8342706
6.542404 -6.028691 4.243919 8342706
5.657732 -5.584517 1.918276 8342706
6.081515 -6.446518 1.668879 8342706
5.627728 -6.228925 1.861261 8342706
6.311342 -5.913552 3.517742 8342706
6.481655 -5.816239 3.848658 8342706
6.442889 -6.110234 3.872358 8342706
6.142008 -5.860944 3.347984 8342706
6.162414 -6.392227 1.005754 8342706
5.658685 -6.147739 3.354343 8342706
6.509330 -6.305446 0.126159 8342706
6.391397 -6.081347 4.956517 8342706
5.424292 -5.918828 3.773625 8342706
6.508615 -6.028393 0.222786 8342706
6.262978 -5.661131 3.723532 8342706
6.100329 -6.001084 2.443191 8342706
6.268566 -5.996408 0.701084 8342706
6.430725 -5.970201 2.425524 8342706
6.090661 -6.502592 2.775864 8342706
6.409502 -6.093625 1.384433 8342706
6.191163 -5.637959 1.073895 8342706
6.255616 -5.580927 4.334535 8342706
6.160181 -6.464211 0.744798 8342706
5.638580 -6.062896 3.181092 8342706
6.556448 -5.796550 1.091461 8342706
6.145576 -5.782967 2.599232 8342706
6.005939 -6.077372 2.533004 8342706
6.382228 -5.678974 1.815173 8342706
5.966120 -6.084768 3.854658 8342706
6.485898 -6.021208 1.586628 8342706
5.504117 -6.274450 0.734112 8342706
5.813862 -6.351398 4.980962 8342706
6.485417 -5.777025 3.974764 8342706
6.222137 -6.020360 0.134473 8342706
6.267479 -5.837235 3.567976 8342706
6.496253 -6.070336 4.566742 8342706
5.934218 -6.055405 3.127464 8342706
6.401290 -6.267208 1.793040 8342706
6.034569 -5.441913 1.973987 8342706
5.403092 -5.961233 4.253035 8342706
6.087282 -6.063202 2.982829 8342706
6.242416 -5.933797 3.243290 8342706
5.651948 -6.177165 3.365270 8342706
6.155881 -6.365568 4.410111 8342706
6.111645 -5.522737 4.132743 8342706
5.913648 -5.847929 2.910322 8342706
5.427903 -6.098574 2.055039 8342706
6.289633 -6.429020 4.860398 8342706
5.618046 -6.389429 2.938602 8342706
6.324839 -6.316975 2.362276 8342706
6.422412 -5.794698 1.053454 8342706
6.450943 -5.889284 2.265145 8342706
5.992049 -5.522171 2.063198 8342706
6.211367 -5.758944 0.452953 8342706
5.900494 -6.292256 1.565991 8342706
6.398841 -5.764791 2.445313 8342706
6.363764 -5.512083 4.096084 8342706
6.459343 -6.158818 1.478594 8342706
6.148532 -5.811180 3.254075 8342706
5.710658 -6.393977 3.097097 8342706
6.257996 -5.546267 4.465896 8342706
6.027608 -5.890478 0.772773 8342706
5.604782 -6.369084 4.392211 8342706
5.589294 -5.735085 4.247029 8342706
6.216506 -5.848177 1.386837 8342706
5.736169 -5.795706 1.048666 8342706
5.864534 -6.104334 0.621232 8342706
6.180491 -5.455022 1.194845 8342706
6.283130 -5.517538 1.162609 8342706
5.641739 -6.245953 4.282064 8342706
5.922704 -6.041271 4.930882 8342706
6.201271 -5.573411 3.771470 8342706
5.632075 -6.048410 4.284447 8342706
6.085912 -6.561591 4.287906 8342706
5.691266 -5.740376 3.961230 8342706
5.554617 -6.079724 3.762082 8342706
6.206590 -6.434742 1.045105 8342706
6.558677 -5.953670 0.477334 8342706
5.978627 -5.547801 2.928441 8342706
6.191005 -6.394837 1.661480 8342706
5.519908 -6.213781 3.915807 8342706
5.615948 -6.449654 2.809555 8342706
5.809228 -5.522568 2.252343 8342706
6.531488 -6.239096 2.066234 8342706
6.047350 -6.373830 0.534849 8342706
5.458789 -5.861214 2.598378 8342706
5.836449 -5.664667 2.535171 8342706
6.307175 -6.094000 0.215990 8342706
6.056787 -5.612866 4.356351 8342706
6.507410 -6.288700 4.454964 8342706
5.808072 -6.389371 4.399145 8342706
5.460664 -5.776222 4.333946 8342706
5.947403 -5.488868 1.485063 8342706
6.539369 -6.218348 4.010750 8342706
6.410605 -6.154674 1.426064 8342706
5.818088 -6.182329 3.738416 8342706
6.102196 -6.327803 1.931641 8342706
5.554031 -5.636548 3.397573 8342706
5.773269 -6.449693 3.537292 8342706
5.515474 -5.703425 3.915397 8342706
6.171239 -5.569073 0.051537 8342706
6.359735 -5.959315 2.647446 8342706
6.386999 -6.089707 1.729919 8342706
5.777727 -5.794275 3.233787 8342706
6.026643 -5.814037 3.175550 8342706
6.327811 -6.045677 2.042115 8342706
6.373701 -5.832890 2.214514 8342706
6.054659 -5.803515 0.107088 8342706
5.835621 -6.059633 0.115736 8342706
6.215896 -6.461742 0.896839 8342706
6.354187 -6.450797 0.731404 8342706
6.141082 -6.374717 4.232236 8342706
5.861602 -6.520828 1.824163 8342706
5.628152 -5.904417 0.987257 8342706
5.762299 -5.661118 2.693504 8342706
6.209110 -5.721789 0.389717 8342706
6.084107 -5.413081 2.080526 8342706
6.012296 -6.504589 1.066564 8342706
6.252482 -5.546506 1.285966 8342706
6.446743 -5.677805 3.607029 8342706
6.493842 -6.256451 0.310680 8342706
5.771423 -5.920986 4.014208 8342706
6.171777 -6.122148 1.751493 8342706
6.108369 -6.225733 3.235487 8342706
5.588315 -6.248259 3.682116 8342706
6.537758 -6.141512 1.839974 8342706
6.248064 -6.231568 1.673851 8342706
5.564575 -5.800409 2.484090 8342706
6.389019 -6.397907 2.018077 8342706
6.111781 -6.205092 3.583006 8342706
6.148885 -6.596319 4.280602 8342706
6.447548 -6.388159 3.701113 8342706
6.123234 -5.543262 2.016688 8342706
6.087928 -5.452425 0.903798 8342706
6.124487 -6.433852 1.173034 8342706
5.689507 -6.069588 0.145422 8342706
5.828937 -5.625230 2.625903 8342706
5.799339 -6.386496 2.627603 8342706
6.098714 -5.496789 3.481635 8342706
5.755253 -6.266726 3.369296 8342706
6.328969 -6.329229 1.083084 8342706
5.805356 -6.534103 4.764754 8342706
6.243052 -5.680636 4.899448 8342706
6.019513 -6.482076 1.859772 8342706
5.697919 -5.763036 0.300233 8342706
6.296646 -5.532491 4.302155 8342706
5.599984 -5.868714 4.358893 8342706
6.230176 -5.563172 0.495691 8342706
6.284801 -6.352139 4.031415 8342706
6.193165 -6.540410 0.559426 8342706
6.179870 -5.869864 1.009712 8342706
6.459862 -6.151587 2.778699 8342706
6.039210 -6.407295 3.726703 8342706
5.992402 -5.554882 2.043293 8342706
6.440283 -6.204788 3.299667 8342706
6.115840 -5.456658 0.253263 8342706
5.485765 -5.711853 4.390393 8342706
6.146430 -6.341630 1.650168 8342706
6.424016 -5.588688 1.853007 8342706
5.884187 -6.114227 0.924577 8342706
6.353547 -5.614767 3.702960 8342706
5.621318 -6.138219 3.756249 8342706
6.527969 -5.919950 1.182158 8342706
5.729444 -5.990534 2.442047 8342706
6.233861 -6.329609 2.955291 8342706
5.715614 -6.372137 4.082308 8342706
6.052004 -6.288455 3.902056 8342706
6.388194 -5.535248 4.947352 8342706
6.527781 -6.262235 4.670353 8342706
6.024225 -5.923359 3.878472 8342706
6.168224 -6.372324 4.334049 8342706
5.739575 -6.183330 1.991753 8342706
6.445906 -5.867126 2.096127 8342706
6.442163 -5.979691 2.201214 8342706
5.861253 -5.417874 1.073323 8342706
6.484859 -5.800848 0.285588 8342706
5.837053 -5.459112 1.386413 8342706
6.228674 -5.703248 4.835009 8342706
5.976357 -5.648019 1.246043 8342706
6.491842 -5.812996 2.248496 8342706
5.773206 -6.235355 3.707397 8342706
6.262547 -6.195039 1.526717 8342706
5.976475 -6.418082 3.985770 8342706
6.010087 -5.833316 2.271693 8342706
6.158067 -6.057215 4.100190 8342706
6.158691 -6.407363 4.338460 8342706
6.295165 -5.592811 4.755116 8342706
6.339954 -5.824704 3.598873 8342706
5.990877 -5.781898 3.166636 8342706
6.539325 -5.876442 3.047037 8342706
6.261865 -5.871183 2.836714 8342706
6.295336 -6.330008 1.998601 8342706
5.755515 -5.695786 3.600883 8342706
5.717045 -5.728501 3.083573 8342706
6.265370 -5.995728 1.445789 8342706
6.383859 -6.255174 1.087734 8342706
5.837042 -5.585620 2.970000 8342706
5.514194 -5.913896 0.120774 8342706
5.639587 -5.663839 0.453213 8342706
5.622671 -5.569966 2.872909 8342706
5.995037 -5.521464 2.116878 8342706
5.524000 -6.094074 1.875303 8342706
6.131145 -5.491947 3.476713 8342706
5.422080 -5.904819 4.614150 8342706
5.453554 -5.793795 2.922856 8342706
6.207624 -6.305354 1.850001 8342706
5.580158 -6.405584 0.844469 8342706
5.887621 -6.513735 1.625276 8342706
6.085468 -6.334271 3.416061 8342706
5.954771 -6.488915 4.601954 8342706
6.362343 -6.185334 0.798559 8342706
6.487669 -6.316901 1.432978 8342706
6.575308 -5.896082 3.408363 8342706
5.566321 -6.072059 1.098785 8342706
6.296019 -6.268689 1.957043 8342706
6.162554 -6.293556 2.934578 8342706
6.052933 -6.529360 4.950043 8342706
5.991689 -6.449691 0.617707 8342706
6.290358 -5.772041 1.747081 8342706
6.380839 -5.933476 1.311221 8342706
6.233734 -6.396305 0.491492 8342706
6.293580 -6.130689 2.909236 8342706
6.494377 -6.129441 0.078461 8342706
6.086194 -5.660749 1.220777 8342706
6.496983 -6.283993 4.319710 8342706
6.455359 -5.638945 4.794705 8342706
6.505901 -6.171708 3.618413 8342706
6.318366 -6.334773 1.597623 8342706
5.738860 -6.298185 0.440092 8342706
6.161695 -5.573488 2.705241 8342706
6.247363 -6.029593 3.849415 8342706
6.331875 -5.832746 0.396914 8342706
6.206638 -5.848403 3.948117 8342706
5.781593 -6.405048 3.294818 8342706
6.419698 -6.223586 -0.001300 8342706
6.354328 -5.763005 1.355044 8342706
6.294771 -6.017242 4.217613 8342706
6.358399 -6.065197 2.018606 8342706
5.761485 -5.560481 4.382190 8342706
5.844757 -6.036697 0.870440 8342706
6.045935 -5.734830 4.178267 8342706
5.529151 -5.743531 4.003506 8342706
6.456999 -6.126853 1.761306 8342706
6.285879 -6.448197 1.706150 8342706
6.282119 -6.206445 4.621023 8342706
5.547241 -6.320221 1.239764 8342706
5.999978 -6.239712 3.461866 8342706
6.250861 -5.572614 3.774939 8342706
6.020321 -6.577296 3.656086 8342706
5.929971 -6.037017 1.737367 8342706
5.821404 -5.653531 2.759757 8342706
6.181032 -6.314294 0.922757 8342706
6.178787 -5.987933 3.904641 8342706
6.117047 -6.295281 1.990988 8342706
5.750678 -6.135042 1.027197 8342706
6.574506 -5.994165 1.753455 8342706
5.721453 -6.092391 4.319375 8342706
6.467530 -5.771639 1.011296 8342706
5.560747 -5.874922 0.769592 8342706
6.320165 -6.016315 4.996191 8342706
6.163539 -6.566644 4.112092 8342706
6.087055 -6.400740 4.707425 8342706
6.012662 -5.837303 1.403330 8342706
6.512479 -6.150156 4.981282 8342706
6.152255 -6.067877 1.665872 8342706
5.819526 -5.969554 2.077996 8342706
5.745925 -5.950632 3.040265 8342706
6.497137 -6.242802 4.092896 8342706
5.492669 -5.858990 3.599042 8342706
6.181137 -6.090776 0.992413 8342706
5.864716 -6.247278 1.909593 8342706
5.946013 -5.636186 2.390694 8342706
6.308037 -6.262249 0.092291 8342706
5.817094 -5.573991 4.544854 8342706
5.990311 -5.469179 4.062101 8342706
5.795428 -5.445512 3.565459 8342706
6.405116 -6.346380 1.555351 8342706
5.504676 -6.018810 4.722341 8342706
6.068007 -6.518873 0.143504 8342706
6.526754 -5.964540 1.492490 8342706
6.365120 -5.556753 3.382218 8342706
5.764853 -5.878660 0.818937 8342706
6.017953 -5.992242 0.890593 8342706
5.636899 -5.937994 2.205801 8342706
5.736176 -5.622608 2.267138 8342706
5.790093 -6.108716 3.544687 8342706
6.325341 -5.515491 1.118811 8342706
5.652996 -5.776103 4.832320 8342706
5.890887 -5.805784 0.069468 8342706
5.625327 -6.462768 2.440615 8342706
5.868367 -6.467336 3.631809 8342706
6.048532 -6.587236 0.590982 8342706
6.035794 -5.722483 1.744843 8342706
6.108320 -5.923824 1.775998 8342706
6.154032 -5.783103 4.141226 8342706
5.465616 -6.282815 4.956701 8342706
6.570883 -5.856194 2.138909 8342706
6.223953 -6.450894 3.899421 8342706
6.247232 -5.721633 2.529432 8342706
6.240223 -6.383810 2.398181 8342706
6.071590 -5.642677 4.492376 8342706
5.625853 -6.303972 3.461981 8342706
5.986833 -6.447078 2.703747 8342706
6.589002 -6.091080 0.463657 8342706
5.717976 -5.662775 4.783468 8342706
6.306038 -5.778832 0.285089 8342706
5.933086 -5.735142 4.696407 8342706
6.065815 -5.562178 2.429443 8342706
6.335721 -5.931681 1.881472 8342706
5.865666 -6.328691 3.440836 8342706
6.089072 -5.719088 4.212023 8342706
6.471964 -5.821916 0.474311 8342706
6.390159 -5.783918 4.632013 8342706
6.234427 -6.063203 2.755578 8342706
6.306891 -6.233132 0.703927 8342706
5.444031 -6.026584 2.423556 8342706
5.698193 -5.937219 4.319780 8342706
6.271048 -5.901284 4.808569 8342706
6.289930 -5.575395 1.377698 8342706
5.818007 -6.252609 4.060881 8342706
6.436229 -5.701812 4.610947 8342706
5.864449 -5.501818 4.359550 8342706
5.658719 -5.835991 0.495409 8342706
6.421495 -5.824212 3.496864 8342706
6.354935 -5.727195 0.648915 8342706
5.678843 -6.090486 0.742712 8342706
