# .PCD v0.7 - Point Cloud Data file format
VERSION 0.7
FIELDS x y z rgb
SIZE 4 4 4 4
TYPE F F F U
COUNT 1 1 1 1
WIDTH 1287
HEIGHT 1
VIEWPOINT 0 0 0 1 0 0 0
POINTS 1287
DATA ascii
3.869099 18.959597 1.630123 15014169
3.748985 19.491028 0.599517 15014169
3.446266 19.168125 0.626352 15014169
4.005956 19.023569 1.339123 15014169
3.705978 19.012526 1.351707 15014169
3.457889 19.490017 1.631023 15014169
4.067944 19.152107 0.346565 15014169
4.105309 19.105469 1.293679 15014169
3.663984 18.903927 1.503868 15014169
3.849396 19.414009 1.062504 15014169
4.034293 19.521849 0.303630 15014169
3.468277 19.032919 0.478855 15014169
3.922767 19.135891 1.542260 15014169
3.528711 19.170923 0.342193 15014169
3.904592 19.197142 0.484128 15014169
4.038305 19.521362 0.413784 15014169
3.452030 19.190971 1.126434 15014169
3.641875 19.346321 0.591863 15014169
3.786682 19.271198 0.914238 15014169
3.513570 19.007332 0.500162 15014169
3.625820 19.043539 1.041985 15014169
3.807456 19.183323 0.736407 15014169
3.797997 19.479624 1.483287 15014169
3.481579 19.083853 0.848562 15014169
3.889100 19.355629 0.928919 15014169
3.699237 19.430264 1.048604 15014169
4.054071 18.894255 0.804375 15014169
4.069960 19.359064 1.548091 15014169
3.612856 19.376461 0.588761 15014169
3.782637 19.045551 0.917716 15014169
3.968675 19.093046 1.143688 15014169
3.722899 19.527628 1.212355 15014169
3.864329 19.131779 1.022621 15014169
3.428388 18.940912 1.583345 15014169
3.448619 19.504839 1.292159 15014169
3.844090 19.404501 0.504732 15014169
3.993159 19.370707 1.048171 15014169
3.762813 19.209278 0.921613 15014169
3.984706 19.068935 0.382753 15014169
4.081297 19.191729 1.353975 15014169
3.877189 19.252626 0.492532 15014169
3.584613 19.183987 1.088778 15014169
3.968264 19.104334 0.863082 15014169
4.045628 19.453856 0.459112 15014169
3.524516 19.333651 1.108798 15014169
4.093378 19.411711 1.429003 15014169
3.570779 19.239502 1.169263 15014169
3.403801 19.253168 0.931147 15014169
3.661190 19.067350 1.537492 15014169
3.443618 19.111698 0.714117 15014169
4.080276 18.893427 0.944900 15014169
3.642596 19.359184 1.278859 15014169
3.891721 19.492350 1.633832 15014169
3.475320 18.950920 0.344514 15014169
4.060142 19.568008 0.825743 15014169
3.461723 18.948872 1.547323 15014169
3.738375 19.028164 1.167651 15014169
3.955063 19.203970 0.351355 15014169
3.682532 19.479849 0.449340 15014169
3.494928 19.440006 0.476726 15014169
3.502135 19.045689 0.708372 15014169
3.641809 19.441843 0.655525 15014169
3.486964 18.962730 0.793764 15014169
3.559646 19.461035 1.148935 15014169
3.609196 19.576136 0.878823 15014169
4.040087 19.088371 0.729826 15014169
4.088040 18.935411 1.520782 15014169
4.084789 19.107674 1.582755 15014169
4.041340 19.578157 0.464277 15014169
3.840922 19.446228 1.323425 15014169
4.004885 18.891171 1.633293 15014169
3.534032 18.912842 1.688615 15014169
3.539553 19.463453 0.327847 15014169
3.435724 18.934635 1.193627 15014169
3.578328 19.173342 1.651151 15014169
3.549115 19.035027 0.992780 15014169
3.612756 19.256458 0.928473 15014169
3.655359 18.889572 1.377475 15014169
4.034637 19.133139 0.967847 15014169
3.462430 19.401335 0.619087 15014169
3.501179 18.987505 0.574424 15014169
3.922074 19.162079 1.275606 15014169
3.495893 19.028273 1.455195 15014169
3.415814 19.039923 1.472180 15014169
3.884583 19.073196 1.449274 15014169
3.528866 19.254622 1.136671 15014169
4.078773 19.351957 0.794166 15014169
3.768464 19.030825 1.683154 15014169
3.698329 18.939573 1.651194 15014169
4.017665 19.245604 0.337966 15014169
3.991601 19.507029 1.178301 15014169
3.607338 19.532463 0.312854 15014169
3.632724 19.107145 1.491336 15014169
3.418381 19.329165 1.084790 15014169
3.649237 18.933073 0.479790 15014169
3.863053 18.910717 0.389950 15014169
3.723436 19.246017 0.331990 15014169
3.800596 18.953911 0.473436 15014169
3.879914 19.096992 1.392089 15014169
-1.610947 -15.491383 0.486212 1645029
-1.570624 -15.203109 1.240693 1645029
-2.118410 -15.710729 1.044142 1645029
-1.903471 -15.470195 1.017499 1645029
-1.775973 -15.390590 1.198939 1645029
-1.858618 -15.405000 1.483186 1645029
-1.855647 -15.382230 0.628859 1645029
-1.967149 -15.254867 1.270074 1645029
-1.709218 -15.443307 0.946892 1645029
-1.761630 -15.867307 0.618316 1645029
-1.256106 -15.595561 1.071234 1645029
-1.457670 -15.864187 1.270809 1645029
-1.959143 -15.608343 0.623984 1645029
-1.320895 -15.730037 1.225489 1645029
-1.910742 -15.568856 0.842363 1645029
-2.092133 -15.301295 1.140664 1645029
-2.207150 -15.816947 0.950445 1645029
-1.592817 -15.197539 1.155976 1645029
-1.498543 -15.366138 1.288859 1645029
-1.758694 -15.675239 0.901219 1645029
-1.522832 -15.772647 1.150161 1645029
-1.925924 -15.793028 1.337502 1645029
-1.580001 -15.280280 1.288156 1645029
-1.757816 -15.918662 0.674146 1645029
-1.652039 -16.034174 0.766008 1645029
-1.901364 -15.321148 1.136172 1645029
-1.659765 -15.827859 0.862328 1645029
-1.819074 -15.544870 0.907865 1645029
-1.432590 -15.515108 1.029155 1645029
-1.489666 -15.665860 1.096225 1645029
-1.955208 -15.743590 0.870620 1645029
-2.088085 -15.507851 0.637468 1645029
-1.945835 -15.530134 1.335883 1645029
-1.935436 -15.558671 0.889568 1645029
-1.389974 -15.862986 0.942846 1645029
-1.789693 -15.531482 1.065841 1645029
-1.706009 -15.154624 1.094697 1645029
-2.227024 -15.857759 1.075453 1645029
-1.709337 -15.527924 1.157784 1645029
-1.947063 -15.904257 1.087650 1645029
-1.953978 -15.731109 0.513604 1645029
-2.153284 -15.617577 0.865996 1645029
-1.528130 -15.736353 1.146802 1645029
-1.748022 -15.632544 1.228928 1645029
-1.915726 -15.420384 0.682980 1645029
-1.641552 -15.465635 0.676466 1645029
-1.616652 -15.186693 1.014783 1645029
-1.656182 -15.549862 0.888574 1645029
-1.872732 -15.576864 0.664232 1645029
-1.447183 -15.860811 0.804064 1645029
-1.859507 -16.033875 0.959107 1645029
-1.366231 -15.644738 0.971839 1645029
-1.797980 -15.758567 0.850640 1645029
-1.913208 -15.892482 1.359849 1645029
-1.845358 -15.462461 0.507751 1645029
-1.302792 -15.601709 1.269472 1645029
-2.075881 -15.269691 0.714646 1645029
-2.059307 -15.382199 0.675444 1645029
-1.649208 -16.026001 0.904252 1645029
-2.034859 -15.742483 0.863945 1645029
-1.741214 -16.029951 0.941923 1645029
-1.597101 -15.671753 0.979125 1645029
-2.047108 -15.719359 1.004410 1645029
-1.879978 -15.336716 0.885659 1645029
-1.862294 -15.110611 0.944903 1645029
-1.980950 -15.663462 1.395532 1645029
-1.891928 -15.722965 1.166755 1645029
-1.623600 -15.429057 1.250860 1645029
-1.424782 -15.466728 1.160944 1645029
-1.297305 -15.477818 0.978748 1645029
-2.067137 -15.946773 1.237734 1645029
-1.496637 -15.266640 1.038270 1645029
-1.372737 -15.609179 1.031206 1645029
-2.001918 -15.364046 0.587240 1645029
-1.852861 -15.290240 1.233212 1645029
-1.743707 -15.175549 1.088829 1645029
-1.581044 -15.397176 0.849682 1645029
-1.760100 -15.392394 0.529263 1645029
-1.454406 -15.586333 1.011504 1645029
-1.428429 -15.355995 1.212858 1645029
-4.369331 7.158116 0.459733 10053171
-5.945498 7.092548 0.420195 10053171
-4.435867 6.967175 2.373675 10053171
-5.157431 7.166807 2.908149 10053171
-3.850196 6.989571 0.281325 10053171
-6.674716 6.767039 2.499282 10053171
-4.115950 7.151573 2.537890 10053171
-3.160776 6.950345 1.339998 10053171
-4.390347 6.987895 0.527698 10053171
-3.502524 7.195712 2.549633 10053171
-3.693468 7.185028 2.493671 10053171
-3.264763 6.961350 0.845658 10053171
-4.007059 7.070507 0.177375 10053171
-4.974238 6.812794 1.176697 10053171
-6.837269 6.971453 0.203444 10053171
-4.593580 7.122297 2.192974 10053171
-6.420900 6.961101 1.210188 10053171
-4.662794 6.944007 0.454885 10053171
-6.922948 6.762321 2.818550 10053171
-6.294137 7.242829 2.873063 10053171
-6.070747 7.062007 0.759349 10053171
-6.137115 6.795866 2.807651 10053171
-3.746624 6.849992 2.234877 10053171
-4.815861 7.054502 2.495797 10053171
-6.579559 6.989797 2.649821 10053171
-6.043902 7.152100 1.100993 10053171
-3.389639 7.150645 1.453049 10053171
-4.620112 6.951712 1.336035 10053171
-6.002830 7.225218 2.386206 10053171
-6.675050 7.041687 2.950528 10053171
-6.880417 7.077775 1.114541 10053171
-5.981843 6.766681 0.142036 10053171
-6.115043 7.027935 1.946246 10053171
-3.876312 6.973950 0.593894 10053171
-4.726411 7.144161 0.091675 10053171
-5.877913 7.164228 2.079641 10053171
-4.847182 6.942722 1.396640 10053171
-5.507023 7.229326 2.732722 10053171
-5.062191 6.775070 1.302719 10053171
-6.167484 6.975982 2.543229 10053171
-4.494538 6.926422 2.131363 10053171
-4.105265 7.097661 1.118565 10053171
-3.864095 6.773946 0.880158 10053171
-4.739995 6.925663 2.250130 10053171
-5.553871 6.954514 0.641170 10053171
-3.812510 7.050780 1.165366 10053171
-3.489964 7.075549 2.106072 10053171
-4.271691 7.180887 0.703810 10053171
-4.108528 7.252512 2.543839 10053171
-5.287720 6.973410 1.603510 10053171
-6.757210 7.077436 2.623893 10053171
-5.665809 6.974898 1.215401 10053171
-5.775297 6.859725 2.777451 10053171
-3.536924 6.857500 2.676379 10053171
-3.080535 6.902660 0.627743 10053171
-5.036404 7.017457 2.160103 10053171
-3.499997 7.060686 0.791518 10053171
-5.449333 7.041672 1.624391 10053171
-3.345258 7.092139 2.168735 10053171
-6.453302 7.185620 0.023028 10053171
-6.380263 6.745466 2.613212 10053171
-4.397003 6.948485 2.957137 10053171
-6.323274 6.944039 0.875811 10053171
-3.764999 7.175366 1.038714 10053171
-3.552847 7.084034 2.681120 10053171
-4.164578 6.935434 2.152523 10053171
-6.345818 6.803208 1.057300 10053171
-3.768240 7.010875 1.940250 10053171
-3.874439 7.071634 1.239086 10053171
-5.460968 7.222017 0.709928 10053171
-5.931499 6.945892 2.535160 10053171
-3.289085 6.917925 1.492836 10053171
-6.792634 6.756574 2.258055 10053171
-3.705675 6.995059 0.997863 10053171
-6.512769 7.216692 1.570097 10053171
-5.290431 6.966598 0.859083 10053171
-6.473197 6.907259 0.455301 10053171
-4.538725 7.085249 2.280604 10053171
-6.721537 7.164145 1.137667 10053171
-4.020131 6.892029 0.246517 10053171
-5.783862 7.225711 0.704210 10053171
-6.964286 7.074926 2.925956 10053171
-3.142368 7.076976 2.165295 10053171
-4.141641 7.083794 0.028831 10053171
-4.445926 7.168844 1.351077 10053171
-6.615793 7.227152 0.412024 10053171
-5.850195 6.864332 0.172993 10053171
-3.251256 6.891738 0.129680 10053171
-6.536879 6.920078 1.342264 10053171
-5.960736 6.851917 -0.001443 10053171
-5.454192 7.060678 1.770293 10053171
-6.379001 7.004857 2.987040 10053171
-6.072345 6.815246 2.957672 10053171
-4.229302 7.211267 1.425422 10053171
-4.286391 7.087532 2.196694 10053171
-3.921467 7.210053 2.390135 10053171
-5.660179 7.223397 0.404576 10053171
-5.346391 6.922580 0.462714 10053171
-3.340933 6.969789 0.978840 10053171
-6.873765 6.951996 0.247317 10053171
-4.494195 6.802368 1.769212 10053171
-6.237904 7.207758 1.524497 10053171
-3.850487 7.196436 0.855816 10053171
-3.798581 6.963016 2.071173 10053171
-4.821001 7.148301 1.239694 10053171
-5.622854 7.256177 1.600952 10053171
-4.214572 6.958586 0.418657 10053171
-5.502069 7.200208 0.336298 10053171
-3.264237 7.062465 0.138015 10053171
-5.099817 6.789434 1.777654 10053171
-5.629964 7.055112 2.646115 10053171
-5.450709 6.864432 2.376704 10053171
-4.472316 6.914037 0.683020 10053171
-4.767511 6.934870 2.312438 10053171
-6.501840 6.939222 1.184604 10053171
-5.744620 6.782308 1.378546 10053171
-4.582685 6.914625 1.800219 10053171
-4.048751 7.068927 2.543394 10053171
-3.320226 7.033309 0.199309 10053171
-4.637717 6.739110 1.399581 10053171
-3.804994 7.200863 0.841382 10053171
-5.169752 6.864554 0.238663 10053171
-6.440887 6.764853 0.304955 10053171
-5.594364 7.013546 0.815661 10053171
-3.135950 7.173606 1.545240 10053171
-5.399185 7.056086 2.739085 10053171
-5.303593 6.937042 2.703389 10053171
-4.385600 6.899383 0.781387 10053171
-6.962545 7.114170 2.672922 10053171
-4.279841 7.062447 2.901247 10053171
-4.869825 6.964657 0.244803 10053171
-6.491744 6.901050 2.241024 10053171
-5.370158 6.898567 1.735087 10053171
-5.256757 7.060086 1.620284 10053171
-4.652521 6.829648 0.830490 10053171
-3.262272 6.840714 0.429688 10053171
-4.013423 6.969136 1.205950 10053171
-3.738050 7.228485 0.783617 10053171
-5.110747 7.066239 2.761782 10053171
-4.746602 7.184426 1.097708 10053171
-5.666201 6.792003 2.546854 10053171
-5.401733 7.165059 2.273630 10053171
-6.044718 7.010336 2.974590 10053171
-3.707504 6.934294 1.071501 10053171
-4.228147 7.093173 2.720699 10053171
-5.915016 7.054374 0.629984 10053171
-4.964605 6.816018 2.304097 10053171
-3.914719 6.810752 1.340466 10053171
-6.014097 7.212694 1.750409 10053171
-3.628211 7.188907 0.413445 10053171
-5.867423 6.932600 2.267642 10053171
-6.549315 6.867238 1.761710 10053171
-4.763198 6.802964 2.799981 10053171
-6.501976 7.169177 1.220024 10053171
-3.585536 7.005317 1.089958 10053171
-6.247195 6.836184 1.550727 10053171
-3.014326 6.857821 1.547328 10053171
-6.397413 7.243309 0.947825 10053171
-4.801150 6.969877 1.223821 10053171
-6.425578 7.072394 0.928957 10053171
-6.893005 6.872999 2.261434 10053171
-3.707507 7.225140 1.803891 10053171
-4.231878 7.171684 0.808422 10053171
-6.321442 6.796669 2.944405 10053171
-3.047791 6.760123 2.264850 10053171
-6.418163 6.918339 1.488546 10053171
-6.302344 6.997890 0.997234 10053171
-5.159497 6.773744 1.208146 10053171
-3.964200 7.172766 0.926768 10053171
-6.408286 7.092969 0.857000 10053171
-6.224036 6.731106 2.109232 10053171
-3.522816 7.029097 0.957344 10053171
-5.289409 6.962657 2.318584 10053171
-4.490707 6.763115 0.615111 10053171
-5.559574 7.209873 0.178685 10053171
-3.612237 6.912448 1.833360 10053171
-6.994439 7.163006 2.119929 10053171
-6.187163 7.186973 1.936795 10053171
-4.686392 6.920389 0.431063 10053171
-5.543514 6.963121 1.749707 10053171
-6.741523 6.759252 1.272345 10053171
-5.567924 6.808721 1.496745 10053171
-6.412653 6.881907 2.033203 10053171
-5.985876 6.753180 1.053287 10053171
-5.777570 6.768286 2.089639 10053171
-5.544391 6.807518 1.556370 10053171
-3.359357 7.074864 2.629874 10053171
-5.048129 7.037675 0.342512 10053171
-4.192755 7.175884 0.560156 10053171
-5.045530 7.132277 0.832450 10053171
-6.402270 6.922737 2.871106 10053171
-6.870788 6.837882 2.558504 10053171
-6.706199 6.763770 0.412428 10053171
-3.249076 7.087466 1.589851 10053171
-6.026182 6.757332 2.615665 10053171
-4.043295 6.933876 1.570219 10053171
-6.721120 7.218801 0.606714 10053171
-6.924469 6.952231 2.964111 10053171
-4.462867 6.911637 1.924129 10053171
-4.892382 7.096201 2.544694 10053171
-3.977416 7.106028 0.793082 10053171
-4.122574 7.247336 0.519414 10053171
-3.907244 6.778139 1.144095 10053171
-3.474888 7.199638 2.478350 10053171
-3.378033 7.195817 0.172583 10053171
-3.157485 6.775097 0.450882 10053171
-4.786437 7.213658 1.096534 10053171
-6.917988 7.093789 0.599511 10053171
-6.251904 6.767746 1.877451 10053171
-6.618029 6.934911 0.617569 10053171
-6.358224 7.172530 1.721949 10053171
-6.417159 6.811109 1.097057 10053171
-4.982033 6.833549 0.311807 10053171
-5.292903 7.037303 1.133149 10053171
-5.976774 7.065667 1.261399 10053171
-3.192828 7.009744 2.059650 10053171
-4.540296 6.927309 0.171121 10053171
-6.028836 6.833570 0.157702 10053171
-3.648139 7.153365 0.322535 10053171
-3.311470 7.197109 2.598209 10053171
-4.003546 6.895767 2.652160 10053171
-4.113763 6.855137 2.973267 10053171
-5.542572 7.088830 1.942350 10053171
-4.323979 7.166467 0.737603 10053171
-4.260518 6.933296 0.587630 10053171
-3.606873 7.132598 0.606793 10053171
-3.725363 6.954367 0.898299 10053171
-4.652432 7.035797 0.631980 10053171
-4.170459 6.938939 0.200365 10053171
-6.543050 6.781510 2.383238 10053171
-4.722899 7.162522 0.510484 10053171
-5.163549 6.959220 1.465769 10053171
-6.467856 7.244327 1.318543 10053171
-6.977386 7.019075 2.076123 10053171
-6.628446 7.237930 1.473659 10053171
-5.039773 7.122639 2.884861 10053171
-4.739108 6.847245 0.719268 10053171
-4.285352 6.926335 1.302950 10053171
-5.451254 6.822319 2.058838 10053171
-4.003073 6.768639 2.812621 10053171
-5.951018 7.012704 1.395941 10053171
-6.746356 6.760758 0.261802 10053171
-3.289768 7.151338 2.716622 10053171
-5.081550 7.053396 1.739600 10053171
-5.873470 7.197806 0.508700 10053171
-6.251070 6.891044 1.061117 10053171
-6.960691 7.080807 1.620119 10053171
-5.742324 7.223294 2.559096 10053171
-6.231176 6.922801 2.028429 10053171
-3.785769 6.945364 1.336634 10053171
-5.719422 7.160128 0.870129 10053171
-3.118776 6.789255 0.981683 10053171
-3.903202 6.837387 1.110105 10053171
-5.346735 7.175688 1.644276 10053171
-3.508647 6.762973 0.834061 10053171
-4.671378 7.233282 1.549571 10053171
-3.656771 7.001985 2.202147 10053171
-4.573082 7.129379 2.682275 10053171
-4.896451 7.088205 2.106022 10053171
-6.903183 6.789914 2.384994 10053171
-3.422158 7.098417 0.852637 10053171
-5.537661 7.045819 2.909777 10053171
-4.815282 6.913513 0.685037 10053171
-4.604488 7.025121 2.171659 10053171
-6.917242 7.036698 2.215592 10053171
-3.668734 6.853880 1.208795 10053171
-4.340265 6.929410 0.819473 10053171
-6.440381 6.783453 2.084070 10053171
-6.034813 6.791248 2.066903 10053171
-4.838671 6.780120 0.946006 10053171
-3.720629 6.842672 0.010955 10053171
-4.865216 7.099937 2.492754 10053171
-3.746661 7.006887 2.483847 10053171
-5.188255 7.078882 1.523246 10053171
-6.233964 6.847783 1.594537 10053171
-6.679943 7.173471 2.915231 10053171
-3.941082 6.923378 0.934548 10053171
-6.249227 7.061672 0.942445 10053171
-4.894456 7.149187 1.521533 10053171
-3.264627 7.224191 0.928284 10053171
-6.350977 7.067132 1.852266 10053171
-5.678170 6.820928 1.325699 10053171
-3.573642 6.898649 0.412907 10053171
-5.639186 6.804938 2.098691 10053171
-4.298245 7.244669 0.451838 10053171
-3.188564 7.017521 1.430531 10053171
-3.114205 6.958102 1.810113 10053171
-4.072961 6.770078 0.883435 10053171
-4.267608 7.217643 1.328720 10053171
-3.103787 6.866104 0.297840 10053171
-4.029169 7.137122 1.420863 10053171
-5.456187 6.947412 1.065309 10053171
-3.963197 6.953841 0.361700 10053171
-3.796493 6.932830 0.145644 10053171
-5.727739 7.244989 1.868392 10053171
-5.698550 7.200743 1.792460 10053171
-6.043495 6.762902 2.385319 10053171
-3.609578 6.952306 0.805952 10053171
-5.224338 7.136120 1.175313 10053171
-5.133973 6.836911 2.478212 10053171
-4.289027 7.186719 0.631814 10053171
-6.977614 7.211764 0.063378 10053171
-3.994864 6.783424 1.122650 10053171
-4.059439 6.784608 1.840007 10053171
-5.382966 6.849721 2.753338 10053171
-3.289951 7.012316 1.528587 10053171
-3.309445 7.221167 -0.000514 10053171
-3.214629 6.802405 1.504894 10053171
-4.637477 6.950397 1.542126 10053171
-4.962790 6.855455 0.156107 10053171
-6.816380 6.852914 1.566783 10053171
-5.544188 6.934438 0.144830 10053171
-6.916502 6.905262 1.416878 10053171
-4.196944 6.769033 1.310762 10053171
-6.386178 6.910733 0.200820 10053171
-3.364808 6.765488 2.824131 10053171
-4.112174 6.801747 1.420709 10053171
-4.719694 6.849490 1.921243 10053171
-6.157276 6.805218 0.123821 10053171
-5.197689 7.134342 1.840464 10053171
-6.244812 7.112215 2.260805 10053171
-5.140980 7.087356 1.366836 10053171
-6.466493 6.935642 1.314720 10053171
-5.449378 7.067102 0.262498 10053171
-4.936223 7.182320 1.786746 10053171
-3.848039 6.996468 1.651742 10053171
-5.424683 7.077582 2.703636 10053171
-5.700892 7.044810 2.974415 10053171
-6.815300 7.134919 0.778463 10053171
-4.890587 7.152059 1.134358 10053171
-6.995095 6.941025 0.277553 10053171
-6.742466 6.963839 1.034567 10053171
-4.311221 6.809939 1.939016 10053171
-3.993551 7.183183 0.058739 10053171
-3.129073 7.060959 1.340505 10053171
-3.850232 7.021511 0.412806 10053171
-3.108800 6.749507 1.715426 10053171
-3.456495 6.845702 0.322430 10053171
-6.617510 7.086844 1.222829 10053171
-4.113350 7.138284 0.754848 10053171
-3.801339 6.983823 2.078548 10053171
-3.804345 7.022958 1.242089 10053171
-4.626969 7.139827 2.678176 10053171
-4.611072 7.227837 2.341104 10053171
-6.237184 7.145748 0.877566 10053171
-3.107751 6.899994 0.024208 10053171
-4.402438 6.761017 0.514088 10053171
-5.189473 7.012832 2.848328 10053171
-5.313371 7.009869 2.485674 10053171
-3.646394 7.239954 1.079022 10053171
-4.832884 6.784136 0.088672 10053171
-4.745883 7.129360 0.922773 10053171
-4.062510 6.850858 1.499389 10053171
-3.539837 6.947144 0.974620 10053171
-6.963652 7.108993 0.890962 10053171
-3.904315 6.929721 1.358031 10053171
-3.593431 6.936236 2.725220 10053171
-5.499421 6.831227 2.603083 10053171
-5.399661 6.762962 2.412277 10053171
-3.043926 6.800100 2.929905 10053171
-6.170542 6.828619 2.043732 10053171
-4.445837 7.147181 0.792151 10053171
-4.518238 7.025096 0.701245 10053171
-3.169602 7.211170 2.740554 10053171
-5.881680 7.225589 2.525075 10053171
-4.219179 6.891940 2.115911 10053171
-3.173728 6.928452 0.496086 10053171
-5.004325 6.821528 1.842603 10053171
-3.721647 6.963660 0.084310 10053171
-4.311634 7.229411 0.522164 10053171
-6.187060 6.877585 1.558691 10053171
-3.850080 7.185752 0.580940 10053171
-5.460015 6.786850 1.445560 10053171
-3.207136 6.822613 2.163984 10053171
-3.461049 6.955042 0.338052 10053171
-3.928953 7.241345 2.058408 10053171
-6.164017 7.187503 0.255636 10053171
-6.567075 6.891798 0.543863 10053171
-4.621627 6.890168 1.241473 10053171
-5.128211 6.794230 0.010169 10053171
-5.454967 6.804937 0.520592 10053171
-3.754144 6.802765 0.397149 10053171
-5.337024 7.218339 0.683003 10053171
-3.191303 7.167042 1.390724 10053171
-4.930944 6.745123 2.548877 10053171
-6.723315 7.144569 1.632438 10053171
-4.807824 6.773044 1.158674 10053171
-4.071970 7.052821 1.617321 10053171
-4.063167 7.040735 1.600956 10053171
-3.482899 6.932682 2.925933 10053171
-4.084369 7.149336 2.913855 10053171
-6.613375 6.913560 1.734872 10053171
-5.194060 7.048680 1.696110 10053171
-5.109526 7.152748 2.146338 10053171
-4.510044 6.839420 0.032653 10053171
-5.334507 6.745221 2.584324 10053171
-5.179764 6.761933 1.361660 10053171
-4.067345 6.881304 0.724519 10053171
-4.387427 7.034740 1.035889 10053171
-5.223962 7.135023 0.694862 10053171
-3.740777 6.783356 1.903397 10053171
-3.649467 7.253424 2.742701 10053171
-3.374160 7.159512 1.006798 10053171
-4.054664 7.203792 2.647368 10053171
-3.095154 7.174819 2.865198 10053171
-3.574443 7.011999 1.675814 10053171
-5.333920 7.117827 0.111312 10053171
-3.927101 6.921890 2.301502 10053171
-6.398108 7.051432 2.537834 10053171
-3.108983 7.091914 2.786407 10053171
-4.857553 7.160510 0.122640 10053171
-5.910396 6.870915 0.137865 10053171
-4.296233 7.046052 0.547473 10053171
-4.624901 7.145755 0.022679 10053171
-6.617679 7.228910 1.363113 10053171
-6.057421 6.932767 0.100929 10053171
-5.840894 6.763850 2.897434 10053171
-4.498207 7.045677 2.838087 10053171
-5.619418 7.197383 2.548847 10053171
-3.111063 6.974545 0.621388 10053171
-5.757299 6.949369 0.592999 10053171
-4.087549 7.108226 1.539018 10053171
-4.696173 6.765460 1.654326 10053171
-4.984120 7.133274 1.208964 10053171
-4.449149 6.952672 0.521043 10053171
-5.286354 7.233346 0.310751 10053171
-3.866059 6.966794 0.853335 10053171
-4.229585 6.938539 2.669128 10053171
-5.248492 7.115877 1.695977 10053171
-3.030150 6.981718 0.267660 10053171
-5.425016 6.864398 1.060643 10053171
-6.596868 7.079443 2.721610 10053171
-5.110131 6.822626 1.650120 10053171
-3.053508 6.921107 0.750409 10053171
-6.583338 6.974866 1.185301 10053171
-3.060996 6.994208 0.207543 10053171
-6.281085 7.232246 1.910981 10053171
-3.690626 6.919105 1.353487 10053171
-4.170839 7.108292 0.211657 10053171
-3.860971 7.148211 1.785038 10053171
-4.179442 7.000186 1.345481 10053171
-3.098329 6.815381 0.733380 10053171
-5.602359 7.208112 0.091191 10053171
-5.666166 7.036686 2.800994 10053171
-4.806900 6.943901 1.798801 10053171
-5.965837 7.151862 2.052169 10053171
-3.310576 7.101928 0.987576 10053171
-6.508456 6.802132 0.732926 10053171
-6.588920 7.069925 1.927305 10053171
-3.759466 6.861027 0.040594 10053171
-4.641138 7.129298 2.031104 10053171
-5.598032 6.767080 2.687022 10053171
-3.972162 7.097313 0.435145 10053171
-3.905254 6.790154 1.634884 10053171
-5.379529 7.045282 0.807575 10053171
-4.817008 6.835998 1.754897 10053171
-5.767587 6.953906 1.059317 10053171
-6.624930 6.855245 0.169792 10053171
-4.512843 6.978963 1.709852 10053171
-3.718159 7.100731 2.806264 10053171
-5.690138 6.845422 0.067179 10053171
-5.658124 7.048032 0.371908 10053171
-4.247072 6.860065 0.848467 10053171
-5.866165 6.870893 2.059096 10053171
-4.888498 6.819040 2.911777 10053171
-3.182397 6.997679 2.042483 10053171
-3.616977 6.919858 1.077909 10053171
-4.780443 7.130301 2.847515 10053171
-4.516965 7.161980 1.490174 10053171
-3.432962 7.083318 1.072262 10053171
-3.171331 7.152069 0.514638 10053171
-5.420465 7.098654 0.818029 10053171
-6.636390 6.972393 2.593519 10053171
-3.305271 6.887131 2.383080 10053171
-5.843476 7.134842 2.057903 10053171
-4.652228 6.913660 1.463611 10053171
-4.294060 6.814671 2.117648 10053171
-3.003227 6.760657 2.470300 10053171
-3.056865 6.993344 1.071096 10053171
-4.370365 7.179646 0.311421 10053171
-5.497366 7.229285 2.300889 10053171
-5.603341 7.119933 1.123059 10053171
-3.858755 6.907015 1.853534 10053171
-4.679547 7.084698 2.929444 10053171
-4.742012 7.174588 2.663636 10053171
-6.283933 7.034722 1.580886 10053171
-3.113903 7.200888 0.312908 10053171
-4.518207 6.877381 2.786182 10053171
-3.055691 6.908749 1.120909 10053171
-4.446090 7.246180 2.844113 10053171
-5.030466 6.918450 2.684127 10053171
-3.208857 6.991621 0.512067 10053171
-5.974676 6.825089 0.808336 10053171
-4.691671 7.138454 0.321035 10053171
-3.013921 7.057694 0.540902 10053171
-5.454402 6.906497 1.103163 10053171
-3.923449 6.785604 0.628551 10053171
-6.075415 7.001606 2.721820 10053171
-3.319436 6.922220 0.559357 10053171
-5.714954 6.736636 2.833586 10053171
-4.202876 6.840743 0.643092 10053171
-6.599357 6.975356 2.952266 10053171
-6.890186 7.234363 2.528979 10053171
-6.904804 7.191996 0.743913 10053171
-5.270856 6.986817 2.465791 10053171
-5.209942 6.973995 1.258248 10053171
-3.189447 7.162397 1.915847 10053171
-6.375230 6.948692 1.729967 10053171
-4.081116 6.849900 0.110031 10053171
-3.518425 6.905586 0.022043 10053171
-6.089188 6.875655 1.891202 10053171
-3.102340 7.073094 0.793084 10053171
-3.581838 7.020215 2.724317 10053171
-4.257855 7.042448 2.645276 10053171
-3.435857 6.903386 2.435450 10053171
-5.097089 6.891985 2.870806 10053171
-4.456955 7.115433 1.057945 10053171
-6.605143 6.838968 2.037524 10053171
-3.845700 6.869865 2.283452 10053171
-3.562256 6.998555 1.048488 10053171
-4.289117 6.765838 0.874203 10053171
-3.856476 7.008074 0.997999 10053171
-5.369652 6.958202 2.066847 10053171
-3.221285 6.838726 0.487293 10053171
-3.400042 7.244051 0.665770 10053171
-6.371272 6.744442 1.217507 10053171
-5.808242 7.222501 1.598426 10053171
-3.795278 6.902377 0.805967 10053171
-6.569126 6.868823 1.586950 10053171
-4.375422 6.808881 0.971934 10053171
-5.654116 6.927727 0.068782 10053171
-4.411469 7.028420 1.202174 10053171
-4.189829 6.905240 2.135122 10053171
-3.272176 7.181143 1.296918 10053171
-3.751464 7.210701 2.651287 10053171
-5.874935 6.814611 0.051020 10053171
-5.670118 6.789084 1.560823 10053171
-4.964842 6.972881 2.469413 10053171
-6.074782 7.046482 1.124103 10053171
-6.778430 7.242813 2.124120 10053171
-5.452620 6.867640 1.233861 10053171
-6.170253 6.927438 2.901448 10053171
-5.573777 6.773071 2.400384 10053171
-4.503403 7.174765 1.509521 10053171
-5.294047 6.871616 0.620027 10053171
-6.032027 7.250090 1.488982 10053171
-3.502976 6.846426 2.527243 10053171
-5.671946 6.945174 2.292276 10053171
-6.073992 6.956521 1.472617 10053171
-6.576631 6.874334 1.262068 10053171
-6.761889 7.077828 2.621386 10053171
-6.557282 6.857737 1.828972 10053171
-6.065267 6.981585 2.797381 10053171
-4.203942 7.196262 2.783765 10053171
-4.898877 7.086427 2.196936 10053171
-4.870282 7.150966 0.063995 10053171
-4.088607 6.839228 1.564334 10053171
-6.984977 7.237837 0.310363 10053171
-5.472606 7.165708 0.030576 10053171
-3.509189 6.826617 0.736539 10053171
-6.083995 6.796350 0.900742 10053171
-3.551935 6.807045 2.840916 10053171
-3.555783 7.197412 0.906900 10053171
-5.187403 6.817979 2.948816 10053171
-6.950562 6.857915 2.325872 10053171
-4.309416 6.853595 0.564852 10053171
-4.562727 6.871034 0.871372 10053171
-3.492011 6.820000 0.296927 10053171
-6.422109 6.981838 1.161423 10053171
-5.290675 7.241427 1.698692 10053171
-4.226286 7.190446 1.722081 10053171
-5.752425 7.127060 0.958514 10053171
-4.665029 6.949094 2.942726 10053171
-5.865091 7.029373 1.037091 10053171
-5.187192 7.143402 0.269753 10053171
-4.813223 6.855455 2.730931 10053171
-3.330122 6.992817 0.771244 10053171
-3.909581 7.020747 1.824019 10053171
-5.777284 7.001088 1.298281 10053171
-3.316034 6.975252 1.655190 10053171
-2.990740 7.212490 0.808473 10053171
-3.199941 7.231866 2.784677 10053171
-3.164472 7.188370 2.308977 10053171
-6.057435 6.943233 2.240489 10053171
-6.818459 7.042354 2.059070 10053171
-4.069843 6.801897 1.158586 10053171
-3.196209 7.233546 1.686893 10053171
-6.927682 7.170780 1.478746 10053171
-4.293139 6.887102 1.105598 10053171
-5.305868 7.029636 0.099904 10053171
-6.807121 7.157592 2.889357 10053171
-4.219992 6.839122 2.450418 10053171
-3.450994 7.030459 2.650762 10053171
-3.056636 6.766857 1.130026 10053171
-3.493255 7.207597 0.580937 10053171
-3.455477 6.957062 2.296236 10053171
-4.101251 7.089324 2.680174 10053171
-3.745380 7.061256 2.898333 10053171
-5.766447 6.931784 0.478771 10053171
-4.741759 7.112267 1.549242 10053171
5.895381 -5.984726 1.152200 8342706
6.146924 -5.719980 1.798923 8342706
5.447455 -6.101804 3.635360 8342706
6.184145 -6.474393 0.560064 8342706
5.444990 -6.214931 3.045402 8342706
6.181208 -6.443526 4.071828 8342706
6.340285 -6.068224 4.895507 8342706
6.194854 -5.635776 0.309240 8342706
6.021629 -6.166634 3.996198 8342706
6.185316 -5.996167 0.466145 8342706
5.595250 -5.647620 1.992992 8342706
6.166987 -6.428595 3.316683 8342706
6.534345 -5.803614 4.828330 8342706
6.042593 -5.633041 2.401677 8342706
6.469857 -5.972080 1.292807 8342706
6.080318 -6.220661 2.957851 8342706
6.528657 -5.862253 0.280703 8342706
6.348877 -6.432344 2.979142 8342706
6.303390 -5.499730 2.214116 8342706
6.464621 -6.375964 2.665583 8342706
6.209734 -6.093163 2.953696 8342706
6.270866 -5.579040 2.049047 8342706
5.624776 -6.285420 3.516283 8342706
5.791937 -5.551123 0.182532 8342706
5.655302 -5.764903 0.516772 8342706
6.509717 -5.797426 1.411772 8342706
6.029563 -5.432651 0.763116 8342706
6.197826 -6.318547 1.493036 8342706
6.418412 -6.149897 1.599490 8342706
6.540854 -6.054080 3.494233 8342706
5.627766 -6.175517 3.392780 8342706
5.842965 -6.202338 4.706334 8342706
5.788652 -5.535300 2.041494 8342706
6.319031 -5.789625 2.895227 8342706
6.252050 -5.939285 3.555445 8342706
5.445422 -6.098665 0.550714 8342706
6.390076 -5.805285 1.970381 8342706
5.905159 -5.794405 1.708045 8342706
5.763179 -5.865424 3.145085 8342706
5.650037 -6.176828 1.846117 8342706
5.807548 -5.514444 0.776915 8342706
6.452552 -6.066185 0.396937 8342706
5.990519 -6.113045 4.301898 8342706
5.578185 -6.198438 4.541046 8342706
5.732301 -5.751038 4.157031 8342706
5.756657 -5.913959 3.121440 8342706
6.043058 -5.983147 1.419300 8342706
6.400822 -6.280298 2.005903 8342706
5.641640 -5.723504 3.098823 8342706
6.293447 -6.100673 3.892446 8342706
5.409725 -5.992617 4.577307 8342706
5.969525 -5.448951 4.490430 8342706
5.495398 -5.968354 3.225819 8342706
6.412086 -5.940489 1.937629 8342706
6.173516 -6.473121 4.303269 8342706
6.382764 -5.886961 1.182708 8342706
5.391136 -5.969077 2.344320 8342706
5.505584 -5.753729 4.329763 8342706
6.446124 -6.009690 2.987354 8342706
6.100759 -5.671347 4.852592 8342706
6.268201 -5.886690 2.100589 8342706
5.802670 -5.462115 2.072789 8342706
5.871642 -6.341563 3.537858 8342706
5.992302 -5.496252 3.494454 8342706
5.759815 -6.035162 4.520087 8342706
5.842751 -6.093974 1.736902 8342706
6.153248 -5.729132 2.010796 8342706
6.165040 -6.300570 1.967663 8342706
5.775016 -6.225729 1.527061 8342706
5.606081 -6.252693 1.060851 8342706
5.846204 -6.384545 1.256111 8342706
5.965359 -5.953184 3.029621 8342706
6.086973 -6.119685 4.759681 8342706
5.798630 -5.808657 0.606056 8342706
5.739189 -6.085496 2.506045 8342706
5.953523 -5.982292 3.168961 8342706
5.487976 -6.176043 1.922758 8342706
6.101647 -5.603240 0.158954 8342706
6.437142 -5.946493 1.233040 8342706
6.560608 -6.066828 3.882239 8342706
6.042228 -6.207747 3.291623 8342706
5.571944 -5.655772 1.960543 8342706
6.104251 -6.277247 4.460333 8342706
6.128417 -5.583851 4.623284 8342706
6.421627 -5.653957 0.204211 8342706
5.958791 -6.162005 2.701278 8342706
6.237271 -5.975214 2.450613 8342706
5.503503 -6.159314 3.667132 8342706
6.067578 -6.310304 2.001653 8342706
5.875692 -6.333083 0.994396 8342706
6.195990 -6.408784 4.442638 8342706
5.559185 -5.922265 3.853009 8342706
5.693038 -6.384696 2.525844 8342706
6.117671 -6.513199 1.402581 8342706
5.845658 -5.870105 4.555492 8342706
5.593017 -5.773220 2.341631 8342706
6.470281 -5.846035 2.629257 8342706
6.111174 -6.428800 0.606129 8342706
5.555542 -6.155066 1.867460 8342706
6.317189 -6.073725 1.850230 8342706
6.547935 -6.046370 3.631641 8342706
5.644359 -6.374638 0.616537 8342706
5.685609 -6.457279 0.780571 8342706
6.207686 -6.036273 2.556597 8342706
5.639695 -6.026259 3.300135 8342706
5.765316 -5.595253 4.703854 8342706
5.771232 -6.255856 4.022453 8342706
5.643683 -5.827145 1.233605 8342706
6.416581 -5.956510 4.418914 8342706
5.835284 -5.628903 3.518042 8342706
6.024980 -5.800520 0.944864 8342706
6.157558 -6.350614 1.773265 8342706
6.140491 -5.787933 1.596244 8342706
5.980643 -5.775353 4.081530 8342706
6.048913 -6.194933 4.592680 8342706
5.790883 -6.152796 0.220222 8342706
5.898935 -5.647003 1.698914 8342706
6.200237 -5.637329 3.874646 8342706
5.706983 -5.974414 3.085801 8342706
5.792511 -6.190534 2.595827 8342706
5.692338 -5.842257 2.897255 8342706
5.611168 -6.236008 3.719944 8342706
5.907082 -6.576938 1.068703 8342706
6.107437 -5.813128 1.667074 8342706
6.312841 -6.335464 0.538988 8342706
6.350806 -5.693239 2.306689 8342706
6.142610 -5.576048 3.088716 8342706
5.686627 -5.679707 1.213517 8342706
5.988255 -5.728544 3.703972 8342706
6.195644 -6.019643 4.400372 8342706
6.507790 -6.103930 2.684585 8342706
6.329266 -6.150862 3.358839 8342706
5.670675 -6.304954 4.695686 8342706
6.282715 -5.539135 4.622020 8342706
5.986417 -6.217953 3.554345 8342706
5.758712 -5.659688 2.599510 8342706
6.064430 -6.570791 4.490024 8342706
5.544725 -5.749521 4.262756 8342706
5.524899 -6.133940 2.896920 8342706
6.102640 -5.643015 2.477378 8342706
5.699611 -5.879028 4.064334 8342706
5.867470 -5.442726 3.069638 8342706
6.501284 -5.797868 0.101741 8342706
6.070024 -5.461471 0.401722 8342706
6.365242 -5.730944 0.063545 8342706
6.047504 -5.767566 0.516984 8342706
5.657352 -5.720655 3.100798 8342706
6.335268 -6.209971 1.522485 8342706
6.139999 -5.806262 2.478994 8342706
5.775380 -6.158953 1.612436 8342706
5.994261 -6.193359 0.129167 8342706
5.861089 -6.043149 3.752294 8342706
5.722116 -6.165904 3.367182 8342706
6.300940 -6.245224 4.596400 8342706
6.326895 -6.447908 3.388753 8342706
6.036742 -6.537444 4.171505 8342706
6.012960 -5.666639 4.220411 8342706
5.725676 -5.630944 4.229864 8342706
6.195405 -5.872709 1.887172 8342706
5.496791 -6.232513 4.635015 8342706
5.903968 -6.350017 4.698973 8342706
6.071563 -6.439838 1.326941 8342706
6.115625 -5.620247 2.035480 8342706
5.952544 -6.198730 1.694051 8342706
6.020042 -6.019151 4.545935 8342706
6.080321 -5.635903 1.152761 8342706
6.149060 -6.308551 1.578462 8342706
5.739807 -5.754292 0.124114 8342706
6.341634 -6.181825 3.057253 8342706
6.092741 -5.583601 2.634727 8342706
6.263612 -5.850018 1.007481 8342706
5.611642 -6.092577 1.912525 8342706
5.718483 -5.679596 2.238569 8342706
5.809793 -5.650742 2.595503 8342706
5.501006 -5.917360 3.594253 8342706
6.017648 -5.839206 1.877608 8342706
5.723075 -5.888674 1.443673 8342706
5.741441 -6.268282 2.809893 8342706
5.995505 -6.322113 4.862281 8342706
5.978166 -6.449223 4.820766 8342706
6.096168 -5.587265 3.828394 8342706
5.621647 -5.573853 2.004785 8342706
6.560025 -6.028988 4.245026 8342706
5.676658 -5.594007 1.938694 8342706
6.103032 -6.453410 1.684866 8342706
5.601244 -6.229797 1.861795 8342706
6.332492 -5.903978 3.514102 8342706
6.470899 -5.802332 3.818076 8342706
6.447715 -6.110172 3.860377 8342706
6.134002 -5.861434 3.344418 8342706
6.141150 -6.380230 1.014138 8342706
5.666738 -6.145314 3.345603 8342706
6.524910 -6.324986 0.133823 8342706
6.400246 -6.114226 4.929374 8342706
5.414024 -5.905192 3.773758 8342706
6.503958 -6.030549 0.223524 8342706
6.262502 -5.641276 3.716144 8342706
6.109630 -6.030483 2.466484 8342706
6.256584 -5.992774 0.704499 8342706
6.428404 -5.983663 2.418452 8342706
6.087673 -6.526793 2.775504 8342706
6.398911 -6.073668 1.395666 8342706
6.207937 -5.644733 1.089560 8342706
6.249902 -5.560940 4.334714 8342706
6.142776 -6.460524 0.738384 8342706
5.631461 -6.061800 3.186387 8342706
6.532294 -5.808041 1.101425 8342706
6.157682 -5.797218 2.580334 8342706
6.000284 -6.058535 2.548165 8342706
6.369037 -5.682165 1.798574 8342706
5.959602 -6.088005 3.838944 8342706
6.487831 -5.996690 1.579345 8342706
5.497987 -6.264419 0.723329 8342706
5.820214 -6.361692 4.973799 8342706
6.462377 -5.760747 3.984028 8342706
6.239046 -6.038880 0.121905 8342706
6.263054 -5.831439 3.588392 8342706
6.504775 -6.071422 4.570755 8342706
5.929366 -6.067700 3.133891 8342706
6.385045 -6.252690 1.756331 8342706
6.015350 -5.429328 1.967412 8342706
5.422772 -5.952859 4.243225 8342706
6.103427 -6.081086 2.973148 8342706
6.262463 -5.960302 3.252690 8342706
5.636177 -6.180134 3.339050 8342706
6.156168 -6.360484 4.406464 8342706
6.098001 -5.519701 4.117193 8342706
5.933508 -5.858122 2.921885 8342706
5.427023 -6.106091 2.044735 8342706
6.335796 -6.423864 4.867100 8342706
5.647758 -6.391427 2.957203 8342706
6.328955 -6.338045 2.382970 8342706
6.429271 -5.804482 1.048184 8342706
6.443155 -5.880207 2.264446 8342706
5.982672 -5.496068 2.038421 8342706
6.230393 -5.757885 0.484040 8342706
5.882889 -6.278225 1.575831 8342706
6.380962 -5.745062 2.468268 8342706
6.365415 -5.536458 4.080444 8342706
6.480616 -6.183228 1.490729 8342706
6.183955 -5.793996 3.253216 8342706
5.723345 -6.415525 3.112747 8342706
6.257208 -5.552854 4.469502 8342706
6.030425 -5.897016 0.759761 8342706
5.589343 -6.366339 4.396378 8342706
5.599733 -5.755384 4.269184 8342706
6.207994 -5.837620 1.381345 8342706
5.743851 -5.797615 1.074828 8342706
5.884151 -6.111098 0.621485 8342706
6.188836 -5.438810 1.186948 8342706
6.266733 -5.533953 1.168806 8342706
5.639302 -6.260341 4.276989 8342706
5.944508 -6.068720 4.931158 8342706
6.204185 -5.581100 3.775519 8342706
5.652083 -6.035627 4.267276 8342706
6.089867 -6.573237 4.272837 8342706
5.691898 -5.710638 3.970469 8342706
5.547372 -6.088411 3.771291 8342706
6.219003 -6.412616 1.046189 8342706
6.572027 -5.945983 0.499798 8342706
6.016978 -5.544125 2.926106 8342706
6.212973 -6.399714 1.645123 8342706
5.517179 -6.215446 3.904327 8342706
5.610746 -6.449670 2.798840 8342706
5.815745 -5.490703 2.250476 8342706
6.541740 -6.242029 2.074615 8342706
6.060172 -6.381701 0.536118 8342706
5.443892 -5.855477 2.619624 8342706
5.819558 -5.672972 2.542483 8342706
6.315696 -6.079089 0.226623 8342706
6.051208 -5.596857 4.336675 8342706
6.526409 -6.295735 4.423829 8342706
5.801075 -6.388943 4.429766 8342706
5.466498 -5.763499 4.334097 8342706
5.957068 -5.496129 1.524823 8342706
6.525861 -6.189514 4.011398 8342706
6.379205 -6.171105 1.414246 8342706
5.835167 -6.172775 3.752891 8342706
6.095438 -6.360453 1.904186 8342706
5.523942 -5.614255 3.381575 8342706
5.783484 -6.459669 3.539082 8342706
5.493382 -5.693692 3.915005 8342706
6.168371 -5.546669 0.032965 8342706
6.341907 -5.937645 2.642818 8342706
6.356848 -6.080053 1.742080 8342706
5.796266 -5.795208 3.223488 8342706
6.022326 -5.802843 3.164011 8342706
6.307531 -6.054009 2.014182 8342706
6.352378 -5.817917 2.218609 8342706
6.064456 -5.807238 0.091804 8342706
5.806459 -6.075388 0.111316 8342706
6.237221 -6.447086 0.879362 8342706
6.334885 -6.458574 0.737778 8342706
6.151131 -6.361339 4.237983 8342706
5.874366 -6.520350 1.827472 8342706
5.626059 -5.904427 0.995647 8342706
5.787374 -5.665647 2.695303 8342706
6.202691 -5.732136 0.406107 8342706
6.075904 -5.381369 2.089542 8342706
6.007224 -6.506584 1.081896 8342706
6.246368 -5.557121 1.280476 8342706
6.446418 -5.675090 3.618506 8342706
6.486495 -6.252259 0.333093 8342706
5.775007 -5.922113 4.011396 8342706
6.181114 -6.100616 1.730201 8342706
6.088212 -6.226087 3.251586 8342706
5.580398 -6.274939 3.692271 8342706
6.522413 -6.153526 1.862517 8342706
6.244054 -6.208496 1.703400 8342706
5.539188 -5.795012 2.492031 8342706
6.381408 -6.402670 2.030191 8342706
6.119896 -6.222665 3.567288 8342706
6.150711 -6.563685 4.294502 8342706
6.427814 -6.394155 3.681502 8342706
6.123967 -5.553258 2.009039 8342706
6.093850 -5.449789 0.894214 8342706
6.146709 -6.422328 1.171087 8342706
5.664398 -6.078328 0.121492 8342706
5.871707 -5.607082 2.605450 8342706
5.799035 -6.378189 2.624426 8342706
6.094994 -5.471161 3.477803 8342706
5.753584 -6.283538 3.365470 8342706
6.302511 -6.313349 1.085751 8342706
5.792132 -6.537243 4.761355 8342706
6.260924 -5.671634 4.899396 8342706
5.992926 -6.478524 1.879205 8342706
5.694752 -5.788749 0.297243 8342706
6.283050 -5.529353 4.296793 8342706
5.597737 -5.849268 4.371209 8342706
6.222708 -5.585919 0.498334 8342706
6.279818 -6.363062 4.012550 8342706
6.188722 -6.534407 0.574370 8342706
6.161405 -5.821609 1.021394 8342706
6.442448 -6.162236 2.780117 8342706
6.034691 -6.385131 3.734041 8342706
5.975330 -5.537205 2.058486 8342706
6.460008 -6.199282 3.292651 8342706
6.119045 -5.461693 0.241260 8342706
5.494267 -5.710863 4.400108 8342706
6.169879 -6.362519 1.672186 8342706
6.422840 -5.610011 1.873887 8342706
5.881739 -6.106686 0.901308 8342706
6.366846 -5.603917 3.691319 8342706
5.628778 -6.126666 3.751987 8342706
6.497927 -5.913449 1.184801 8342706
5.711633 -6.000222 2.422971 8342706
6.267925 -6.327976 2.955076 8342706
5.703391 -6.386751 4.100812 8342706
6.049957 -6.285569 3.899900 8342706
6.399740 -5.563110 4.931663 8342706
6.527961 -6.272705 4.664476 8342706
6.020442 -5.942721 3.871677 8342706
6.172289 -6.378405 4.332432 8342706
5.729145 -6.220128 2.006526 8342706
6.435423 -5.868310 2.097131 8342706
6.433211 -5.970605 2.207467 8342706
5.863718 -5.437984 1.065342 8342706
6.489633 -5.797336 0.281030 8342706
5.853628 -5.467131 1.398160 8342706
6.224279 -5.702259 4.852964 8342706
5.961464 -5.635016 1.233360 8342706
6.489996 -5.786866 2.259723 8342706
5.786704 -6.214526 3.670339 8342706
6.273703 -6.175026 1.520185 8342706
5.981389 -6.438796 3.986447 8342706
5.999582 -5.837919 2.292785 8342706
6.135210 -6.064568 4.077392 8342706
6.162794 -6.402291 4.357948 8342706
6.309026 -5.616750 4.756013 8342706
6.352340 -5.830820 3.604808 8342706
5.990923 -5.808992 3.171985 8342706
6.541799 -5.880996 3.044061 8342706
6.285855 -5.868141 2.848588 8342706
6.287454 -6.305779 1.976826 8342706
5.755612 -5.707063 3.613794 8342706
5.718445 -5.721981 3.087984 8342706
6.265269 -5.979797 1.450208 8342706
6.388683 -6.206296 1.086519 8342706
5.845465 -5.586242 2.979568 8342706
5.513024 -5.900634 0.116588 8342706
5.639653 -5.662283 0.443042 8342706
5.606921 -5.577959 2.861917 8342706
6.019844 -5.510007 2.122128 8342706
5.515245 -6.093511 1.877790 8342706
6.117285 -5.493495 3.478660 8342706
5.408086 -5.898839 4.591094 8342706
5.464624 -5.803058 2.924217 8342706
6.181454 -6.310794 1.857476 8342706
5.556612 -6.382467 0.853658 8342706
5.891029 -6.519508 1.625082 8342706
6.072852 -6.335345 3.428624 8342706
5.973259 -6.494377 4.619084 8342706
6.360305 -6.154120 0.793784 8342706
6.492952 -6.339703 1.445837 8342706
6.544159 -5.902102 3.422813 8342706
5.593797 -6.075331 1.115723 8342706
6.301516 -6.290263 1.941177 8342706
6.145345 -6.305729 2.938728 8342706
6.070600 -6.518353 4.960175 8342706
5.982437 -6.451105 0.618707 8342706
6.292679 -5.773491 1.749613 8342706
6.416124 -5.920280 1.319132 8342706
6.235478 -6.398625 0.513518 8342706
6.299135 -6.120906 2.899455 8342706
6.487401 -6.159613 0.099861 8342706
6.079631 -5.648493 1.219971 8342706
6.478765 -6.258238 4.295414 8342706
6.455314 -5.642741 4.806743 8342706
6.499526 -6.155129 3.628448 8342706
6.337527 -6.341927 1.613499 8342706
5.750475 -6.300032 0.414044 8342706
6.183831 -5.589366 2.697773 8342706
6.248486 -6.036746 3.855164 8342706
6.319768 -5.838318 0.398822 8342706
6.194785 -5.872137 3.950248 8342706
5.791979 -6.401415 3.292870 8342706
6.392667 -6.212652 -0.007053 8342706
6.370427 -5.739803 1.369943 8342706
6.293609 -6.017732 4.219727 8342706
6.335257 -6.085061 2.031677 8342706
5.777570 -5.574788 4.388533 8342706
5.854608 -6.022768 0.861562 8342706
6.046172 -5.728070 4.198127 8342706
5.523041 -5.715910 3.991565 8342706
6.460448 -6.114359 1.763204 8342706
6.286503 -6.433373 1.694258 8342706
6.282578 -6.222560 4.649527 8342706
5.526673 -6.336413 1.248542 8342706
6.005068 -6.248391 3.443213 8342706
6.256837 -5.559028 3.764200 8342706
6.046840 -6.574014 3.659639 8342706
5.945738 -6.025664 1.727509 8342706
5.785961 -5.628926 2.743191 8342706
6.174273 -6.300716 0.932337 8342706
6.171380 -5.993389 3.875073 8342706
6.112812 -6.288185 1.976763 8342706
5.766984 -6.143324 1.044794 8342706
6.565177 -6.022109 1.753019 8342706
5.733865 -6.111602 4.288979 8342706
6.457170 -5.784569 1.040174 8342706
5.550744 -5.870034 0.774076 8342706
6.307959 -6.030877 5.002317 8342706
6.168406 -6.551060 4.117597 8342706
6.083052 -6.412043 4.731796 8342706
6.013053 -5.825458 1.392418 8342706
6.505085 -6.148864 4.966057 8342706
6.139673 -6.090004 1.663823 8342706
5.840833 -5.970975 2.074553 8342706
5.731109 -5.964262 3.047299 8342706
6.516788 -6.268233 4.078257 8342706
5.487496 -5.883166 3.611335 8342706
6.176389 -6.082885 1.005129 8342706
5.870007 -6.268507 1.900847 8342706
5.952832 -5.647778 2.401719 8342706
6.296243 -6.289259 0.072175 8342706
5.809765 -5.568856 4.552370 8342706
5.983660 -5.473842 4.056355 8342706
5.773796 -5.438779 3.568785 8342706
6.400814 -6.354263 1.552919 8342706
5.531311 -6.024463 4.713689 8342706
6.050413 -6.532372 0.130469 8342706
6.530844 -5.968047 1.482253 8342706
6.366193 -5.541773 3.356225 8342706
5.782397 -5.888866 0.816544 8342706
6.015358 -6.013543 0.885775 8342706
5.619709 -5.885592 2.233189 8342706
5.724405 -5.636740 2.268350 8342706
5.776021 -6.110918 3.522295 8342706
6.338126 -5.501547 1.135732 8342706
5.645200 -5.775564 4.827598 8342706
5.878021 -5.783318 0.089226 8342706
5.645233 -6.449603 2.431341 8342706
5.901041 -6.471000 3.630731 8342706
6.038119 -6.591713 0.566164 8342706
6.042701 -5.697230 1.730444 8342706
6.101109 -5.924407 1.781605 8342706
6.163603 -5.781098 4.163186 8342706
5.472553 -6.251359 4.951568 8342706
6.560222 -5.841532 2.145426 8342706
6.221829 -6.452528 3.913224 8342706
6.245014 -5.709480 2.521090 8342706
6.231090 -6.368008 2.395073 8342706
6.082539 -5.636096 4.490802 8342706
5.635249 -6.295430 3.472561 8342706
5.982324 -6.453600 2.726637 8342706
6.575097 -6.097363 0.465895 8342706
5.699520 -5.670617 4.813958 8342706
6.301994 -5.804034 0.289144 8342706
5.958295 -5.739244 4.695457 8342706
6.060136 -5.548902 2.418324 8342706
6.358679 -5.929982 1.858687 8342706
5.850177 -6.342199 3.421192 8342706
6.094053 -5.703729 4.226276 8342706
6.472681 -5.830825 0.482072 8342706
6.368893 -5.762439 4.587381 8342706
6.231099 -6.054391 2.754245 8342706
6.335379 -6.255399 0.697357 8342706
5.448981 -6.015740 2.426923 8342706
5.687678 -5.944454 4.337276 8342706
6.269551 -5.905381 4.834483 8342706
6.294228 -5.574028 1.369325 8342706
5.821150 -6.240258 4.072124 8342706
6.438726 -5.679964 4.598594 8342706
5.856783 -5.513267 4.357593 8342706
5.662252 -5.853416 0.491133 8342706
6.434796 -5.832829 3.474186 8342706
6.359714 -5.745807 0.628393 8342706
5.667587 -6.088178 0.739771 8342706
