# .PCD v0.7 - Point Cloud Data file format
VERSION 0.7
FIELDS x y z rgb
SIZE 4 4 4 4
TYPE F F F U
COUNT 1 1 1 1
WIDTH 1309
HEIGHT 1
VIEWPOINT 0 0 0 1 0 0 0
POINTS 1309
DATA ascii
-4.395811 6.546504 0.482738 15014169
-4.244618 6.877330 0.383706 15014169
-4.839661 6.524732 1.127021 15014169
-4.640175 6.704916 0.594520 15014169
-4.500286 6.612511 0.910914 15014169
-4.778543 6.397089 0.489145 15014169
-4.641485 6.407186 1.025765 15014169
-4.481343 6.546003 0.763398 15014169
-4.480582 6.842422 1.486025 15014169
-4.793197 6.456488 0.874632 15014169
-4.373790 6.714749 0.915382 15014169
-4.587830 6.798766 1.053422 15014169
-4.245222 6.278372 0.803170 15014169
-4.195321 6.721631 1.549883 15014169
-4.702264 6.733466 0.582769 15014169
-4.491310 6.399798 0.926310 15014169
-4.333794 6.445098 1.179590 15014169
-4.548732 6.872416 1.227835 15014169
-4.414761 6.476037 1.040534 15014169
-4.821974 6.310089 1.584319 15014169
-4.824388 6.890926 1.316288 15014169
-4.421489 6.755426 0.502359 15014169
-4.318512 6.760705 1.060730 15014169
-4.522970 6.562838 0.932788 15014169
-4.303940 6.422731 0.377793 15014169
-4.206782 6.549304 1.359876 15014169
-4.409066 6.627532 0.487915 15014169
-4.697233 6.542892 1.095079 15014169
-4.304702 6.460454 0.844457 15014169
-4.248024 6.831880 0.447002 15014169
-4.757006 6.686119 1.087376 15014169
-4.172345 6.751905 1.436190 15014169
-4.696341 6.597737 1.182452 15014169
-4.853725 6.595994 0.919807 15014169
-4.636974 6.416358 1.557923 15014169
-4.846078 6.463151 0.690404 15014169
-4.194033 6.242313 0.941919 15014169
-4.634655 6.733182 1.272877 15014169
-4.393519 6.848835 1.630123 15014169
-4.815865 6.298346 0.351198 15014169
-4.200267 6.940161 0.828151 15014169
-4.835075 6.317737 1.520086 15014169
-4.529004 6.384325 1.179083 15014169
-4.322253 6.547085 0.347731 15014169
-4.616211 6.829292 0.433685 15014169
-4.809991 6.783246 0.504238 15014169
-4.804248 6.405067 0.721667 15014169
-4.641016 6.795377 0.627296 15014169
-4.781863 6.314837 0.808483 15014169
-4.718088 6.818396 1.126683 15014169
-4.668122 6.942031 0.882050 15014169
-4.232753 6.433177 0.731966 15014169
-4.202238 6.300231 1.534954 15014169
-4.188901 6.458656 1.576753 15014169
-4.249905 6.944465 0.453573 15014169
-4.446222 6.780363 1.314208 15014169
-4.279171 6.245240 1.615028 15014169
-4.747351 6.268119 1.665443 15014169
-4.751320 6.838892 0.302382 15014169
-4.855116 6.293704 1.182415 15014169
-4.696367 6.530512 1.640434 15014169
-4.716109 6.401642 0.966252 15014169
-4.681645 6.604601 0.941878 15014169
-4.646545 6.226391 1.360761 15014169
-4.246995 6.480000 0.958920 15014169
-4.830210 6.749913 0.626599 15014169
-4.765613 6.324603 0.565774 15014169
-4.362965 6.537862 1.268975 15014169
-4.769042 6.387692 1.436249 15014169
-4.868310 6.383245 1.466636 15014169
-4.393990 6.418595 1.429585 15014169
-4.753368 6.618201 1.128683 15014169
-4.194767 6.696728 0.800814 15014169
-4.506757 6.413384 1.680540 15014169
-4.587405 6.304614 1.671339 15014169
-4.250100 6.599411 0.359708 15014169
-4.304295 6.868866 1.182722 15014169
-4.669034 6.884424 0.334165 15014169
-4.655000 6.474978 1.477968 15014169
-4.873135 6.682782 1.078941 15014169
-4.623429 6.312271 0.508654 15014169
-4.416259 6.279375 0.369829 15014169
-4.552296 6.603738 0.315816 15014169
-4.505117 6.298923 0.456609 15014169
-4.405863 6.459993 1.390318 15014169
2.714962 -9.049622 0.596967 1690649
2.444304 -9.471626 0.765023 1690649
2.657789 -9.439345 0.693500 1690649
2.095105 -9.492546 1.308685 1690649
2.747592 -9.298176 0.504815 1690649
2.469369 -9.254146 0.598807 1690649
2.683547 -9.340944 1.007756 1690649
2.428290 -9.418003 1.092748 1690649
2.929052 -9.412786 1.301112 1690649
2.279129 -9.359606 0.947218 1690649
2.886090 -9.240395 0.538454 1690649
2.574740 -9.470197 1.770327 1690649
2.479193 -9.722650 0.175512 1690649
2.211612 -9.144384 1.062336 1690649
2.583564 -9.034660 1.028656 1690649
2.718676 -9.669162 1.158708 1690649
2.911803 -9.470805 1.014636 1690649
2.350965 -9.499487 0.557208 1690649
2.687394 -9.224317 1.391080 1690649
2.609603 -9.396845 1.158461 1690649
2.619525 -8.973542 1.736752 1690649
2.591299 -9.757977 1.180630 1690649
2.109010 -9.511957 0.860764 1690649
2.103392 -9.514130 0.888518 1690649
2.241748 -8.974847 1.520252 1690649
2.668796 -9.440780 1.858829 1690649
2.188235 -9.460522 1.403010 1690649
2.688475 -9.038381 1.818773 1690649
2.514130 -9.637181 0.647238 1690649
2.753900 -9.104305 1.226262 1690649
2.339987 -9.021131 1.405685 1690649
2.344279 -9.202370 1.588764 1690649
2.873483 -9.532574 0.979978 1690649
2.322006 -9.236693 0.759359 1690649
2.506954 -9.471029 1.080667 1690649
2.792553 -8.977676 1.100259 1690649
2.093941 -9.311732 0.519453 1690649
2.569371 -9.136276 0.607594 1690649
2.218244 -9.482947 1.285952 1690649
2.559491 -9.085110 1.886896 1690649
2.671776 -9.213397 1.087825 1690649
2.359815 -9.649749 0.343918 1690649
2.644404 -9.200272 1.894752 1690649
2.492812 -9.634248 0.986206 1690649
2.232080 -9.016523 1.870546 1690649
2.729022 -9.502547 1.134536 1690649
2.548113 -9.653866 1.419989 1690649
2.472145 -9.165735 0.987333 1690649
2.356476 -8.924355 1.046841 1690649
2.465161 -8.996674 1.378076 1690649
2.322870 -9.184544 1.249180 1690649
2.655873 -8.938582 0.406768 1690649
2.896625 -9.227083 1.509198 1690649
2.285033 -9.137080 1.007678 1690649
2.100980 -9.491595 1.846785 1690649
2.456347 -9.698576 1.694878 1690649
2.316389 -9.416739 0.822185 1690649
2.331733 -9.197796 0.580778 1690649
2.858965 -9.573443 0.934460 1690649
2.464355 -9.362898 1.482671 1690649
2.144054 -9.365627 0.919757 1690649
2.651752 -9.311930 0.125152 1690649
2.275493 -9.202433 0.203323 1690649
2.530465 -9.726446 0.213996 1690649
2.489966 -9.083629 0.972691 1690649
2.625692 -9.548748 1.711513 1690649
2.326548 -9.615658 1.658280 1690649
2.558124 -9.767260 1.767355 1690649
2.280160 -9.168054 0.225871 1690649
2.180638 -9.476065 0.337230 1690649
2.312647 -9.247363 1.332090 1690649
2.636099 -9.475283 0.658118 1690649
2.332103 -9.593497 1.635138 1690649
2.869019 -9.393841 1.134098 1690649
2.651609 -9.349113 0.103990 1690649
2.480071 -8.974697 1.215623 1690649
2.555445 -9.174334 0.223014 1690649
2.483531 -9.670084 1.112042 1690649
2.800029 -9.369669 0.736275 1690649
2.689439 -9.061965 1.189022 1690649
2.445986 -8.914595 0.221490 1690649
2.482296 -9.516830 0.461446 1690649
2.585685 -9.163966 0.897071 1690649
2.339170 -9.279137 1.760881 1690649
2.160691 -9.225477 0.663025 1690649
2.591862 -9.711211 0.191108 1690649
2.475535 -9.700797 1.448861 1690649
2.334944 -9.645356 0.155453 1690649
2.712479 -9.156314 1.502349 1690649
2.799390 -9.539683 1.255548 1690649
2.522621 -9.032884 1.693458 1690649
2.432498 -8.994180 1.113116 1690649
2.723029 -9.042453 0.757590 1690649
2.286516 -9.417480 0.186026 1690649
2.287664 -9.005286 1.261083 1690649
2.792302 -9.610303 0.586968 1690649
2.310292 -9.194820 1.649519 1690649
2.405407 -9.310235 1.881990 1690649
2.778407 -9.174662 0.485872 1690649
2.386813 -9.552368 1.626605 1690649
2.150183 -9.566371 0.974546 1690649
2.400218 -9.047651 1.723924 1690649
2.352074 -9.582976 1.470664 1690649
2.204558 -9.101627 0.619827 1690649
2.275774 -9.117002 0.154371 1690649
2.206865 -9.652955 1.132868 1690649
2.264685 -9.109052 0.603609 1690649
2.319636 -9.134810 1.078317 1690649
2.147460 -9.537272 0.787255 1690649
2.297346 -9.460465 1.287277 1690649
2.848451 -9.603900 0.152202 1690649
2.509111 -8.908718 1.875605 1690649
2.907990 -9.248097 0.946616 1690649
2.701611 -9.717506 1.809553 1690649
2.887281 -9.247009 1.460188 1690649
2.615290 -9.609027 1.047298 1690649
2.745907 -9.160504 1.366111 1690649
2.535794 -9.658772 1.142595 1690649
2.440155 -9.004192 0.769639 1690649
2.556941 -9.736906 0.158645 1690649
2.110283 -9.368089 0.955910 1690649
2.213278 -9.071944 0.303844 1690649
2.797409 -9.225503 1.328982 1690649
2.719190 -9.611634 0.107722 1690649
2.279143 -9.326838 1.079968 1690649
2.559255 -9.556485 0.249316 1690649
2.135558 -9.378904 0.930120 1690649
2.483306 -9.637384 0.465420 1690649
2.893057 -9.156262 0.694943 1690649
2.199682 -9.239994 1.838074 1690649
2.406085 -9.200034 0.230873 1690649
2.634304 -9.365110 0.450522 1690649
2.816452 -9.656336 0.915582 1690649
2.072308 -9.146697 1.391040 1690649
2.281951 -9.246835 1.531197 1690649
2.326803 -9.334814 0.317427 1690649
2.677338 -9.624500 1.454409 1690649
2.444539 -9.374572 0.505262 1690649
2.714131 -9.468243 1.350842 1690649
2.626432 -9.123919 0.202792 1690649
2.125551 -9.370034 0.668447 1690649
2.916324 -9.445469 0.753036 1690649
2.797557 -9.221377 1.300519 1690649
2.395834 -9.260108 0.910375 1690649
2.208607 -9.336972 0.642600 1690649
2.931221 -9.157946 1.200468 1690649
2.570394 -9.456819 1.310874 1690649
2.348134 -9.238214 1.672925 1690649
2.532324 -8.947918 1.189666 1690649
2.899586 -9.308888 1.278711 1690649
2.712698 -9.530146 0.513162 1690649
2.282800 -9.320055 1.000674 1690649
2.584707 -9.318144 1.226494 1690649
2.677983 -9.414393 0.692207 1690649
-4.345145 7.166245 0.456495 10053171
-5.969452 7.090966 0.422323 10053171
-4.444763 6.962817 2.378343 10053171
-5.169509 7.162868 2.885190 10053171
-3.839253 6.992418 0.275764 10053171
-6.688852 6.770959 2.486422 10053171
-4.106199 7.173296 2.559898 10053171
-3.184518 6.973740 1.356283 10053171
-4.399714 6.988021 0.509393 10053171
-3.500812 7.194642 2.549103 10053171
-3.688207 7.182981 2.494266 10053171
-3.273197 6.968508 0.845394 10053171
-3.988150 7.046849 0.152167 10053171
-4.961777 6.818645 1.136536 10053171
-6.838730 6.990444 0.174489 10053171
-4.615910 7.100142 2.227782 10053171
-6.433177 6.968304 1.222264 10053171
-4.645391 6.937799 0.438902 10053171
-6.916473 6.738839 2.812384 10053171
-6.294990 7.218853 2.890961 10053171
-6.073696 7.063241 0.754083 10053171
-6.143813 6.812516 2.817339 10053171
-3.747066 6.852362 2.234239 10053171
-4.821216 7.060799 2.515162 10053171
-6.573605 7.004723 2.659164 10053171
-6.038125 7.146608 1.118722 10053171
-3.418258 7.154697 1.455384 10053171
-4.610242 6.977711 1.346628 10053171
-6.010982 7.230142 2.394777 10053171
-6.673154 7.034601 2.938407 10053171
-6.875775 7.062252 1.109927 10053171
-5.963530 6.767472 0.155369 10053171
-6.139676 7.017488 1.956299 10053171
-3.868377 6.974163 0.576958 10053171
-4.694329 7.140481 0.106997 10053171
-5.876121 7.175275 2.073831 10053171
-4.830145 6.962198 1.425745 10053171
-5.518170 7.246986 2.737561 10053171
-5.053973 6.741531 1.305997 10053171
-6.153841 6.991941 2.555538 10053171
-4.480346 6.935757 2.117406 10053171
-4.092508 7.109386 1.123490 10053171
-3.880238 6.757872 0.890691 10053171
-4.717837 6.940621 2.229016 10053171
-5.550560 6.966279 0.649777 10053171
-3.793280 7.066069 1.159487 10053171
-3.495716 7.088486 2.129330 10053171
-4.280248 7.186759 0.699688 10053171
-4.108454 7.248490 2.556014 10053171
-5.277010 6.962121 1.615482 10053171
-6.764034 7.068279 2.619802 10053171
-5.671275 6.971550 1.210744 10053171
-5.773232 6.843723 2.777570 10053171
-3.528525 6.862432 2.709105 10053171
-3.084380 6.884592 0.649353 10053171
-5.054778 7.038516 2.167204 10053171
-3.495736 7.067019 0.814918 10053171
-5.437252 7.035594 1.624911 10053171
-3.354622 7.067226 2.164849 10053171
-6.461033 7.187070 0.033279 10053171
-6.362870 6.744241 2.582793 10053171
-4.399815 6.933740 2.934389 10053171
-6.305346 6.961548 0.891038 10053171
-3.770325 7.173887 1.039026 10053171
-3.556076 7.066213 2.686927 10053171
-4.167571 6.929452 2.147548 10053171
-6.349894 6.808157 1.043017 10053171
-3.777755 7.003710 1.937191 10053171
-3.915611 7.044320 1.253891 10053171
-5.435924 7.210089 0.686952 10053171
-5.937315 6.943608 2.499101 10053171
-3.283126 6.943830 1.522081 10053171
-6.802969 6.743126 2.284047 10053171
-3.685086 6.975764 1.001047 10053171
-6.507173 7.212570 1.578774 10053171
-5.302048 6.973528 0.854412 10053171
-6.489968 6.888128 0.446322 10053171
-4.536074 7.081913 2.277520 10053171
-6.740948 7.172830 1.148056 10053171
-4.021022 6.900556 0.260293 10053171
-5.781301 7.226077 0.706706 10053171
-6.963429 7.084367 2.921088 10053171
-3.139154 7.070739 2.175465 10053171
-4.115415 7.097789 0.020183 10053171
-4.437059 7.173964 1.344406 10053171
-6.606696 7.235970 0.426201 10053171
-5.832911 6.854270 0.172143 10053171
-3.251322 6.875158 0.171638 10053171
-6.517034 6.918344 1.325199 10053171
-5.972615 6.843194 0.000258 10053171
-5.463598 7.055767 1.759313 10053171
-6.392025 7.006913 2.964641 10053171
-6.068647 6.818501 2.960380 10053171
-4.240787 7.222841 1.412351 10053171
-4.299889 7.115726 2.202817 10053171
-3.927130 7.196372 2.390655 10053171
-5.653768 7.203378 0.386326 10053171
-5.341619 6.916405 0.475604 10053171
-3.334436 6.962055 0.976519 10053171
-6.862022 6.946401 0.247696 10053171
-4.486165 6.802571 1.783327 10053171
-6.234267 7.220458 1.541280 10053171
-3.842463 7.185028 0.883129 10053171
-3.791512 6.953270 2.068913 10053171
-4.815907 7.137260 1.227969 10053171
-5.644083 7.239974 1.606809 10053171
-4.242885 6.959875 0.433086 10053171
-5.521642 7.216410 0.316597 10053171
-3.280270 7.086747 0.154233 10053171
-5.105829 6.793581 1.788097 10053171
-5.607754 7.044297 2.635697 10053171
-5.444647 6.866613 2.373435 10053171
-4.448827 6.933772 0.692996 10053171
-4.772541 6.934128 2.328245 10053171
-6.502707 6.962758 1.166044 10053171
-5.722062 6.793276 1.380986 10053171
-4.580704 6.900107 1.774173 10053171
-4.055910 7.071606 2.571428 10053171
-3.307569 7.032880 0.181856 10053171
-4.637141 6.750824 1.410704 10053171
-3.806023 7.214968 0.854453 10053171
-5.178458 6.862624 0.240232 10053171
-6.445133 6.777168 0.312541 10053171
-5.590103 7.009612 0.809210 10053171
-3.141860 7.180242 1.566678 10053171
-5.347256 7.071509 2.728343 10053171
-5.312180 6.943650 2.715568 10053171
-4.397474 6.888932 0.766797 10053171
-6.984470 7.109871 2.674449 10053171
-4.278069 7.048769 2.897087 10053171
-4.863897 6.958177 0.238339 10053171
-6.470783 6.878410 2.240752 10053171
-5.358356 6.919237 1.739994 10053171
-5.270203 7.043590 1.653440 10053171
-4.650111 6.846969 0.813655 10053171
-3.278844 6.830445 0.437864 10053171
-4.008747 6.946392 1.206019 10053171
-3.757279 7.225196 0.780438 10053171
-5.114530 7.045833 2.745486 10053171
-4.755793 7.176772 1.086991 10053171
-5.660534 6.790866 2.547538 10053171
-5.395259 7.158564 2.285997 10053171
-6.033683 7.014444 2.979101 10053171
-3.725339 6.936920 1.059180 10053171
-4.237797 7.100748 2.720851 10053171
-5.929361 7.045214 0.660339 10053171
-4.974231 6.805718 2.309196 10053171
-3.923707 6.821185 1.365255 10053171
-6.000355 7.193839 1.723956 10053171
-3.632720 7.201281 0.386792 10053171
-5.869391 6.936327 2.254855 10053171
-6.552845 6.876542 1.771991 10053171
-4.761177 6.772748 2.792275 10053171
-6.490247 7.159154 1.232541 10053171
-3.571234 7.013711 1.070350 10053171
-6.269775 6.818444 1.547202 10053171
-3.040143 6.850209 1.557523 10053171
-6.380262 7.241624 0.942501 10053171
-4.770700 6.992891 1.223862 10053171
-6.399874 7.095908 0.911212 10053171
-6.882461 6.904288 2.279005 10053171
-3.721354 7.212331 1.810174 10053171
-4.208417 7.191887 0.816662 10053171
-6.319261 6.784199 2.945050 10053171
-3.027905 6.768788 2.270180 10053171
-6.410402 6.911594 1.496198 10053171
-6.321047 6.973169 0.987395 10053171
-5.166992 6.783101 1.219673 10053171
-3.950723 7.163915 0.935649 10053171
-6.424030 7.088854 0.854903 10053171
-6.246264 6.739313 2.092562 10053171
-3.530462 7.044225 0.947263 10053171
-5.310778 6.968544 2.310213 10053171
-4.490942 6.767054 0.617202 10053171
-5.568518 7.217924 0.161151 10053171
-3.618413 6.918200 1.817964 10053171
-6.994082 7.182775 2.107181 10053171
-6.177955 7.176809 1.935228 10053171
-4.717720 6.903237 0.459830 10053171
-5.535741 6.944023 1.735855 10053171
-6.735839 6.785635 1.262985 10053171
-5.572540 6.806075 1.508306 10053171
-6.430111 6.865993 2.027112 10053171
-5.974218 6.781796 1.063894 10053171
-5.770495 6.760546 2.083941 10053171
-5.547332 6.812898 1.558607 10053171
-3.368987 7.049399 2.626812 10053171
-5.052850 7.031838 0.355319 10053171
-4.195380 7.179271 0.582436 10053171
-5.073827 7.129447 0.840189 10053171
-6.391527 6.925575 2.852694 10053171
-6.883477 6.817804 2.537946 10053171
-6.706980 6.761535 0.420929 10053171
-3.238980 7.075866 1.578061 10053171
-6.034696 6.750636 2.583863 10053171
-4.080493 6.922088 1.548083 10053171
-6.722536 7.206985 0.617689 10053171
-6.890934 6.929526 2.975569 10053171
-4.472160 6.915582 1.924598 10053171
-4.922371 7.081080 2.545534 10053171
-3.988270 7.119907 0.789776 10053171
-4.141921 7.244691 0.513062 10053171
-3.916858 6.774632 1.136384 10053171
-3.464462 7.189898 2.476495 10053171
-3.377534 7.182874 0.182938 10053171
-3.164961 6.776020 0.453973 10053171
-4.776562 7.210663 1.105523 10053171
-6.918918 7.097953 0.585523 10053171
-6.264174 6.760846 1.877304 10053171
-6.646602 6.907950 0.616499 10053171
-6.349506 7.182750 1.725803 10053171
-6.428637 6.811848 1.126941 10053171
-4.994987 6.822176 0.285234 10053171
-5.303884 7.024352 1.127717 10053171
-5.988640 7.072429 1.256767 10053171
-3.177784 6.999695 2.048236 10053171
-4.535272 6.916947 0.143460 10053171
-6.033805 6.842217 0.161654 10053171
-3.648149 7.147948 0.329689 10053171
-3.317854 7.185796 2.603388 10053171
-4.010179 6.905084 2.677051 10053171
-4.117827 6.858641 2.965354 10053171
-5.526136 7.114487 1.923295 10053171
-4.335856 7.163665 0.735540 10053171
-4.253726 6.955201 0.587590 10053171
-3.614621 7.145952 0.609848 10053171
-3.738163 6.951344 0.935625 10053171
-4.638158 7.010817 0.613621 10053171
-4.190434 6.925581 0.186075 10053171
-6.547155 6.815895 2.375671 10053171
-4.724686 7.164210 0.505249 10053171
-5.163148 6.991959 1.459753 10053171
-6.459006 7.254499 1.316169 10053171
-6.980614 7.039925 2.088953 10053171
-6.606070 7.259847 1.470045 10053171
-5.037522 7.149650 2.892131 10053171
-4.714638 6.834802 0.727548 10053171
-4.288135 6.913178 1.286897 10053171
-5.414129 6.794683 2.076762 10053171
-3.994808 6.760015 2.838051 10053171
-5.954647 7.020908 1.402791 10053171
-6.725189 6.761537 0.265687 10053171
-3.289148 7.151441 2.700002 10053171
-5.107930 7.062651 1.725256 10053171
-5.850830 7.195422 0.490578 10053171
-6.234136 6.860293 1.088659 10053171
-6.947772 7.084473 1.637839 10053171
-5.737274 7.209258 2.555132 10053171
-6.223362 6.927844 2.045016 10053171
-3.789319 6.959211 1.363817 10053171
-5.716105 7.157322 0.891124 10053171
-3.120245 6.826433 0.979597 10053171
-3.920585 6.846815 1.114506 10053171
-5.353156 7.175459 1.632059 10053171
-3.521062 6.762078 0.869199 10053171
-4.670468 7.232085 1.563506 10053171
-3.658735 7.011441 2.194445 10053171
-4.566040 7.120605 2.687014 10053171
-4.889695 7.083863 2.099859 10053171
-6.906834 6.784665 2.401137 10053171
-3.419954 7.110288 0.851425 10053171
-5.541160 7.053050 2.917932 10053171
-4.843022 6.909847 0.685745 10053171
-4.598833 7.006858 2.188895 10053171
-6.906380 7.030586 2.221144 10053171
-3.638373 6.860958 1.231163 10053171
-4.341715 6.920832 0.835473 10053171
-6.463109 6.788558 2.076831 10053171
-6.037437 6.780074 2.086111 10053171
-4.850455 6.782683 0.960540 10053171
-3.710225 6.862639 0.019429 10053171
-4.889484 7.130860 2.473267 10053171
-3.757102 6.985531 2.490452 10053171
-5.183309 7.088662 1.504393 10053171
-6.227964 6.861325 1.588374 10053171
-6.670880 7.177240 2.925985 10053171
-3.942719 6.909707 0.947137 10053171
-6.249601 7.041160 0.938564 10053171
-4.884205 7.156097 1.506683 10053171
-3.279892 7.202325 0.925825 10053171
-6.367046 7.070580 1.859110 10053171
-5.674125 6.814676 1.339257 10053171
-3.556513 6.892238 0.418066 10053171
-5.655575 6.793170 2.101246 10053171
-4.300519 7.271323 0.447814 10053171
-3.207873 7.005702 1.455578 10053171
-3.113195 6.943967 1.810076 10053171
-4.098345 6.780885 0.890035 10053171
-4.265869 7.190852 1.331339 10053171
-3.095383 6.860952 0.305901 10053171
-4.010160 7.114583 1.438187 10053171
-5.437297 6.931035 1.051064 10053171
-3.984148 6.974226 0.367490 10053171
-3.797987 6.945096 0.167079 10053171
-5.718325 7.236113 1.870495 10053171
-5.685046 7.200106 1.786794 10053171
-6.036998 6.766228 2.371712 10053171
-3.596493 6.957009 0.813955 10053171
-5.208388 7.105646 1.192525 10053171
-5.118991 6.818172 2.503135 10053171
-4.299336 7.183412 0.624925 10053171
-6.963778 7.221462 0.060519 10053171
-4.003910 6.785955 1.107702 10053171
-4.067415 6.773496 1.834171 10053171
-5.408958 6.852799 2.733413 10053171
-3.279989 7.050237 1.532924 10053171
-3.327779 7.228348 0.033147 10053171
-3.232204 6.814360 1.491179 10053171
-4.640531 6.967039 1.563530 10053171
-4.972270 6.847025 0.159358 10053171
-6.817785 6.821355 1.552866 10053171
-5.542469 6.923314 0.144243 10053171
-6.916799 6.909500 1.427416 10053171
-4.196112 6.764417 1.309554 10053171
-6.367650 6.919965 0.248277 10053171
-3.363422 6.735132 2.839974 10053171
-4.131119 6.794848 1.407516 10053171
-4.736682 6.825764 1.927767 10053171
-6.149760 6.809096 0.148457 10053171
-5.232010 7.155299 1.858445 10053171
-6.261810 7.121872 2.243007 10053171
-5.137043 7.075491 1.400007 10053171
-6.429573 6.918993 1.338560 10053171
-5.465405 7.083990 0.273430 10053171
-4.952158 7.163671 1.810661 10053171
-3.863985 6.995777 1.616758 10053171
-5.418301 7.081999 2.731333 10053171
-5.709503 7.055871 2.984389 10053171
-6.835661 7.142361 0.784297 10053171
-4.915040 7.165810 1.126280 10053171
-6.978767 6.945147 0.265817 10053171
-6.728901 6.984919 1.042879 10053171
-4.304456 6.802654 1.919024 10053171
-3.977853 7.156084 0.066053 10053171
-3.106956 7.058831 1.340878 10053171
-3.851032 7.016583 0.406198 10053171
-3.119870 6.758806 1.711793 10053171
-3.474867 6.865375 0.328591 10053171
-6.608260 7.099384 1.206728 10053171
-4.083575 7.134991 0.732577 10053171
-3.809548 7.009017 2.064482 10053171
-3.794029 7.010800 1.236829 10053171
-4.625145 7.120297 2.662364 10053171
-4.615342 7.240178 2.364548 10053171
-6.254762 7.154602 0.893290 10053171
-3.118335 6.923958 0.014055 10053171
-4.417224 6.772608 0.504561 10053171
-5.185741 7.014858 2.861064 10053171
-5.328583 6.996488 2.495467 10053171
-3.653678 7.223741 1.082311 10053171
-4.851203 6.767550 0.075770 10053171
-4.755765 7.112226 0.898068 10053171
-4.072416 6.876660 1.509884 10053171
-3.541964 6.967958 0.953925 10053171
-6.957225 7.103265 0.899952 10053171
-3.911475 6.938810 1.371959 10053171
-3.594102 6.942768 2.728874 10053171
-5.510799 6.834665 2.591628 10053171
-5.393068 6.775466 2.392426 10053171
-3.034252 6.806397 2.933512 10053171
-6.144390 6.821520 2.050713 10053171
-4.432853 7.137323 0.771884 10053171
-4.532115 7.034128 0.689581 10053171
-3.198358 7.228926 2.724207 10053171
-5.873209 7.214202 2.522902 10053171
-4.197046 6.902044 2.130589 10053171
-3.185633 6.922781 0.506023 10053171
-4.992599 6.833014 1.870993 10053171
-3.737725 6.967031 0.062249 10053171
-4.319571 7.221097 0.523392 10053171
-6.207130 6.867671 1.533947 10053171
-3.873932 7.204071 0.575883 10053171
-5.431831 6.772364 1.452673 10053171
-3.212987 6.823116 2.192263 10053171
-3.456529 6.965962 0.333260 10053171
-3.944234 7.242513 2.034173 10053171
-6.165728 7.187746 0.280638 10053171
-6.558095 6.898651 0.546196 10053171
-4.608650 6.886795 1.213499 10053171
-5.132498 6.798091 0.022584 10053171
-5.455915 6.817825 0.524888 10053171
-3.774531 6.780887 0.418883 10053171
-5.334792 7.202461 0.705982 10053171
-3.190233 7.188927 1.368343 10053171
-4.943161 6.780645 2.547598 10053171
-6.753669 7.129390 1.623490 10053171
-4.818332 6.780504 1.165120 10053171
-4.093914 7.058277 1.629468 10053171
-4.081110 7.030924 1.607212 10053171
-3.486674 6.925951 2.926180 10053171
-4.069297 7.129106 2.896527 10053171
-6.610319 6.905746 1.751005 10053171
-5.195326 7.059917 1.674845 10053171
-5.113849 7.180836 2.148523 10053171
-4.514051 6.860062 0.031162 10053171
-5.321812 6.755558 2.579822 10053171
-5.169015 6.768206 1.375139 10053171
-4.075477 6.877900 0.713282 10053171
-4.376380 7.045266 1.034543 10053171
-5.236250 7.113142 0.703825 10053171
-3.768399 6.776999 1.913190 10053171
-3.659188 7.241517 2.743553 10053171
-3.334636 7.135966 0.995105 10053171
-4.082392 7.210884 2.646200 10053171
-3.091819 7.168474 2.857360 10053171
-3.581584 7.028736 1.673592 10053171
-5.319911 7.116436 0.082256 10053171
-3.910365 6.928815 2.303381 10053171
-6.418099 7.045131 2.526198 10053171
-3.113145 7.088410 2.773760 10053171
-4.877217 7.156024 0.137321 10053171
-5.909449 6.909715 0.147078 10053171
-4.259852 7.042773 0.564502 10053171
-4.629910 7.102750 -0.009040 10053171
-6.622280 7.212660 1.361595 10053171
-6.051397 6.914457 0.091433 10053171
-5.827386 6.761315 2.909481 10053171
-4.499238 7.045949 2.831568 10053171
-5.619165 7.201858 2.561873 10053171
-3.100367 6.944129 0.611766 10053171
-5.754218 6.935764 0.598773 10053171
-4.069390 7.115612 1.537633 10053171
-4.687186 6.781202 1.661624 10053171
-4.988924 7.142317 1.223099 10053171
-4.439743 6.964585 0.501283 10053171
-5.305441 7.242168 0.316334 10053171
-3.877472 6.947821 0.825008 10053171
-4.234548 6.923837 2.671261 10053171
-5.255293 7.106767 1.723284 10053171
-3.016542 6.972876 0.244779 10053171
-5.435521 6.857685 1.048652 10053171
-6.583171 7.077114 2.730688 10053171
-5.112515 6.837922 1.639992 10053171
-3.051332 6.910934 0.734566 10053171
-6.563049 6.992335 1.176880 10053171
-3.069557 6.981414 0.192145 10053171
-6.285096 7.216257 1.914570 10053171
-3.696168 6.920522 1.358085 10053171
-4.184022 7.093435 0.212018 10053171
-3.837460 7.152702 1.812014 10053171
-4.171592 7.006582 1.335629 10053171
-3.091065 6.806196 0.746688 10053171
-5.606974 7.236103 0.133838 10053171
-5.682508 7.022873 2.799456 10053171
-4.794664 6.949821 1.801542 10053171
-5.941651 7.156743 2.036267 10053171
-3.322556 7.116733 0.986634 10053171
-6.509933 6.813120 0.718658 10053171
-6.584329 7.057815 1.916078 10053171
-3.736171 6.852200 0.033571 10053171
-4.624846 7.131638 2.021235 10053171
-5.598570 6.762252 2.666278 10053171
-3.966273 7.106885 0.432396 10053171
-3.914648 6.787337 1.654474 10053171
-5.396047 7.019166 0.820684 10053171
-4.834078 6.844117 1.750800 10053171
-5.777284 6.942651 1.075896 10053171
-6.626178 6.852614 0.161247 10053171
-4.514141 6.971938 1.713617 10053171
-3.711934 7.113819 2.801760 10053171
-5.710845 6.849967 0.075261 10053171
-5.690755 7.046868 0.377422 10053171
-4.255925 6.849993 0.849251 10053171
-5.870187 6.848231 2.066345 10053171
-4.918996 6.812974 2.930439 10053171
-3.164473 6.994039 2.020689 10053171
-3.610918 6.899379 1.078810 10053171
-4.798802 7.132961 2.847761 10053171
-4.519367 7.134467 1.481775 10053171
-3.455710 7.102922 1.067502 10053171
-3.138552 7.158959 0.513205 10053171
-5.412318 7.096538 0.819197 10053171
-6.663400 6.969334 2.581555 10053171
-3.288476 6.897270 2.386403 10053171
-5.859086 7.147765 2.072563 10053171
-4.676917 6.915445 1.461405 10053171
-4.298563 6.830836 2.113683 10053171
-3.014777 6.742875 2.456408 10053171
-3.036606 6.994856 1.063990 10053171
-4.386409 7.199838 0.310203 10053171
-5.497204 7.230424 2.287582 10053171
-5.613746 7.128534 1.107055 10053171
-3.876025 6.900257 1.857313 10053171
-4.667255 7.083259 2.928050 10053171
-4.755447 7.159432 2.663008 10053171
-6.292758 7.044091 1.600556 10053171
-3.115272 7.214145 0.317317 10053171
-4.524321 6.897348 2.796682 10053171
-3.052492 6.916641 1.120841 10053171
-4.463408 7.257985 2.832197 10053171
-5.031729 6.903448 2.679160 10053171
-3.199813 6.963546 0.514878 10053171
-5.994957 6.809415 0.789791 10053171
-4.718733 7.161304 0.323028 10053171
-3.017374 7.066324 0.567541 10053171
-5.452507 6.911206 1.081732 10053171
-3.924293 6.802444 0.629304 10053171
-6.068352 6.975558 2.725097 10053171
-3.316262 6.949827 0.561042 10053171
-5.723425 6.742627 2.823393 10053171
-4.206337 6.843975 0.637961 10053171
-6.613233 6.987684 2.961738 10053171
-6.904211 7.255916 2.524340 10053171
-6.886701 7.217981 0.746117 10053171
-5.253843 6.998307 2.446226 10053171
-5.197067 6.963755 1.256955 10053171
-3.155295 7.152686 1.891274 10053171
-6.376642 6.964758 1.717229 10053171
-4.084854 6.869234 0.127206 10053171
-3.488864 6.897477 0.010520 10053171
-6.122612 6.891982 1.913958 10053171
-3.099283 7.074502 0.784773 10053171
-3.567966 7.025015 2.716009 10053171
-4.260863 7.065397 2.647117 10053171
-3.437725 6.885617 2.427402 10053171
-5.112882 6.896032 2.885539 10053171
-4.467530 7.108011 1.056527 10053171
-6.608453 6.842021 2.045478 10053171
-3.836206 6.864932 2.286037 10053171
-3.543576 6.988094 1.034708 10053171
-4.296914 6.758600 0.881049 10053171
-3.849848 7.015306 1.000084 10053171
-5.343441 6.955298 2.093024 10053171
-3.240332 6.837855 0.496276 10053171
-3.404788 7.238522 0.627633 10053171
-6.368966 6.758958 1.218317 10053171
-5.818160 7.209655 1.586657 10053171
-3.811849 6.884185 0.811255 10053171
-6.568248 6.855546 1.594624 10053171
-4.374064 6.807597 0.984442 10053171
-5.661928 6.920889 0.052718 10053171
-4.411033 7.005431 1.191501 10053171
-4.183693 6.905197 2.130738 10053171
-3.289577 7.192319 1.308896 10053171
-3.743406 7.218497 2.655331 10053171
-5.888028 6.830131 0.038815 10053171
-5.682913 6.820798 1.556262 10053171
-4.934739 6.960544 2.475684 10053171
-6.080229 7.054324 1.122431 10053171
-6.778843 7.225778 2.119099 10053171
-5.461313 6.872819 1.243870 10053171
-6.177001 6.917563 2.911601 10053171
-5.552238 6.779828 2.408150 10053171
-4.513225 7.158674 1.531873 10053171
-5.293008 6.884142 0.632809 10053171
-6.030925 7.217609 1.498419 10053171
-3.519892 6.851987 2.526361 10053171
-5.671836 6.937101 2.265204 10053171
-6.061356 6.966275 1.459255 10053171
-6.590866 6.865658 1.255970 10053171
-6.773670 7.072203 2.608685 10053171
-6.548050 6.856291 1.828609 10053171
-6.060999 6.974841 2.795889 10053171
-4.207015 7.175913 2.758886 10053171
-4.911575 7.077107 2.196216 10053171
-4.878925 7.139934 0.045630 10053171
-4.088249 6.841104 1.585851 10053171
-6.983405 7.243982 0.324482 10053171
-5.504171 7.147976 0.043227 10053171
-3.509772 6.827326 0.739439 10053171
-6.066187 6.785223 0.900060 10053171
-3.540869 6.795743 2.833775 10053171
-3.521732 7.168838 0.916248 10053171
-5.203589 6.814063 2.958603 10053171
-6.941980 6.840476 2.337827 10053171
-4.326111 6.842412 0.576444 10053171
-4.587803 6.862823 0.877154 10053171
-3.495010 6.811170 0.296959 10053171
-6.425219 7.002459 1.130432 10053171
-5.296618 7.218034 1.665796 10053171
-4.219139 7.180768 1.733417 10053171
-5.736278 7.130855 0.939338 10053171
-4.657984 6.961675 2.957466 10053171
-5.844954 7.026073 1.044783 10053171
-5.196485 7.127680 0.282645 10053171
-4.811625 6.858295 2.746085 10053171
-3.332388 7.006526 0.803711 10053171
-3.911393 7.022949 1.813271 10053171
-5.767533 6.988496 1.309149 10053171
-3.324335 6.976050 1.652700 10053171
-3.004690 7.218327 0.793846 10053171
-3.199807 7.226132 2.786269 10053171
-3.166852 7.176083 2.291078 10053171
-6.069063 6.930621 2.262297 10053171
-6.807827 7.061827 2.046287 10053171
-4.084483 6.793263 1.168399 10053171
-3.194465 7.221772 1.688475 10053171
-6.923019 7.165927 1.456956 10053171
-4.301385 6.889846 1.120126 10053171
-5.314924 7.042593 0.107166 10053171
-6.804880 7.146455 2.887150 10053171
-4.216231 6.820989 2.435818 10053171
-3.447480 7.033715 2.644151 10053171
-3.074289 6.752316 1.130730 10053171
-3.502382 7.219065 0.567885 10053171
-3.466800 6.954329 2.308420 10053171
-4.079629 7.069136 2.696498 10053171
-3.746305 7.064167 2.918529 10053171
-5.758409 6.919305 0.485974 10053171
-4.719197 7.117851 1.562004 10053171
5.893648 -5.983599 1.155532 8342706
6.124386 -5.723042 1.806550 8342706
5.442131 -6.087494 3.631362 8342706
6.179572 -6.461310 0.569623 8342706
5.441599 -6.220609 3.037792 8342706
6.167893 -6.451574 4.084544 8342706
6.357065 -6.056098 4.903128 8342706
6.205488 -5.639144 0.321157 8342706
6.006384 -6.184008 3.996633 8342706
6.194987 -6.007419 0.470652 8342706
5.603471 -5.694420 1.993813 8342706
6.162924 -6.440852 3.294381 8342706
6.535903 -5.799208 4.811664 8342706
6.051930 -5.627543 2.389751 8342706
6.463307 -5.974360 1.319734 8342706
6.102813 -6.225890 2.947113 8342706
6.528737 -5.862611 0.302139 8342706
6.349049 -6.404834 2.973385 8342706
6.319053 -5.516823 2.211823 8342706
6.473729 -6.359115 2.664430 8342706
6.195773 -6.097224 2.985701 8342706
6.299232 -5.574266 2.039182 8342706
5.631602 -6.301624 3.515217 8342706
5.811127 -5.569349 0.192432 8342706
5.636306 -5.764532 0.526009 8342706
6.510245 -5.802448 1.411844 8342706
6.054119 -5.435182 0.773628 8342706
6.202284 -6.326272 1.497574 8342706
6.422506 -6.141369 1.598950 8342706
6.537603 -6.034770 3.485456 8342706
5.627539 -6.194587 3.393163 8342706
5.831101 -6.175206 4.730524 8342706
5.775462 -5.517192 2.050776 8342706
6.325407 -5.787549 2.875469 8342706
6.248547 -5.945492 3.540549 8342706
5.431976 -6.094759 0.538514 8342706
6.390473 -5.807436 1.992906 8342706
5.910578 -5.777441 1.716271 8342706
5.733993 -5.856074 3.144211 8342706
5.656847 -6.170288 1.862411 8342706
5.816293 -5.531649 0.773188 8342706
6.457510 -6.088368 0.368553 8342706
5.988050 -6.127317 4.291260 8342706
5.576164 -6.177250 4.564764 8342706
5.748788 -5.745032 4.171038 8342706
5.746773 -5.937456 3.129064 8342706
6.047914 -5.983863 1.450469 8342706
6.410522 -6.287641 2.006822 8342706
5.664683 -5.725630 3.089600 8342706
6.282550 -6.083452 3.898297 8342706
5.402066 -6.003856 4.586058 8342706
5.950665 -5.457695 4.493153 8342706
5.518691 -5.959437 3.232271 8342706
6.414383 -5.936034 1.949547 8342706
6.160099 -6.501811 4.296626 8342706
6.392639 -5.908113 1.203336 8342706
5.406661 -5.961154 2.347766 8342706
5.502681 -5.756715 4.304413 8342706
6.427073 -6.009445 3.022840 8342706
6.108171 -5.665884 4.828206 8342706
6.270391 -5.871988 2.096204 8342706
5.789224 -5.466078 2.087279 8342706
5.891544 -6.324439 3.548905 8342706
5.984251 -5.515563 3.506905 8342706
5.760881 -6.039383 4.505471 8342706
5.853638 -6.082808 1.745523 8342706
6.165289 -5.746824 2.015379 8342706
6.156548 -6.312303 1.950913 8342706
5.775279 -6.231993 1.534270 8342706
5.600817 -6.245667 1.065596 8342706
5.865445 -6.361892 1.264831 8342706
5.962018 -5.947478 3.022513 8342706
6.049907 -6.116816 4.773576 8342706
5.786265 -5.807090 0.597848 8342706
5.749623 -6.093040 2.495841 8342706
5.963335 -5.997759 3.169084 8342706
5.471192 -6.210942 1.926757 8342706
6.083584 -5.605632 0.162546 8342706
6.463426 -5.943930 1.235007 8342706
6.564939 -6.066825 3.858951 8342706
6.021758 -6.204546 3.319479 8342706
5.571525 -5.660165 1.962442 8342706
6.093857 -6.274817 4.446206 8342706
6.099914 -5.617838 4.624440 8342706
6.428869 -5.688828 0.205243 8342706
5.951433 -6.175196 2.692393 8342706
6.220790 -5.980486 2.424299 8342706
5.488003 -6.155993 3.676023 8342706
6.047094 -6.308978 2.013530 8342706
5.891466 -6.334366 1.011490 8342706
6.192983 -6.404860 4.452311 8342706
5.539239 -5.958173 3.856014 8342706
5.703304 -6.363172 2.523469 8342706
6.095477 -6.495818 1.396415 8342706
5.860483 -5.885731 4.548647 8342706
5.608240 -5.765548 2.329828 8342706
6.448788 -5.849673 2.629620 8342706
6.116399 -6.416925 0.597579 8342706
5.566273 -6.155663 1.886213 8342706
6.313613 -6.043794 1.875866 8342706
6.578894 -6.053355 3.624174 8342706
5.659982 -6.359434 0.631940 8342706
5.693246 -6.465169 0.779634 8342706
6.222630 -6.018732 2.580771 8342706
5.639492 -6.024838 3.301647 8342706
5.774062 -5.588836 4.691836 8342706
5.762789 -6.255028 4.015976 8342706
5.649190 -5.837166 1.242506 8342706
6.437507 -5.962115 4.446339 8342706
5.836976 -5.619576 3.512808 8342706
6.010420 -5.793691 0.935266 8342706
6.175633 -6.348989 1.773656 8342706
6.144091 -5.804778 1.601424 8342706
5.957734 -5.781545 4.081286 8342706
6.039649 -6.190241 4.613676 8342706
5.771055 -6.161827 0.233089 8342706
5.922697 -5.648535 1.679640 8342706
6.210617 -5.626637 3.840137 8342706
5.706025 -5.965713 3.102241 8342706
5.799363 -6.191781 2.598770 8342706
5.681007 -5.849702 2.890025 8342706
5.620625 -6.261959 3.714465 8342706
5.909161 -6.573149 1.070003 8342706
6.086207 -5.813879 1.668289 8342706
6.303385 -6.314455 0.556928 8342706
6.341335 -5.688169 2.311332 8342706
6.135664 -5.571897 3.078581 8342706
5.668040 -5.682553 1.222887 8342706
6.010322 -5.729541 3.704317 8342706
6.193433 -6.041895 4.406890 8342706
6.508404 -6.111586 2.668745 8342706
6.333634 -6.151800 3.349606 8342706
5.676681 -6.277557 4.696864 8342706
6.284211 -5.529451 4.659116 8342706
5.996929 -6.207332 3.554402 8342706
5.767684 -5.636119 2.598819 8342706
6.068717 -6.561912 4.502304 8342706
5.530594 -5.750164 4.286499 8342706
5.552828 -6.144713 2.907666 8342706
6.113493 -5.633555 2.473267 8342706
5.695259 -5.891725 4.052683 8342706
5.883176 -5.420494 3.052098 8342706
6.511352 -5.798400 0.112470 8342706
6.061012 -5.447729 0.408928 8342706
6.413645 -5.731276 0.057394 8342706
6.056622 -5.748174 0.513441 8342706
5.669765 -5.692461 3.073915 8342706
6.347017 -6.214456 1.518562 8342706
6.141253 -5.797306 2.481278 8342706
5.769512 -6.148730 1.608900 8342706
5.999001 -6.207992 0.089079 8342706
5.855440 -6.062280 3.729956 8342706
5.744000 -6.153399 3.376750 8342706
6.315010 -6.256473 4.578708 8342706
6.319046 -6.451521 3.375485 8342706
6.013702 -6.567550 4.169505 8342706
6.014200 -5.699931 4.242177 8342706
5.704107 -5.613697 4.224761 8342706
6.181793 -5.868394 1.884010 8342706
5.517950 -6.223513 4.664678 8342706
5.904988 -6.316700 4.689897 8342706
6.067508 -6.452169 1.314841 8342706
6.116736 -5.618089 2.032252 8342706
5.969700 -6.204936 1.703014 8342706
6.015868 -6.026063 4.517439 8342706
6.095345 -5.624579 1.129699 8342706
6.124871 -6.294155 1.570727 8342706
5.726030 -5.727185 0.124965 8342706
6.339240 -6.178035 3.032925 8342706
6.089031 -5.564895 2.629748 8342706
6.272531 -5.840114 1.020303 8342706
5.623600 -6.097388 1.898780 8342706
5.716700 -5.680745 2.242582 8342706
5.797330 -5.647887 2.590278 8342706
5.524160 -5.923941 3.590307 8342706
6.018259 -5.828166 1.883574 8342706
5.706504 -5.891946 1.466140 8342706
5.730393 -6.255560 2.816532 8342706
6.004516 -6.302201 4.874718 8342706
5.978513 -6.431617 4.833073 8342706
6.094948 -5.583199 3.830818 8342706
5.624690 -5.585000 2.030297 8342706
6.537142 -6.040289 4.256519 8342706
5.678170 -5.596204 1.938717 8342706
6.096092 -6.463922 1.699985 8342706
5.594255 -6.230521 1.855855 8342706
6.314106 -5.905071 3.508064 8342706
6.480631 -5.816396 3.824047 8342706
6.430803 -6.089950 3.864462 8342706
6.127308 -5.856705 3.361906 8342706
6.136309 -6.378771 1.004216 8342706
5.667873 -6.157041 3.326023 8342706
6.504222 -6.304707 0.123891 8342706
6.387159 -6.095316 4.943327 8342706
5.425917 -5.926143 3.784331 8342706
6.487802 -6.040110 0.242140 8342706
6.245387 -5.649882 3.719488 8342706
6.098640 -6.015727 2.465735 8342706
6.272849 -5.981011 0.674401 8342706
6.415379 -5.962686 2.418734 8342706
6.096258 -6.505848 2.783285 8342706
6.405633 -6.091506 1.386222 8342706
6.211983 -5.651272 1.095172 8342706
6.262977 -5.573843 4.316905 8342706
6.156466 -6.460453 0.749333 8342706
5.638479 -6.047655 3.196550 8342706
6.528909 -5.803239 1.081001 8342706
6.164029 -5.791065 2.578411 8342706
5.995566 -6.086701 2.555745 8342706
6.382485 -5.678122 1.801121 8342706
5.991428 -6.101424 3.869343 8342706
6.490962 -5.998140 1.574596 8342706
5.501208 -6.270003 0.736039 8342706
5.819703 -6.354350 5.013677 8342706
6.464663 -5.786125 3.977406 8342706
6.223248 -6.019587 0.132288 8342706
6.263598 -5.833583 3.573421 8342706
6.478254 -6.090013 4.576746 8342706
5.927665 -6.046269 3.155774 8342706
6.410899 -6.251801 1.788545 8342706
6.032376 -5.445496 1.974395 8342706
5.425167 -5.960323 4.277722 8342706
6.093971 -6.087430 2.981799 8342706
6.263796 -5.925417 3.246488 8342706
5.648395 -6.188552 3.354164 8342706
6.156578 -6.348489 4.403974 8342706
6.101034 -5.503328 4.118666 8342706
5.919579 -5.850478 2.939834 8342706
5.409264 -6.104071 2.055546 8342706
6.297778 -6.420391 4.878791 8342706
5.654608 -6.393180 2.923928 8342706
6.313424 -6.343383 2.385254 8342706
6.421986 -5.813137 1.060277 8342706
6.456038 -5.872820 2.279513 8342706
5.990896 -5.538888 2.057404 8342706
6.223602 -5.749824 0.458109 8342706
5.901589 -6.287453 1.576567 8342706
6.403565 -5.757935 2.443377 8342706
6.365435 -5.540765 4.069380 8342706
6.471626 -6.170718 1.478618 8342706
6.161711 -5.794259 3.223032 8342706
5.736052 -6.390572 3.097852 8342706
6.262845 -5.526703 4.459312 8342706
6.024259 -5.882238 0.771399 8342706
5.575231 -6.376924 4.406441 8342706
5.597269 -5.753105 4.260334 8342706
6.204076 -5.833652 1.380408 8342706
5.740263 -5.795576 1.055181 8342706
5.871876 -6.090406 0.613633 8342706
6.194330 -5.449549 1.188281 8342706
6.280985 -5.510438 1.169737 8342706
5.653636 -6.252007 4.273139 8342706
5.925474 -6.054198 4.944257 8342706
6.197329 -5.576516 3.777192 8342706
5.659257 -6.037313 4.283129 8342706
6.096300 -6.580345 4.276565 8342706
5.701224 -5.714303 3.955194 8342706
5.543499 -6.076414 3.771638 8342706
6.224604 -6.434807 1.034842 8342706
6.566257 -5.960102 0.498692 8342706
5.984828 -5.528214 2.919812 8342706
6.209893 -6.382821 1.647599 8342706
5.489339 -6.236541 3.917685 8342706
5.620153 -6.464041 2.827401 8342706
5.810949 -5.519756 2.254329 8342706
6.522511 -6.236576 2.066505 8342706
6.066154 -6.370558 0.529006 8342706
5.446299 -5.856183 2.593786 8342706
5.839650 -5.685059 2.551067 8342706
6.291769 -6.102697 0.212511 8342706
6.063938 -5.619491 4.348331 8342706
6.497678 -6.293038 4.419199 8342706
5.804271 -6.387266 4.429252 8342706
5.451558 -5.772360 4.324395 8342706
5.945443 -5.507932 1.504986 8342706
6.533172 -6.220932 4.015153 8342706
6.392550 -6.163971 1.423694 8342706
5.824070 -6.186666 3.747169 8342706
6.110134 -6.328067 1.933928 8342706
5.539041 -5.621429 3.374370 8342706
5.786483 -6.453966 3.539023 8342706
5.501368 -5.678955 3.908097 8342706
6.173704 -5.572605 0.051881 8342706
6.344113 -5.965515 2.623737 8342706
6.375151 -6.085172 1.759287 8342706
5.788965 -5.791054 3.218499 8342706
6.016760 -5.811486 3.159019 8342706
6.318252 -6.071681 2.033416 8342706
6.350520 -5.823113 2.212675 8342706
6.059117 -5.797525 0.092796 8342706
5.838272 -6.082771 0.096416 8342706
6.204566 -6.485353 0.879201 8342706
6.345965 -6.458719 0.739477 8342706
6.141486 -6.361187 4.219458 8342706
5.872751 -6.522218 1.827082 8342706
5.636458 -5.913923 0.989952 8342706
5.775869 -5.665098 2.705554 8342706
6.219378 -5.729636 0.419287 8342706
6.093238 -5.411821 2.081403 8342706
5.991083 -6.492307 1.095534 8342706
6.233729 -5.543616 1.289147 8342706
6.456769 -5.677271 3.601498 8342706
6.488673 -6.252643 0.323151 8342706
5.770701 -5.909382 4.020354 8342706
6.168636 -6.109087 1.724135 8342706
6.096596 -6.239969 3.243536 8342706
5.581293 -6.227160 3.707736 8342706
6.526472 -6.148325 1.828817 8342706
6.252965 -6.221133 1.690337 8342706
5.556430 -5.784159 2.489028 8342706
6.383429 -6.407822 2.023793 8342706
6.108294 -6.201260 3.572551 8342706
6.161253 -6.584189 4.290693 8342706
6.462485 -6.387762 3.673138 8342706
6.122502 -5.558046 2.024834 8342706
6.092734 -5.471574 0.883462 8342706
6.138576 -6.428980 1.150040 8342706
5.664047 -6.079982 0.142071 8342706
5.852830 -5.598336 2.610423 8342706
5.792949 -6.390190 2.620938 8342706
6.085850 -5.465422 3.493469 8342706
5.751603 -6.310216 3.366294 8342706
6.287011 -6.341694 1.079399 8342706
5.796594 -6.547040 4.741976 8342706
6.239111 -5.687253 4.915005 8342706
6.002489 -6.468528 1.846580 8342706
5.674814 -5.786299 0.310703 8342706
6.299248 -5.550135 4.292954 8342706
5.597960 -5.841937 4.355674 8342706
6.234353 -5.585836 0.490815 8342706
6.284075 -6.376695 4.015829 8342706
6.200586 -6.547099 0.574429 8342706
6.186110 -5.843418 1.021557 8342706
6.439645 -6.150871 2.777422 8342706
6.049639 -6.393591 3.714991 8342706
5.998225 -5.544269 2.049747 8342706
6.470105 -6.181221 3.310906 8342706
6.123005 -5.441787 0.233416 8342706
5.471752 -5.701401 4.404705 8342706
6.151078 -6.357464 1.660171 8342706
6.430859 -5.579490 1.853613 8342706
5.872618 -6.106847 0.896293 8342706
6.367015 -5.607608 3.705993 8342706
5.618562 -6.136858 3.748532 8342706
6.515203 -5.919583 1.170395 8342706
5.723841 -6.000906 2.425825 8342706
6.255292 -6.352501 2.927562 8342706
5.716475 -6.381547 4.091947 8342706
6.030177 -6.276664 3.900224 8342706
6.417367 -5.557166 4.959354 8342706
6.522192 -6.254791 4.674417 8342706
6.006414 -5.928034 3.887419 8342706
6.169735 -6.386978 4.350122 8342706
5.743969 -6.193500 1.996314 8342706
6.422405 -5.876913 2.109003 8342706
6.454370 -5.980753 2.200186 8342706
5.876786 -5.451002 1.041726 8342706
6.485787 -5.816735 0.282503 8342706
5.846031 -5.463351 1.388582 8342706
6.240200 -5.695277 4.842307 8342706
5.971766 -5.651762 1.250464 8342706
6.492505 -5.792669 2.275315 8342706
5.785645 -6.220882 3.684810 8342706
6.282945 -6.190231 1.523503 8342706
5.975625 -6.402659 3.973057 8342706
6.004344 -5.821871 2.277650 8342706
6.156311 -6.061480 4.111933 8342706
6.155324 -6.414557 4.345101 8342706
6.298225 -5.595963 4.765263 8342706
6.363074 -5.816221 3.613069 8342706
5.982175 -5.801237 3.154094 8342706
6.535495 -5.895697 3.034782 8342706
6.261060 -5.864219 2.839177 8342706
6.303988 -6.328896 2.010710 8342706
5.753006 -5.708348 3.630321 8342706
5.713185 -5.710140 3.067763 8342706
6.266777 -5.977652 1.445703 8342706
6.364377 -6.223897 1.075463 8342706
5.826941 -5.612154 2.970563 8342706
5.517001 -5.895393 0.119359 8342706
5.637032 -5.654356 0.445311 8342706
5.602178 -5.576241 2.877645 8342706
6.000222 -5.527614 2.139642 8342706
5.525926 -6.091052 1.871933 8342706
6.112900 -5.512707 3.483031 8342706
5.445581 -5.909822 4.591175 8342706
5.445759 -5.787028 2.899978 8342706
6.179717 -6.313287 1.829093 8342706
5.564113 -6.365622 0.850870 8342706
5.877475 -6.527139 1.616597 8342706
6.098350 -6.325966 3.433687 8342706
5.957252 -6.494010 4.597006 8342706
6.366689 -6.187307 0.786133 8342706
6.522897 -6.329389 1.453663 8342706
6.561584 -5.904928 3.399912 8342706
5.581361 -6.104609 1.117987 8342706
6.290806 -6.283611 1.941747 8342706
6.161912 -6.308873 2.939159 8342706
6.068264 -6.488749 4.962362 8342706
5.985032 -6.459079 0.618488 8342706
6.279655 -5.765571 1.750939 8342706
6.397062 -5.903206 1.309253 8342706
6.226491 -6.406557 0.483344 8342706
6.297559 -6.111159 2.903194 8342706
6.475102 -6.140195 0.084478 8342706
6.092773 -5.669299 1.221900 8342706
6.483755 -6.257795 4.290239 8342706
6.467653 -5.622968 4.796531 8342706
6.505154 -6.151758 3.608179 8342706
6.315133 -6.323733 1.599406 8342706
5.764112 -6.301891 0.414724 8342706
6.173990 -5.587956 2.726828 8342706
6.229288 -6.038501 3.861276 8342706
6.306107 -5.852890 0.396944 8342706
6.197512 -5.860090 3.933577 8342706
5.779198 -6.435569 3.300737 8342706
6.395093 -6.189478 0.000247 8342706
6.349948 -5.757761 1.359649 8342706
6.283157 -6.013825 4.225898 8342706
6.340007 -6.082138 2.037890 8342706
5.792047 -5.577172 4.388894 8342706
5.820921 -6.027634 0.856754 8342706
6.040115 -5.749586 4.198762 8342706
5.504578 -5.723237 3.979277 8342706
6.454611 -6.137827 1.749179 8342706
6.273087 -6.476465 1.705679 8342706
6.263267 -6.221822 4.622640 8342706
5.532671 -6.334249 1.228517 8342706
5.995558 -6.228745 3.463754 8342706
6.229998 -5.578018 3.780674 8342706
6.037080 -6.578028 3.673663 8342706
5.935615 -6.031274 1.737285 8342706
5.803830 -5.647037 2.750769 8342706
6.186251 -6.298917 0.936576 8342706
6.186029 -5.977282 3.875977 8342706
6.135142 -6.287523 1.967821 8342706
5.767985 -6.140972 1.051956 8342706
6.567770 -6.005625 1.764887 8342706
5.747521 -6.097675 4.315192 8342706
6.459597 -5.772207 1.019922 8342706
5.555450 -5.873551 0.772905 8342706
6.302170 -6.027605 4.996958 8342706
6.190284 -6.548166 4.119001 8342706
6.060553 -6.401938 4.702186 8342706
5.999643 -5.845845 1.397047 8342706
6.511017 -6.158276 4.992963 8342706
6.136658 -6.077867 1.652415 8342706
5.831852 -5.968733 2.072005 8342706
5.742719 -5.973840 3.033695 8342706
6.498906 -6.253789 4.099035 8342706
5.469635 -5.881183 3.617795 8342706
6.166468 -6.096591 0.974007 8342706
5.871274 -6.255728 1.881163 8342706
5.944233 -5.651560 2.379929 8342706
6.313878 -6.285220 0.094550 8342706
5.821601 -5.561695 4.541110 8342706
5.983074 -5.469855 4.063693 8342706
5.788108 -5.452214 3.554826 8342706
6.404598 -6.353136 1.540083 8342706
5.508690 -6.024341 4.714787 8342706
6.071560 -6.513696 0.133722 8342706
6.518900 -5.952273 1.508737 8342706
6.372724 -5.554530 3.373689 8342706
5.773983 -5.875618 0.825556 8342706
6.010624 -6.013861 0.897144 8342706
5.633426 -5.892439 2.224988 8342706
5.704511 -5.624994 2.267338 8342706
5.773602 -6.114346 3.549978 8342706
6.336973 -5.495730 1.151955 8342706
5.645010 -5.764982 4.818863 8342706
