# .PCD v0.7 - Point Cloud Data file format
VERSION 0.7
FIELDS x y z rgb
SIZE 4 4 4 4
TYPE F F F U
COUNT 1 1 1 1
WIDTH 1207
HEIGHT 1
VIEWPOINT 0 0 0 1 0 0 0
POINTS 1207
DATA ascii
-13.420341 -0.129187 1.630119 15014169
-13.544826 0.385751 0.604403 15014169
-13.848372 0.069708 0.626629 15014169
-13.293078 -0.071148 1.350415 15014169
-13.580968 -0.092709 1.350475 15014169
-13.823186 0.373924 1.628435 15014169
-13.224873 0.083668 0.346762 15014169
-13.197505 0.022860 1.288371 15014169
-13.610896 -0.211315 1.512901 15014169
-13.410155 0.314685 1.071774 15014169
-13.236867 0.404359 0.314048 15014169
-13.826565 -0.050937 0.481240 15014169
-13.376545 0.050049 1.535773 15014169
-13.730426 0.079683 0.320559 15014169
-13.387961 0.120327 0.461794 15014169
-13.235575 0.435093 0.390361 15014169
-13.827190 0.089786 1.161249 15014169
-13.633057 0.272142 0.593747 15014169
-13.487530 0.178869 0.919360 15014169
-13.783164 -0.077090 0.481319 15014169
-13.645852 -0.051081 1.025374 15014169
-13.487141 0.079249 0.748174 15014169
-13.475429 0.387952 1.501272 15014169
-13.785915 0.000975 0.853946 15014169
-13.393106 0.302478 0.917428 15014169
-13.563245 0.335377 1.082474 15014169
-13.217790 -0.177108 0.796565 15014169
-13.197013 0.272948 1.541386 15014169
-13.691169 0.288119 0.594545 15014169
-13.489783 -0.046960 0.922291 15014169
-13.311288 -0.002714 1.175757 15014169
-13.564335 0.410633 1.230155 15014169
-13.408461 0.041264 1.023874 15014169
-13.846906 -0.161728 1.580649 15014169
-13.807430 0.417391 1.298635 15014169
-13.452118 0.330540 0.499860 15014169
-13.293231 0.260415 1.042899 15014169
-13.524704 0.123318 0.905260 15014169
-13.296839 -0.053400 0.391903 15014169
-13.202723 0.100489 1.359222 15014169
-13.394404 0.156026 0.489737 15014169
-13.696731 0.097970 1.091108 15014169
-13.306296 0.018825 0.840148 15014169
-13.254628 0.353485 0.445485 15014169
-13.759999 0.237614 1.084999 15014169
-13.198757 0.300311 1.428684 15014169
-13.719105 0.129049 1.191800 15014169
-13.864287 0.145070 0.920295 15014169
-13.631979 -0.038767 1.564515 15014169
-13.855477 0.002554 0.684525 15014169
-13.204472 -0.208765 0.955794 15014169
-13.621058 0.277397 1.278148 15014169
-13.395036 0.413563 1.620759 15014169
-13.793148 -0.135942 0.353238 15014169
-13.217958 0.465088 0.849791 15014169
-13.830664 -0.120042 1.516661 15014169
-13.553397 -0.091321 1.174998 15014169
-13.333482 0.106534 0.356849 15014169
-13.612296 0.361356 0.454165 15014169
-13.770622 0.322862 0.487178 15014169
-13.772885 -0.046807 0.707991 15014169
-13.635419 0.341242 0.639688 15014169
-13.816627 -0.139914 0.805627 15014169
-13.697737 0.358479 1.142837 15014169
-13.676188 0.486286 0.902032 15014169
-13.246543 -0.010807 0.736214 15014169
-13.188128 -0.154323 1.544027 15014169
-13.201739 0.014350 1.595232 15014169
-13.252787 0.458103 0.462084 15014169
-13.443439 0.324485 1.315055 15014169
-13.294482 -0.203464 1.644283 15014169
-13.763310 -0.194449 1.661819 15014169
-13.746662 0.368802 0.311545 15014169
-13.836288 -0.183503 1.203652 15014169
-13.700076 0.075160 1.671705 15014169
-13.724941 -0.059424 0.997400 15014169
-13.677860 0.156383 0.927210 15014169
-13.626118 -0.218009 1.343961 15014169
-13.241131 0.026905 0.961668 15014169
-13.830420 0.299914 0.617557 15014169
-13.770742 -0.109185 0.581926 15014169
-13.356740 0.068753 1.273541 15014169
-13.797931 -0.068129 1.457608 15014169
-13.877834 -0.065034 1.478269 15014169
-13.379084 -0.027192 1.456157 15014169
-13.760673 0.162907 1.133492 15014169
-13.189906 0.250080 0.790816 15014169
-13.508622 -0.054258 1.671822 15014169
-13.583470 -0.151775 1.672096 15014169
-13.235759 0.160612 0.374618 15014169
-13.282733 0.424950 1.180878 15014169
-13.659746 0.426833 0.312634 15014169
-13.649954 0.022988 1.498484 15014169
-13.884533 0.252896 1.064350 15014169
-13.627292 -0.174005 0.513043 15014169
-13.403838 -0.181455 0.401784 15014169
-13.544049 0.151273 0.312851 15014169
-13.514507 -0.138762 0.458623 15014169
-13.390059 -0.004196 1.402471 15014169
-4.360355 7.169325 0.448770 10053171
-5.968817 7.102775 0.429439 10053171
-4.434326 6.980578 2.373336 10053171
-5.164369 7.155966 2.880469 10053171
-3.834709 6.978256 0.290114 10053171
-6.681965 6.773095 2.492688 10053171
-4.090834 7.173031 2.546246 10053171
-3.173687 6.953164 1.358913 10053171
-4.395757 6.995716 0.508352 10053171
-3.515557 7.182726 2.576169 10053171
-3.675266 7.203921 2.466170 10053171
-3.260425 6.978358 0.836520 10053171
-4.013835 7.092762 0.163803 10053171
-4.964664 6.833873 1.161654 10053171
-6.837306 6.984800 0.180214 10053171
-4.611178 7.105122 2.203051 10053171
-6.432045 6.986128 1.211809 10053171
-4.662221 6.951962 0.445864 10053171
-6.905249 6.755924 2.814774 10053171
-6.290646 7.218719 2.863299 10053171
-6.082418 7.061496 0.763352 10053171
-6.139016 6.801320 2.794702 10053171
-3.751539 6.851331 2.214595 10053171
-4.809895 7.060423 2.515921 10053171
-6.579900 7.009614 2.626511 10053171
-6.044099 7.137143 1.124773 10053171
-3.413428 7.163929 1.440787 10053171
-4.601066 6.968760 1.328736 10053171
-5.995073 7.231987 2.390836 10053171
-6.688357 7.011144 2.938958 10053171
-6.865303 7.072901 1.135763 10053171
-5.989707 6.748761 0.154334 10053171
-6.144559 7.018501 1.960070 10053171
-3.873078 6.964201 0.577419 10053171
-4.710828 7.151182 0.106145 10053171
-5.875693 7.156456 2.086317 10053171
-4.831354 6.945965 1.407347 10053171
-5.505912 7.243378 2.739897 10053171
-5.061213 6.769760 1.312178 10053171
-6.158603 6.968266 2.555047 10053171
-4.466775 6.900027 2.129998 10053171
-4.105726 7.102424 1.113838 10053171
-3.876148 6.766207 0.883168 10053171
-4.730915 6.922308 2.245131 10053171
-5.539090 6.960190 0.639499 10053171
-3.804323 7.061718 1.166742 10053171
-3.511625 7.076331 2.134796 10053171
-4.309264 7.178300 0.703832 10053171
-4.126420 7.259687 2.539589 10053171
-5.301503 6.951854 1.587592 10053171
-6.760151 7.069054 2.633952 10053171
-5.665495 6.959643 1.205125 10053171
-5.773555 6.851768 2.772737 10053171
-3.552702 6.861274 2.676975 10053171
-3.071692 6.893856 0.640770 10053171
-5.044535 7.064723 2.177674 10053171
-3.509196 7.052615 0.810677 10053171
-5.449475 7.051565 1.617138 10053171
-3.357728 7.079566 2.170946 10053171
-6.461272 7.186453 0.029577 10053171
-6.369436 6.751853 2.601701 10053171
-4.385053 6.928892 2.926423 10053171
-6.311409 6.931407 0.864901 10053171
-3.779438 7.175040 1.042029 10053171
-3.541550 7.075933 2.664907 10053171
-4.177059 6.922029 2.145342 10053171
-6.341904 6.814803 1.068675 10053171
-3.757519 7.010174 1.931071 10053171
-3.861773 7.060341 1.229888 10053171
-5.442221 7.201207 0.692821 10053171
-5.932983 6.933142 2.512577 10053171
-3.286649 6.932990 1.496211 10053171
-6.801766 6.751602 2.274173 10053171
-3.713783 6.994101 0.979164 10053171
-6.506063 7.222918 1.609104 10053171
-5.310893 6.982117 0.857475 10053171
-6.483326 6.886447 0.453565 10053171
-4.529944 7.096582 2.284893 10053171
-6.727734 7.172890 1.130353 10053171
-4.037333 6.905089 0.259104 10053171
-5.763940 7.216981 0.706921 10053171
-6.959932 7.069718 2.912547 10053171
-3.107082 7.087121 2.169228 10053171
-4.143915 7.107446 0.037969 10053171
-4.444346 7.160690 1.339160 10053171
-6.614393 7.221792 0.408640 10053171
-5.853115 6.853765 0.164088 10053171
-3.249968 6.893956 0.124768 10053171
-6.537063 6.927181 1.310837 10053171
-5.961184 6.836966 0.006829 10053171
-5.443948 7.042288 1.780601 10053171
-6.393799 7.013266 2.969058 10053171
-6.090266 6.833160 2.939898 10053171
-4.251472 7.227118 1.406123 10053171
-4.283920 7.088059 2.209723 10053171
-3.929863 7.178535 2.391871 10053171
-5.660510 7.217236 0.387509 10053171
-5.350757 6.916894 0.467147 10053171
-3.346712 6.973712 0.975263 10053171
-6.882761 6.943238 0.249045 10053171
-4.468449 6.789347 1.779801 10053171
-6.241462 7.212845 1.533580 10053171
-3.832453 7.182517 0.874671 10053171
-3.785235 6.960797 2.077592 10053171
-4.803458 7.124894 1.249135 10053171
-5.639039 7.248313 1.577566 10053171
-4.227573 6.967299 0.426198 10053171
-5.536527 7.217802 0.313979 10053171
-3.275675 7.066064 0.138983 10053171
-5.126299 6.775578 1.791115 10053171
-5.610465 7.057571 2.646970 10053171
-5.437070 6.885425 2.376838 10053171
-4.473998 6.927732 0.680556 10053171
-4.768677 6.932739 2.298867 10053171
-6.487587 6.950466 1.161885 10053171
-5.729085 6.789719 1.398083 10053171
-4.571308 6.929622 1.788256 10053171
-4.057429 7.062607 2.542365 10053171
-3.316139 7.039559 0.202755 10053171
-4.624575 6.768119 1.401646 10053171
-3.811047 7.216880 0.834516 10053171
-5.176448 6.849042 0.225893 10053171
-6.439264 6.754064 0.303554 10053171
-5.584504 7.036386 0.799758 10053171
-3.136284 7.156343 1.558070 10053171
-5.363011 7.073714 2.730159 10053171
-5.317642 6.940436 2.700539 10053171
-4.394776 6.929880 0.762679 10053171
-6.981043 7.116868 2.670030 10053171
-4.287427 7.058141 2.875110 10053171
-4.860904 6.975597 0.253588 10053171
-6.485090 6.889429 2.234945 10053171
-5.363448 6.913113 1.740323 10053171
-5.247501 7.052260 1.625939 10053171
-4.645086 6.829030 0.846227 10053171
-3.267627 6.844603 0.427385 10053171
-4.019355 6.940210 1.236411 10053171
-3.746130 7.247049 0.793277 10053171
-5.114698 7.038455 2.729548 10053171
-4.744272 7.165489 1.113404 10053171
-5.666026 6.785814 2.525521 10053171
-5.420604 7.156010 2.284897 10053171
-6.062678 6.992041 2.986058 10053171
-3.713303 6.938218 1.083197 10053171
-4.224144 7.096945 2.742070 10053171
-5.942777 7.030702 0.669673 10053171
-4.978003 6.832459 2.291115 10053171
-3.931276 6.815734 1.354863 10053171
-6.015728 7.202996 1.735609 10053171
-3.619752 7.206054 0.412244 10053171
-5.864785 6.927140 2.276325 10053171
-6.552926 6.887999 1.767122 10053171
-4.775243 6.804531 2.789224 10053171
-6.512733 7.162957 1.220904 10053171
-3.570328 6.991527 1.096246 10053171
-6.271016 6.824764 1.537021 10053171
-3.027102 6.846974 1.555449 10053171
-6.383424 7.237981 0.959286 10053171
-4.774150 6.996538 1.250334 10053171
-6.416309 7.079963 0.935630 10053171
-6.888772 6.903892 2.254250 10053171
-3.719423 7.209429 1.819327 10053171
-4.213245 7.172856 0.809038 10053171
-6.307231 6.793939 2.924005 10053171
-3.027068 6.773833 2.286060 10053171
-6.417256 6.921801 1.488413 10053171
-6.302652 6.990388 0.989637 10053171
-5.146075 6.785634 1.221429 10053171
-3.944206 7.159879 0.938946 10053171
-6.427662 7.085589 0.848712 10053171
-6.226337 6.779300 2.083647 10053171
-3.530691 7.043102 0.963019 10053171
-5.308295 6.954176 2.315217 10053171
-4.480852 6.763365 0.607376 10053171
-5.583662 7.188439 0.153193 10053171
-3.609532 6.918313 1.825314 10053171
-6.996362 7.182940 2.095890 10053171
-6.183148 7.172879 1.939892 10053171
-4.702281 6.910313 0.441413 10053171
-5.545788 6.953683 1.738361 10053171
-6.749685 6.786512 1.268601 10053171
-5.576849 6.815087 1.491329 10053171
-6.397444 6.877176 2.013563 10053171
-5.968832 6.764595 1.058894 10053171
-5.783361 6.761700 2.074434 10053171
-5.548914 6.798251 1.566895 10053171
-3.366246 7.066987 2.627317 10053171
-5.045635 7.025513 0.368141 10053171
-4.185064 7.206338 0.556299 10053171
-5.051812 7.130992 0.832614 10053171
-6.401071 6.896523 2.857111 10053171
-6.880152 6.830572 2.531825 10053171
-6.716506 6.776057 0.417664 10053171
-3.248268 7.079918 1.579448 10053171
-6.030698 6.767292 2.596911 10053171
-4.064723 6.911803 1.531590 10053171
-6.729906 7.219015 0.601913 10053171
-6.918297 6.943194 2.987743 10053171
-4.463009 6.918545 1.928437 10053171
-4.893581 7.068066 2.525374 10053171
-3.972288 7.114536 0.779598 10053171
-4.127629 7.253778 0.493298 10053171
-3.913725 6.785153 1.150419 10053171
-3.474423 7.220457 2.473672 10053171
-3.382991 7.173926 0.182185 10053171
-3.152927 6.801116 0.461915 10053171
-4.775222 7.213656 1.101336 10053171
-6.938513 7.101598 0.568366 10053171
-6.238988 6.757887 1.860389 10053171
-6.656694 6.933749 0.611979 10053171
-6.350209 7.166494 1.717822 10053171
-6.404786 6.816258 1.111832 10053171
-4.966270 6.825723 0.308519 10053171
-5.289693 7.041230 1.123307 10053171
-5.991114 7.072604 1.246684 10053171
-3.179495 7.015995 2.070524 10053171
-4.529357 6.907608 0.131753 10053171
-6.042076 6.828615 0.171913 10053171
-3.623773 7.144905 0.317656 10053171
-3.353000 7.193887 2.602361 10053171
-3.996535 6.913110 2.668190 10053171
-4.111427 6.847308 2.988235 10053171
-5.533392 7.105798 1.935762 10053171
-4.336939 7.149384 0.733322 10053171
-4.261155 6.945120 0.573947 10053171
-3.620730 7.152992 0.597926 10053171
-3.729293 6.933720 0.920552 10053171
-4.656189 7.028913 0.622991 10053171
-4.207765 6.936259 0.204922 10053171
-6.551680 6.805513 2.347080 10053171
-4.719359 7.148547 0.496444 10053171
-5.166820 6.988737 1.467482 10053171
-6.457125 7.245913 1.317582 10053171
-6.959847 7.017222 2.106068 10053171
-6.602844 7.234839 1.480174 10053171
-5.047630 7.112247 2.882261 10053171
-4.727218 6.842348 0.733597 10053171
-4.292410 6.939634 1.304651 10053171
-5.447460 6.808337 2.055901 10053171
-3.998488 6.759692 2.813951 10053171
-5.957992 7.010058 1.401153 10053171
-6.749551 6.776103 0.265056 10053171
-3.301063 7.156349 2.684534 10053171
-5.116079 7.062973 1.721882 10053171
-5.862822 7.192165 0.508134 10053171
-6.237273 6.907761 1.059753 10053171
-6.951939 7.061172 1.621953 10053171
-5.751626 7.211598 2.559348 10053171
-6.236217 6.938916 2.045450 10053171
-3.771659 6.961555 1.351655 10053171
-5.708736 7.143950 0.879787 10053171
-3.124526 6.785819 0.980281 10053171
-3.919887 6.864540 1.088052 10053171
-5.360862 7.175184 1.628151 10053171
-3.519811 6.775883 0.851908 10053171
-4.682432 7.239944 1.559899 10053171
-3.656948 6.984884 2.207444 10053171
-4.572249 7.119042 2.674492 10053171
-4.904445 7.071073 2.088698 10053171
-6.890007 6.794394 2.389150 10053171
-3.405514 7.105937 0.850488 10053171
-5.523005 7.066362 2.913351 10053171
-4.842983 6.940165 0.676944 10053171
-4.593663 6.998574 2.184389 10053171
-6.916980 7.019500 2.205487 10053171
-3.657495 6.862954 1.229119 10053171
-4.349541 6.930576 0.832685 10053171
-6.439761 6.793733 2.068138 10053171
-6.029166 6.799208 2.079797 10053171
-4.854530 6.763520 0.952797 10053171
-3.711646 6.859646 0.008923 10053171
-4.858461 7.138875 2.483486 10053171
-3.734294 7.009550 2.490695 10053171
-5.148049 7.096855 1.513737 10053171
-6.227110 6.831023 1.619997 10053171
-6.682605 7.179385 2.936744 10053171
-3.949127 6.924253 0.935786 10053171
-6.243592 7.053044 0.953230 10053171
-4.883224 7.144927 1.542703 10053171
-3.297776 7.218699 0.932317 10053171
-6.360710 7.101410 1.853843 10053171
-5.687613 6.804800 1.314303 10053171
-3.563481 6.902174 0.402828 10053171
-5.643185 6.797314 2.090635 10053171
-4.299416 7.238600 0.438528 10053171
-3.198155 7.010321 1.446597 10053171
-3.101968 6.920884 1.820044 10053171
-4.067034 6.762137 0.906470 10053171
-4.301956 7.197004 1.335348 10053171
-3.075905 6.891262 0.319182 10053171
-4.007548 7.120764 1.415485 10053171
-5.431133 6.901288 1.053794 10053171
-3.992299 6.933646 0.359216 10053171
-3.793142 6.951689 0.183644 10053171
-5.739211 7.240293 1.875137 10053171
-5.695372 7.214633 1.780002 10053171
-6.033698 6.747484 2.362296 10053171
-3.604433 6.947836 0.812854 10053171
-5.212396 7.125625 1.183559 10053171
-5.102037 6.856244 2.480670 10053171
-4.275608 7.181527 0.633680 10053171
-6.969558 7.230518 0.064344 10053171
-4.017416 6.806021 1.143587 10053171
-4.058140 6.788680 1.837454 10053171
-5.404365 6.865993 2.737053 10053171
-3.283501 7.053864 1.515219 10053171
-3.317089 7.218303 0.008547 10053171
-3.236936 6.827010 1.500693 10053171
-4.629356 6.949232 1.561430 10053171
-4.967081 6.866623 0.152417 10053171
-6.808586 6.847375 1.565468 10053171
-5.535833 6.962306 0.131725 10053171
-6.921899 6.898058 1.424044 10053171
-4.187734 6.774547 1.318359 10053171
-6.366168 6.921015 0.228124 10053171
-3.356461 6.772576 2.836704 10053171
-4.116325 6.794061 1.407980 10053171
-4.727490 6.840921 1.934085 10053171
-6.156797 6.780488 0.136745 10053171
-5.182302 7.133540 1.862396 10053171
-6.257906 7.128065 2.255141 10053171
-5.151706 7.070462 1.378602 10053171
-6.463884 6.952583 1.307898 10053171
-5.467071 7.097017 0.272428 10053171
-4.933293 7.158863 1.792353 10053171
-3.855669 6.994356 1.643963 10053171
-5.428892 7.078237 2.693640 10053171
-5.715490 7.056212 2.985115 10053171
-6.831675 7.140717 0.788248 10053171
-4.904277 7.177521 1.142357 10053171
-6.977803 6.940319 0.278020 10053171
-6.729643 6.992388 1.033811 10053171
-4.306598 6.788463 1.926902 10053171
-3.992942 7.168058 0.079926 10053171
-3.104062 7.046238 1.344757 10053171
-3.871118 7.058535 0.396856 10053171
-3.119492 6.768891 1.713699 10053171
-3.463072 6.866550 0.304429 10053171
-6.618777 7.058560 1.210061 10053171
-4.074243 7.119217 0.748212 10053171
-3.786433 7.001360 2.079329 10053171
-3.784755 7.014918 1.221139 10053171
-4.615553 7.160029 2.671494 10053171
-4.584652 7.223702 2.358790 10053171
-6.236765 7.127059 0.867814 10053171
-3.118037 6.890499 0.026290 10053171
-4.385277 6.743855 0.508831 10053171
-5.187335 7.034421 2.858740 10053171
-5.346447 6.986060 2.484777 10053171
-3.691108 7.231846 1.068383 10053171
-4.835121 6.766000 0.075758 10053171
-4.758384 7.131995 0.898678 10053171
-4.062472 6.861711 1.522516 10053171
-3.555851 6.972187 0.973164 10053171
-6.965500 7.109135 0.903796 10053171
-3.912895 6.925834 1.374529 10053171
-3.591975 6.956291 2.715110 10053171
-5.486784 6.837649 2.607017 10053171
-5.404658 6.794605 2.412640 10053171
-3.029527 6.823465 2.945157 10053171
-6.150312 6.833064 2.041153 10053171
-4.439216 7.132926 0.774134 10053171
-4.520786 7.035925 0.691509 10053171
-3.191284 7.213095 2.726747 10053171
-5.885845 7.201733 2.541725 10053171
-4.239704 6.915879 2.127052 10053171
-3.207754 6.921242 0.495903 10053171
-5.007888 6.836071 1.845289 10053171
-3.730808 6.970304 0.098932 10053171
-4.317454 7.219834 0.534025 10053171
-6.204811 6.868412 1.534663 10053171
-3.846400 7.203963 0.585555 10053171
-5.443193 6.787167 1.450154 10053171
-3.206422 6.816947 2.190893 10053171
-3.446389 6.963593 0.329192 10053171
-3.956305 7.234747 2.041035 10053171
-6.170281 7.188296 0.283921 10053171
-6.550138 6.885554 0.515008 10053171
-4.612685 6.883730 1.247045 10053171
-5.135047 6.788187 0.010953 10053171
-5.447849 6.812326 0.514006 10053171
-3.772132 6.786594 0.393626 10053171
-5.343526 7.221538 0.670527 10053171
-3.180860 7.166890 1.365715 10053171
-4.942950 6.761596 2.547329 10053171
-6.742287 7.117649 1.630586 10053171
-4.812637 6.784972 1.154020 10053171
-4.095586 7.044900 1.631681 10053171
-4.069614 7.019067 1.610675 10053171
-3.506756 6.927545 2.931507 10053171
-4.073587 7.162737 2.894814 10053171
-6.602521 6.914871 1.745389 10053171
-5.188878 7.046951 1.697027 10053171
-5.097713 7.162178 2.145358 10053171
-4.503895 6.863894 0.023444 10053171
-5.335912 6.756557 2.595753 10053171
-5.166560 6.744892 1.374220 10053171
-4.077738 6.906110 0.723685 10053171
-4.384548 7.045118 1.062355 10053171
-5.249001 7.130856 0.723001 10053171
-3.737990 6.766628 1.902023 10053171
-3.644796 7.250346 2.739886 10053171
-3.376298 7.137077 1.005491 10053171
-4.066376 7.203906 2.633626 10053171
-3.110083 7.182449 2.860430 10053171
-3.580413 7.050594 1.659242 10053171
-5.311673 7.122662 0.087195 10053171
-3.945818 6.930928 2.292500 10053171
-6.393557 7.041649 2.550044 10053171
-3.113543 7.110019 2.784979 10053171
-4.865263 7.153812 0.127315 10053171
-5.892950 6.884942 0.146278 10053171
-4.275032 7.039781 0.572748 10053171
-4.622344 7.142069 0.022073 10053171
-6.611449 7.215703 1.381407 10053171
-6.047174 6.956072 0.104190 10053171
-5.838501 6.778738 2.907593 10053171
-4.470189 7.061396 2.818805 10053171
-5.611884 7.203181 2.511993 10053171
-3.135012 6.953569 0.626165 10053171
-5.761960 6.935420 0.609238 10053171
-4.095968 7.102460 1.568542 10053171
-4.709964 6.754391 1.648795 10053171
-4.980143 7.148687 1.231468 10053171
-4.447286 6.973340 0.516667 10053171
-5.292422 7.265854 0.294555 10053171
-3.881870 6.940763 0.832459 10053171
-4.260670 6.934656 2.694844 10053171
-5.278679 7.109750 1.716748 10053171
-3.025359 6.976721 0.264981 10053171
-5.431726 6.864727 1.056260 10053171
-6.602497 7.076989 2.723788 10053171
-5.104927 6.816949 1.646727 10053171
-3.048883 6.906115 0.745810 10053171
-6.590495 6.973608 1.165143 10053171
-3.072662 6.981577 0.203966 10053171
-6.272228 7.221322 1.909398 10053171
-3.702972 6.923655 1.373451 10053171
-4.181384 7.113904 0.201157 10053171
-3.872977 7.141706 1.808887 10053171
-4.155571 6.992419 1.336710 10053171
-3.085147 6.804341 0.720928 10053171
-5.600651 7.223752 0.110394 10053171
-5.682138 7.003022 2.799178 10053171
-4.795778 6.930487 1.798047 10053171
-5.921711 7.157334 2.035941 10053171
-3.337551 7.101284 0.984946 10053171
-6.487360 6.823326 0.748264 10053171
-6.589852 7.068535 1.908992 10053171
-3.733562 6.858465 0.024062 10053171
-4.618957 7.130231 2.020037 10053171
-5.603897 6.754306 2.666921 10053171
-3.979668 7.102792 0.446057 10053171
-3.897626 6.785164 1.651623 10053171
-5.370507 7.015438 0.786388 10053171
-4.830156 6.831851 1.751461 10053171
-5.771214 6.957498 1.086735 10053171
-6.623730 6.840415 0.173029 10053171
-4.542217 6.966377 1.697416 10053171
-3.709991 7.114692 2.794624 10053171
-5.694488 6.844637 0.076126 10053171
-5.653206 7.064030 0.377734 10053171
-4.256999 6.862239 0.839234 10053171
-5.874190 6.857947 2.068108 10053171
-4.911640 6.823298 2.917951 10053171
-3.182600 6.990066 2.037471 10053171
-3.625456 6.927719 1.082374 10053171
-4.780339 7.136506 2.844058 10053171
-4.524587 7.141987 1.482962 10053171
-3.466820 7.093335 1.071587 10053171
-3.143723 7.164015 0.498431 10053171
-5.421862 7.101788 0.806630 10053171
-6.651963 6.970186 2.566261 10053171
-3.290858 6.877569 2.388799 10053171
-5.867192 7.137064 2.058087 10053171
-4.669958 6.920165 1.458021 10053171
-4.288682 6.836600 2.105510 10053171
-3.025148 6.749691 2.471446 10053171
-3.057692 6.989883 1.063500 10053171
-4.364991 7.184418 0.299264 10053171
-5.476062 7.214345 2.306567 10053171
-5.613070 7.136136 1.122687 10053171
-3.886485 6.905713 1.852074 10053171
-4.669825 7.102684 2.932731 10053171
-4.737295 7.167689 2.669635 10053171
-6.275467 7.053226 1.594587 10053171
-3.128211 7.206913 0.328062 10053171
-4.524886 6.872509 2.787421 10053171
-3.045275 6.927885 1.120810 10053171
-4.466613 7.250076 2.830520 10053171
-5.005183 6.923080 2.691547 10053171
-3.203903 6.991005 0.514609 10053171
-5.981322 6.804063 0.805100 10053171
-4.699319 7.157236 0.313436 10053171
-3.009021 7.076709 0.573007 10053171
-5.439602 6.911980 1.092923 10053171
-3.935358 6.814596 0.632292 10053171
-6.061903 6.978297 2.732696 10053171
-3.324258 6.914926 0.554540 10053171
-5.718804 6.772396 2.837257 10053171
-4.188538 6.834672 0.612990 10053171
-6.586009 6.987762 2.959442 10053171
-6.913136 7.239518 2.523066 10053171
-6.904063 7.213461 0.727580 10053171
-5.279224 7.010749 2.450933 10053171
-5.210185 6.954515 1.250860 10053171
-3.181768 7.161293 1.906384 10053171
-6.392015 6.954914 1.711230 10053171
-4.065491 6.848533 0.126332 10053171
-3.505792 6.880019 0.020201 10053171
-6.119846 6.885306 1.898726 10053171
-3.096631 7.080344 0.795239 10053171
-3.565424 7.031498 2.714753 10053171
-4.239774 7.067703 2.632061 10053171
-3.450039 6.896940 2.415592 10053171
-5.124235 6.901235 2.891691 10053171
-4.453993 7.104466 1.065812 10053171
-6.589646 6.831315 2.045883 10053171
-3.831044 6.874935 2.274794 10053171
-3.564792 6.998023 1.032592 10053171
-4.275684 6.768212 0.881346 10053171
-3.868166 7.015735 1.011091 10053171
-5.334844 6.970918 2.094592 10053171
-3.225253 6.857331 0.496358 10053171
-3.397585 7.244682 0.646954 10053171
-6.360397 6.745646 1.234455 10053171
-5.804528 7.242156 1.607768 10053171
-3.787803 6.884778 0.824367 10053171
-6.589366 6.885077 1.587242 10053171
-4.366371 6.806152 0.971718 10053171
-5.677982 6.912476 0.064543 10053171
-4.418064 7.021106 1.191899 10053171
-4.191101 6.899848 2.104578 10053171
-3.274022 7.184346 1.286259 10053171
-3.740413 7.218196 2.666858 10053171
-5.905253 6.809137 0.032114 10053171
-5.674527 6.800775 1.568074 10053171
-4.946855 6.947191 2.474288 10053171
-6.074119 7.053573 1.133477 10053171
-6.757967 7.243460 2.130546 10053171
-5.473141 6.853167 1.241331 10053171
-6.173232 6.928289 2.917674 10053171
-5.544081 6.791839 2.419151 10053171
-4.538084 7.185987 1.534420 10053171
-5.289667 6.887981 0.612944 10053171
-6.019465 7.222560 1.486123 10053171
-3.502682 6.846661 2.509476 10053171
-5.696493 6.926126 2.275262 10053171
-6.077580 6.981907 1.458933 10053171
-6.577003 6.882323 1.248155 10053171
-6.771735 7.048895 2.619829 10053171
-6.554589 6.868466 1.824179 10053171
-6.075112 6.992299 2.794370 10053171
-4.222841 7.186569 2.773953 10053171
-4.906902 7.059249 2.192605 10053171
-4.875130 7.154654 0.058516 10053171
-4.084892 6.849664 1.569737 10053171
-6.999112 7.228088 0.304680 10053171
-5.471741 7.171128 0.031613 10053171
-3.527327 6.807802 0.736074 10053171
-6.075670 6.761713 0.908508 10053171
-3.522735 6.810115 2.849314 10053171
-3.563625 7.173212 0.889676 10053171
-5.202254 6.823121 2.950272 10053171
-6.956869 6.858553 2.317760 10053171
-4.327342 6.841054 0.572882 10053171
-4.583874 6.851785 0.852092 10053171
-3.511188 6.827208 0.296014 10053171
-6.406791 7.003470 1.139839 10053171
-5.280739 7.229013 1.662774 10053171
-4.234012 7.185273 1.719228 10053171
-5.751523 7.134080 0.946851 10053171
-4.626503 6.962096 2.961673 10053171
-5.855086 7.030447 1.031782 10053171
-5.175074 7.135282 0.277790 10053171
-4.808955 6.839900 2.724017 10053171
-3.338704 6.982378 0.799005 10053171
-3.910819 7.023686 1.811347 10053171
-5.779593 6.986808 1.286236 10053171
-3.318022 6.965971 1.644985 10053171
-3.001616 7.210946 0.810468 10053171
-3.207520 7.219276 2.760889 10053171
-3.182589 7.173337 2.296410 10053171
-6.076881 6.940314 2.242724 10053171
-6.823040 7.048051 2.065632 10053171
-4.065979 6.800206 1.171122 10053171
-3.207745 7.213344 1.692552 10053171
-6.930357 7.170424 1.477610 10053171
-4.282007 6.893614 1.101746 10053171
-5.304906 7.022409 0.097101 10053171
-6.802224 7.163142 2.888440 10053171
-4.202794 6.833040 2.433366 10053171
-3.458600 7.032805 2.648474 10053171
-3.072803 6.798768 1.147435 10053171
-3.493468 7.204228 0.574753 10053171
-3.458399 6.935241 2.308985 10053171
-4.075021 7.089920 2.713223 10053171
-3.748054 7.057739 2.927608 10053171
-5.756063 6.937240 0.477146 10053171
-4.742131 7.110134 1.558388 10053171
5.896262 -5.981727 1.155020 8342706
6.127236 -5.726199 1.793377 8342706
5.443931 -6.096008 3.642145 8342706
6.174450 -6.495785 0.578759 8342706
5.447925 -6.215061 3.049313 8342706
6.196235 -6.439857 4.077202 8342706
6.356671 -6.061648 4.905487 8342706
6.197185 -5.642349 0.324238 8342706
6.007555 -6.187040 4.013018 8342706
6.181157 -6.001231 0.498175 8342706
5.564489 -5.655255 2.019110 8342706
6.148911 -6.444682 3.324442 8342706
6.523685 -5.812320 4.821998 8342706
6.051043 -5.619955 2.386926 8342706
6.472204 -5.970942 1.344224 8342706
6.102275 -6.222740 2.937936 8342706
6.541930 -5.881542 0.296345 8342706
6.342701 -6.426820 2.992517 8342706
6.308305 -5.498761 2.222548 8342706
6.450079 -6.365498 2.674998 8342706
6.186226 -6.112413 2.962969 8342706
6.274455 -5.573219 2.046133 8342706
5.632125 -6.287739 3.526494 8342706
5.802523 -5.559669 0.191692 8342706
5.653109 -5.767945 0.525827 8342706
6.515195 -5.800937 1.399105 8342706
6.049666 -5.422102 0.770936 8342706
6.222208 -6.324976 1.502133 8342706
6.424351 -6.158518 1.604486 8342706
6.527940 -6.049833 3.488864 8342706
5.617869 -6.172748 3.375982 8342706
5.851889 -6.195066 4.711352 8342706
5.784260 -5.531094 2.046372 8342706
6.329781 -5.788026 2.890846 8342706
6.254373 -5.919407 3.532105 8342706
5.442567 -6.104571 0.550664 8342706
6.395876 -5.814349 1.983519 8342706
5.905508 -5.780931 1.723865 8342706
5.735314 -5.890196 3.165975 8342706
5.652307 -6.150953 1.817387 8342706
5.794434 -5.507139 0.781332 8342706
6.458813 -6.083596 0.394876 8342706
5.978041 -6.138876 4.293495 8342706
5.588974 -6.196798 4.557374 8342706
5.748432 -5.743421 4.193966 8342706
5.737555 -5.931781 3.117390 8342706
6.007840 -5.980733 1.436996 8342706
6.418301 -6.292846 2.017014 8342706
5.652858 -5.712196 3.090868 8342706
6.283304 -6.109277 3.895057 8342706
5.420146 -5.992281 4.584530 8342706
5.944182 -5.464473 4.495776 8342706
5.491521 -5.966393 3.228899 8342706
6.417924 -5.935117 1.946506 8342706
6.159480 -6.491416 4.283115 8342706
6.381270 -5.860373 1.196525 8342706
5.400542 -5.949007 2.332402 8342706
5.510257 -5.754243 4.322002 8342706
6.447168 -5.994877 2.993380 8342706
6.102407 -5.668736 4.843096 8342706
6.285808 -5.879105 2.130301 8342706
5.812646 -5.482719 2.073935 8342706
5.876072 -6.341648 3.546245 8342706
5.988500 -5.504767 3.520929 8342706
5.769183 -6.025947 4.519885 8342706
5.842799 -6.072534 1.746033 8342706
6.164005 -5.730533 1.994646 8342706
6.166665 -6.308959 1.962857 8342706
5.768126 -6.235308 1.533643 8342706
5.610822 -6.231519 1.050265 8342706
5.858533 -6.385104 1.254754 8342706
5.942750 -5.950482 3.019195 8342706
6.056946 -6.110443 4.744991 8342706
5.792621 -5.794904 0.612715 8342706
5.722898 -6.081828 2.508343 8342706
5.959513 -5.991934 3.151112 8342706
5.469790 -6.189265 1.908760 8342706
6.083945 -5.600007 0.154266 8342706
6.437402 -5.929922 1.234324 8342706
6.569155 -6.088000 3.874145 8342706
6.038281 -6.199797 3.286277 8342706
5.566054 -5.664396 1.941008 8342706
6.094732 -6.278783 4.443590 8342706
6.088007 -5.595146 4.637569 8342706
6.431324 -5.663727 0.238438 8342706
5.976628 -6.150627 2.690869 8342706
6.234682 -5.963814 2.433257 8342706
5.500574 -6.181834 3.688918 8342706
6.032961 -6.321569 2.000307 8342706
5.892000 -6.329180 1.017675 8342706
6.192292 -6.405492 4.432051 8342706
5.562521 -5.933872 3.871311 8342706
5.698721 -6.383291 2.538578 8342706
6.102560 -6.501597 1.407719 8342706
5.841692 -5.884166 4.540363 8342706
5.620072 -5.787472 2.346594 8342706
6.464549 -5.835976 2.609620 8342706
6.095639 -6.419320 0.603310 8342706
5.560243 -6.146201 1.885314 8342706
6.309336 -6.033587 1.875761 8342706
6.570351 -6.056577 3.643649 8342706
5.672419 -6.382544 0.624736 8342706
5.664110 -6.462604 0.780400 8342706
6.215311 -6.002584 2.567174 8342706
5.646791 -6.043469 3.309362 8342706
5.772623 -5.593927 4.728173 8342706
5.772635 -6.239936 4.000671 8342706
5.645503 -5.822534 1.224205 8342706
6.421550 -5.977277 4.441227 8342706
5.820737 -5.609439 3.513195 8342706
6.023471 -5.797843 0.909728 8342706
6.180211 -6.360712 1.760689 8342706
6.158759 -5.810012 1.579263 8342706
5.971710 -5.788058 4.097305 8342706
6.053387 -6.195897 4.578248 8342706
5.782929 -6.165877 0.215608 8342706
5.912807 -5.635083 1.659188 8342706
6.187866 -5.633061 3.867693 8342706
5.688792 -5.981195 3.111380 8342706
5.815208 -6.187054 2.584586 8342706
5.702137 -5.849993 2.896236 8342706
5.604953 -6.229277 3.726028 8342706
5.888264 -6.565918 1.061797 8342706
6.121650 -5.800670 1.664808 8342706
6.300246 -6.320728 0.558720 8342706
6.352386 -5.678320 2.298096 8342706
6.156766 -5.580200 3.073528 8342706
5.684034 -5.687983 1.221998 8342706
5.998771 -5.723139 3.705372 8342706
6.203771 -6.027169 4.390534 8342706
6.511610 -6.108133 2.684932 8342706
6.331851 -6.157323 3.360423 8342706
5.676908 -6.291859 4.706066 8342706
6.292096 -5.540958 4.630518 8342706
5.978543 -6.220375 3.543556 8342706
5.760576 -5.663660 2.595116 8342706
6.079116 -6.573425 4.499376 8342706
5.537179 -5.753383 4.274640 8342706
5.532981 -6.159356 2.883059 8342706
6.112649 -5.632734 2.483229 8342706
5.680438 -5.870449 4.055419 8342706
5.873340 -5.437207 3.047747 8342706
6.504701 -5.816471 0.115956 8342706
6.059400 -5.444021 0.398780 8342706
6.382647 -5.740965 0.053837 8342706
6.046032 -5.755600 0.511620 8342706
5.657405 -5.717011 3.081015 8342706
6.364565 -6.251521 1.512383 8342706
6.143773 -5.794726 2.469818 8342706
5.779107 -6.153315 1.596893 8342706
5.997856 -6.208453 0.130742 8342706
5.852683 -6.042610 3.736261 8342706
5.737961 -6.150912 3.394313 8342706
6.317315 -6.262234 4.584511 8342706
6.318293 -6.439727 3.376018 8342706
6.041674 -6.537293 4.191253 8342706
5.998138 -5.682904 4.216991 8342706
5.692592 -5.619361 4.222751 8342706
6.207430 -5.877235 1.878988 8342706
5.513931 -6.247878 4.653301 8342706
5.906667 -6.325989 4.696305 8342706
6.074739 -6.448918 1.316704 8342706
6.124100 -5.627086 2.040711 8342706
5.946052 -6.191819 1.692493 8342706
6.041389 -6.023739 4.535951 8342706
6.088959 -5.634112 1.134234 8342706
6.139145 -6.284956 1.580504 8342706
5.742615 -5.750128 0.121100 8342706
6.357571 -6.157864 3.044530 8342706
6.089221 -5.578026 2.643791 8342706
6.251201 -5.865530 1.007712 8342706
5.618116 -6.083728 1.894292 8342706
5.721313 -5.677085 2.235097 8342706
5.791296 -5.661792 2.597158 8342706
5.527133 -5.913968 3.605166 8342706
6.030777 -5.837895 1.871511 8342706
5.707078 -5.894073 1.446641 8342706
5.731287 -6.253908 2.827070 8342706
5.990035 -6.303267 4.877445 8342706
5.985066 -6.449708 4.828992 8342706
6.073065 -5.604620 3.831449 8342706
5.634773 -5.581048 2.016133 8342706
6.544335 -6.037106 4.248504 8342706
5.659736 -5.614666 1.926121 8342706
6.086373 -6.456929 1.675738 8342706
5.604295 -6.234845 1.859186 8342706
6.319449 -5.903467 3.500768 8342706
6.479015 -5.817185 3.821746 8342706
6.436789 -6.114899 3.859513 8342706
6.130536 -5.865110 3.346381 8342706
6.160455 -6.393723 1.047487 8342706
5.662887 -6.138223 3.321863 8342706
6.499159 -6.324237 0.126406 8342706
6.387054 -6.088213 4.926948 8342706
5.434857 -5.923731 3.774752 8342706
6.485877 -6.048678 0.215197 8342706
6.230381 -5.647267 3.723976 8342706
6.115755 -6.003655 2.470270 8342706
6.265155 -5.989703 0.702829 8342706
6.430476 -5.957164 2.412873 8342706
6.094533 -6.498703 2.777498 8342706
6.413301 -6.095983 1.396169 8342706
6.207466 -5.648841 1.104844 8342706
6.259878 -5.582629 4.336585 8342706
6.174542 -6.445240 0.738120 8342706
5.647950 -6.058141 3.184051 8342706
6.524685 -5.798183 1.097648 8342706
6.172087 -5.788589 2.602633 8342706
5.992135 -6.083004 2.525097 8342706
6.395054 -5.665450 1.815510 8342706
5.956263 -6.108354 3.839338 8342706
6.495853 -6.002519 1.563255 8342706
5.509301 -6.268988 0.738667 8342706
5.817719 -6.372390 4.983829 8342706
6.466397 -5.772634 3.987478 8342706
6.234063 -6.033936 0.116350 8342706
6.260919 -5.845483 3.585623 8342706
6.479116 -6.064298 4.564737 8342706
5.912468 -6.052310 3.128880 8342706
6.402733 -6.238142 1.770936 8342706
6.028787 -5.431347 1.971551 8342706
5.410896 -5.941735 4.252828 8342706
6.088356 -6.063214 2.985070 8342706
6.272304 -5.932407 3.235395 8342706
5.652515 -6.186829 3.361051 8342706
6.149899 -6.367974 4.418379 8342706
6.105908 -5.541053 4.120899 8342706
5.936100 -5.847681 2.909498 8342706
5.425808 -6.105701 2.043845 8342706
6.316126 -6.429904 4.896641 8342706
5.647206 -6.405499 2.933635 8342706
6.326623 -6.321379 2.384102 8342706
6.444343 -5.801835 1.064268 8342706
6.443389 -5.879029 2.275803 8342706
6.004683 -5.510819 2.061116 8342706
6.243536 -5.767151 0.490453 8342706
5.885245 -6.272787 1.560683 8342706
6.398282 -5.755970 2.441873 8342706
6.382146 -5.539760 4.104266 8342706
6.484453 -6.171105 1.491768 8342706
6.154162 -5.797895 3.268537 8342706
5.743968 -6.386672 3.102042 8342706
6.274315 -5.549873 4.451421 8342706
6.017492 -5.893980 0.766798 8342706
5.581831 -6.366122 4.383252 8342706
5.602168 -5.724671 4.274779 8342706
6.241619 -5.846608 1.385770 8342706
5.749357 -5.796226 1.063079 8342706
5.867810 -6.097189 0.618466 8342706
6.187587 -5.454444 1.190974 8342706
6.275458 -5.538206 1.172566 8342706
5.658447 -6.273345 4.290770 8342706
5.932432 -6.043745 4.932693 8342706
6.215959 -5.562913 3.756373 8342706
5.664134 -6.054415 4.262435 8342706
6.095571 -6.555157 4.256760 8342706
5.688336 -5.725585 3.965190 8342706
5.554950 -6.083009 3.771894 8342706
6.204057 -6.417904 1.022985 8342706
6.551686 -5.952794 0.494375 8342706
5.994921 -5.548007 2.916529 8342706
6.205552 -6.409478 1.664034 8342706
5.513398 -6.220982 3.903519 8342706
5.634512 -6.470325 2.807754 8342706
5.803625 -5.493865 2.260083 8342706
6.534566 -6.223774 2.087425 8342706
6.061368 -6.372357 0.544993 8342706
5.447920 -5.866217 2.584125 8342706
5.846826 -5.676232 2.528889 8342706
6.290775 -6.085409 0.227234 8342706
6.054055 -5.606582 4.351823 8342706
6.502228 -6.276219 4.434055 8342706
5.810573 -6.383540 4.408886 8342706
5.445843 -5.783468 4.334050 8342706
5.953194 -5.488841 1.509093 8342706
6.529765 -6.200130 4.011921 8342706
6.371828 -6.168316 1.423758 8342706
5.822579 -6.179925 3.736476 8342706
6.107112 -6.326378 1.920006 8342706
5.561094 -5.627599 3.379466 8342706
5.779439 -6.452968 3.537067 8342706
5.518784 -5.689181 3.923222 8342706
6.165165 -5.572288 0.049038 8342706
6.372989 -5.953951 2.639969 8342706
6.355226 -6.074549 1.736035 8342706
5.796199 -5.795743 3.206185 8342706
6.018724 -5.807366 3.195132 8342706
6.318428 -6.024553 2.023594 8342706
6.348959 -5.812065 2.228892 8342706
6.049428 -5.790255 0.112573 8342706
5.837914 -6.050396 0.097903 8342706
6.229250 -6.462776 0.865404 8342706
6.335165 -6.466673 0.745934 8342706
6.158857 -6.360333 4.242310 8342706
5.868793 -6.521851 1.813070 8342706
5.618831 -5.913259 0.996247 8342706
5.775360 -5.689786 2.736350 8342706
6.196752 -5.740374 0.408737 8342706
6.061090 -5.413472 2.101053 8342706
6.020817 -6.496046 1.076553 8342706
6.274920 -5.539828 1.298117 8342706
6.429976 -5.681607 3.605299 8342706
6.493555 -6.240334 0.331817 8342706
5.768686 -5.929300 4.011870 8342706
6.185383 -6.102413 1.743185 8342706
6.099426 -6.248245 3.244496 8342706
5.598047 -6.250319 3.690984 8342706
6.521633 -6.143702 1.851738 8342706
6.252322 -6.208767 1.703838 8342706
5.548032 -5.801545 2.462444 8342706
6.383107 -6.411668 2.004617 8342706
6.123934 -6.212771 3.585512 8342706
6.165066 -6.590775 4.288877 8342706
6.448974 -6.391691 3.696866 8342706
6.118530 -5.551073 2.032036 8342706
6.090586 -5.457133 0.891728 8342706
6.164131 -6.409087 1.158911 8342706
5.655722 -6.067540 0.125842 8342706
5.829163 -5.595978 2.628435 8342706
5.791234 -6.366806 2.632301 8342706
6.095458 -5.471094 3.487634 8342706
5.769776 -6.269559 3.366354 8342706
6.326956 -6.340749 1.068394 8342706
5.812367 -6.538125 4.748485 8342706
6.265185 -5.683782 4.913734 8342706
6.035508 -6.468881 1.856592 8342706
5.695866 -5.794614 0.285999 8342706
6.290775 -5.520856 4.302465 8342706
5.592216 -5.843516 4.351654 8342706
6.222435 -5.574331 0.483633 8342706
6.272701 -6.371634 4.016149 8342706
6.188695 -6.553700 0.574619 8342706
6.174056 -5.845918 1.023476 8342706
6.423725 -6.174398 2.766373 8342706
6.048780 -6.385325 3.727262 8342706
5.988198 -5.550630 2.044407 8342706
6.449618 -6.199636 3.299733 8342706
6.102678 -5.460964 0.243980 8342706
5.480782 -5.715578 4.389361 8342706
6.158154 -6.349078 1.649385 8342706
6.415321 -5.588863 1.833656 8342706
5.880844 -6.115011 0.901575 8342706
6.348389 -5.618489 3.695088 8342706
5.623170 -6.145004 3.740728 8342706
6.518506 -5.926549 1.171218 8342706
5.722481 -6.000000 2.439797 8342706
6.247091 -6.353218 2.961778 8342706
5.726468 -6.369405 4.086696 8342706
6.027342 -6.293837 3.887097 8342706
6.380003 -5.562012 4.965189 8342706
6.548412 -6.271730 4.665876 8342706
6.035592 -5.951179 3.870995 8342706
6.178815 -6.377815 4.324065 8342706
5.727054 -6.205895 2.012412 8342706
6.452622 -5.878214 2.127211 8342706
6.445639 -5.991516 2.219026 8342706
5.861929 -5.427846 1.070795 8342706
6.473814 -5.820462 0.278507 8342706
5.854757 -5.484519 1.406403 8342706
6.249693 -5.709956 4.833326 8342706
5.967556 -5.639982 1.248067 8342706
6.498352 -5.810891 2.274695 8342706
5.778947 -6.226154 3.692756 8342706
6.265207 -6.215332 1.528114 8342706
5.978039 -6.405128 3.969666 8342706
6.013518 -5.820277 2.286794 8342706
6.149208 -6.061281 4.089820 8342706
6.158740 -6.411626 4.352461 8342706
6.282484 -5.604735 4.755250 8342706
6.338546 -5.805166 3.621013 8342706
5.986814 -5.793581 3.167712 8342706
6.526784 -5.872510 3.038893 8342706
6.273125 -5.884881 2.844280 8342706
6.293491 -6.333223 2.003356 8342706
5.770763 -5.697532 3.621790 8342706
5.702707 -5.716381 3.081481 8342706
6.273027 -5.982161 1.448425 8342706
6.385818 -6.234713 1.090405 8342706
5.823220 -5.566310 2.971259 8342706
5.525448 -5.895458 0.120778 8342706
5.634348 -5.659357 0.464609 8342706
5.598978 -5.576565 2.871648 8342706
6.012019 -5.513110 2.110305 8342706
5.520880 -6.096730 1.867611 8342706
6.116456 -5.496115 3.483408 8342706
5.429739 -5.888674 4.590229 8342706
5.466876 -5.807633 2.914289 8342706
6.197217 -6.299900 1.858511 8342706
5.548773 -6.367917 0.852017 8342706
5.886391 -6.513507 1.608429 8342706
6.101887 -6.339961 3.419622 8342706
5.959329 -6.488832 4.607842 8342706
6.362254 -6.160484 0.793635 8342706
6.508160 -6.334234 1.428377 8342706
6.570230 -5.907219 3.401431 8342706
5.564058 -6.087621 1.101398 8342706
6.278675 -6.280565 1.957970 8342706
6.153254 -6.297829 2.958603 8342706
6.060950 -6.537360 4.973154 8342706
5.970999 -6.454992 0.614150 8342706
6.311803 -5.770294 1.732177 8342706
6.387689 -5.907255 1.307684 8342706
6.212488 -6.407374 0.503933 8342706
6.300552 -6.114111 2.900997 8342706
6.481767 -6.133478 0.086622 8342706
6.079022 -5.662059 1.230738 8342706
6.470038 -6.292383 4.302011 8342706
6.449066 -5.647894 4.812963 8342706
6.518962 -6.175201 3.631740 8342706
6.319187 -6.347850 1.618490 8342706
5.759954 -6.279104 0.438316 8342706
6.150673 -5.595039 2.694968 8342706
6.238252 -6.030052 3.853192 8342706
6.319422 -5.841456 0.397218 8342706
6.190859 -5.845655 3.954017 8342706
5.783073 -6.404800 3.269308 8342706
6.394922 -6.214618 -0.007764 8342706
6.338624 -5.755073 1.360766 8342706
6.283916 -6.029440 4.228526 8342706
6.353961 -6.070815 2.041627 8342706
5.760912 -5.553956 4.394261 8342706
5.829715 -6.012408 0.852807 8342706
6.050772 -5.744466 4.186753 8342706
5.528337 -5.727029 4.004817 8342706
6.461120 -6.110645 1.763450 8342706
6.280325 -6.466037 1.716920 8342706
6.263177 -6.190381 4.628960 8342706
5.538471 -6.348996 1.221470 8342706
5.999831 -6.235095 3.448512 8342706
6.222659 -5.570473 3.789932 8342706
6.053224 -6.577384 3.663666 8342706
5.909424 -6.025830 1.746910 8342706
5.806967 -5.643685 2.757710 8342706
6.183338 -6.318026 0.909139 8342706
6.181354 -5.967729 3.871612 8342706
6.131553 -6.296861 1.991078 8342706
5.767458 -6.137381 1.052058 8342706
6.559938 -6.007624 1.748954 8342706
5.741393 -6.114349 4.313918 8342706
6.458956 -5.749301 1.033263 8342706
5.568162 -5.868057 0.767877 8342706
6.308784 -6.007047 5.000448 8342706
6.173356 -6.561361 4.111737 8342706
6.081106 -6.428187 4.708590 8342706
5.986342 -5.810653 1.393482 8342706
6.516714 -6.149909 4.979775 8342706
6.137458 -6.078064 1.673127 8342706
5.827115 -5.949454 2.077803 8342706
5.723092 -5.973517 3.049891 8342706
6.511359 -6.240275 4.105037 8342706
5.498879 -5.880975 3.610039 8342706
6.195141 -6.097524 0.999288 8342706
5.848064 -6.274124 1.915107 8342706
5.951632 -5.634210 2.394540 8342706
6.329645 -6.288520 0.091118 8342706
5.816578 -5.579742 4.542829 8342706
5.987385 -5.473241 4.060984 8342706
5.790904 -5.438316 3.564108 8342706
6.392680 -6.357788 1.551374 8342706
5.530688 -6.024271 4.716922 8342706
6.046260 -6.533993 0.122325 8342706
6.552910 -5.968261 1.494184 8342706
6.349661 -5.543309 3.373533 8342706
5.781093 -5.895648 0.818588 8342706
6.015426 -6.005643 0.870807 8342706
5.639346 -5.920514 2.224961 8342706
5.718970 -5.622220 2.266207 8342706
5.795280 -6.124960 3.534510 8342706
6.322316 -5.487576 1.128792 8342706
5.661384 -5.772220 4.835676 8342706
5.878273 -5.781250 0.097241 8342706
5.637955 -6.469896 2.425716 8342706
5.884036 -6.463663 3.629995 8342706
6.018503 -6.587364 0.586451 8342706
6.046880 -5.696662 1.735666 8342706
6.086123 -5.906725 1.779025 8342706
6.173563 -5.778782 4.159065 8342706
5.483309 -6.276103 4.959678 8342706
6.554960 -5.836419 2.160993 8342706
6.211885 -6.441065 3.894926 8342706
6.237089 -5.705796 2.530496 8342706
6.232596 -6.351255 2.407793 8342706
6.078938 -5.625092 4.486557 8342706
5.630133 -6.305113 3.460560 8342706
5.988727 -6.422181 2.726188 8342706
6.574830 -6.091123 0.461225 8342706
5.703557 -5.659519 4.820380 8342706
6.293857 -5.800492 0.299994 8342706
5.966745 -5.718667 4.680053 8342706
6.060471 -5.542648 2.428701 8342706
6.357643 -5.936649 1.866914 8342706
5.860523 -6.325223 3.416744 8342706
6.103189 -5.704381 4.239722 8342706
6.453108 -5.814729 0.483091 8342706
6.380748 -5.760905 4.616746 8342706
6.264927 -6.048625 2.764946 8342706
6.331050 -6.243132 0.715004 8342706
5.451753 -6.021705 2.418053 8342706
5.687588 -5.945293 4.312847 8342706
6.266793 -5.910562 4.811553 8342706
6.309638 -5.589283 1.362107 8342706
5.808215 -6.238441 4.077096 8342706
6.443943 -5.689667 4.599348 8342706
5.865537 -5.513820 4.366279 8342706
5.678915 -5.849074 0.472161 8342706
6.431705 -5.820529 3.480311 8342706
6.361954 -5.753819 0.654137 8342706
5.675813 -6.097951 0.760430 8342706
