# .PCD v0.7 - Point Cloud Data file format
VERSION 0.7
FIELDS x y z rgb
SIZE 4 4 4 4
TYPE F F F U
COUNT 1 1 1 1
WIDTH 1287
HEIGHT 1
VIEWPOINT 0 0 0 1 0 0 0
POINTS 1287
DATA ascii
-9.176489 1.962901 1.641606 15014169
-9.295375 2.472032 0.598104 15014169
-9.606201 2.150710 0.628200 15014169
-9.031592 2.012573 1.361986 15014169
-9.358272 2.014496 1.331123 15014169
-9.594003 2.478612 1.650027 15014169
-8.972898 2.172462 0.337856 15014169
-8.936451 2.106028 1.281195 15014169
-9.352131 1.891105 1.502584 15014169
-9.164409 2.407728 1.069716 15014169
-9.001415 2.518570 0.306282 15014169
-9.574918 2.040643 0.484307 15014169
-9.136112 2.155640 1.515247 15014169
-9.502560 2.165449 0.340066 15014169
-9.146899 2.184170 0.482141 15014169
-8.989880 2.515593 0.382792 15014169
-9.600782 2.189951 1.149806 15014169
-9.402775 2.365305 0.571146 15014169
-9.262242 2.278003 0.938497 15014169
-9.541724 2.026001 0.480575 15014169
-9.403039 2.036042 1.033492 15014169
-9.241216 2.182370 0.745820 15014169
-9.221743 2.491345 1.474920 15014169
-9.557025 2.091501 0.878415 15014169
-9.150195 2.363143 0.931081 15014169
-9.319500 2.419118 1.057502 15014169
-8.993257 1.937145 0.821860 15014169
-8.950668 2.360111 1.563446 15014169
-9.450412 2.380844 0.600299 15014169
-9.270623 2.045557 0.915524 15014169
-9.060926 2.088485 1.149852 15014169
-9.321607 2.503849 1.249246 15014169
-9.181096 2.109536 1.042463 15014169
-9.596514 1.957380 1.592750 15014169
-9.589982 2.522865 1.316468 15014169
-9.208578 2.407701 0.493798 15014169
-9.085895 2.378387 1.053469 15014169
-9.295496 2.221680 0.938897 15014169
-9.063789 2.051314 0.392380 15014169
-8.953219 2.184275 1.354244 15014169
-9.135766 2.236084 0.455830 15014169
-9.465413 2.188480 1.081100 15014169
-9.066649 2.088943 0.853693 15014169
-9.000995 2.451597 0.460324 15014169
-9.524092 2.334127 1.101433 15014169
-8.916600 2.405780 1.420074 15014169
-9.483984 2.249650 1.177572 15014169
-9.634372 2.239779 0.936153 15014169
-9.398023 2.079643 1.569911 15014169
-9.608908 2.092014 0.698749 15014169
-8.953828 1.879962 0.947437 15014169
-9.407960 2.347997 1.273510 15014169
-9.150741 2.499709 1.618642 15014169
-9.571629 1.957250 0.345585 15014169
-8.978201 2.550432 0.819451 15014169
-9.588196 1.955719 1.526400 15014169
-9.305709 2.007692 1.172882 15014169
-9.083793 2.206784 0.350998 15014169
-9.383224 2.477759 0.447634 15014169
-9.545377 2.444116 0.479934 15014169
-9.536005 2.047002 0.720015 15014169
-9.392891 2.423742 0.647601 15014169
-9.551725 1.970802 0.809011 15014169
-9.477273 2.456401 1.155552 15014169
-9.413083 2.571684 0.898914 15014169
-9.012352 2.080836 0.714922 15014169
-8.938910 1.945312 1.527454 15014169
-8.939675 2.113717 1.601775 15014169
-9.004599 2.582800 0.457842 15014169
-9.206388 2.410327 1.317918 15014169
-9.055637 1.880549 1.628267 15014169
-9.512910 1.890587 1.665817 15014169
-9.530343 2.464541 0.324160 15014169
-9.597644 1.923518 1.183145 15014169
-9.462358 2.176063 1.665147 15014169
-9.481365 2.037462 0.989296 15014169
-9.419715 2.249649 0.928390 15014169
-9.407310 1.872793 1.352465 15014169
-8.993998 2.138478 0.956652 15014169
-9.576235 2.391493 0.636154 15014169
-9.529402 1.959337 0.584840 15014169
-9.120862 2.176965 1.275615 15014169
-9.525346 2.021061 1.445773 15014169
-9.640275 2.033750 1.482778 15014169
-9.158330 2.061762 1.452930 15014169
-9.487901 2.263333 1.133358 15014169
-8.957177 2.354356 0.789861 15014169
-9.276560 2.046733 1.667881 15014169
-9.337796 1.939590 1.667492 15014169
-8.998715 2.239361 0.355603 15014169
-9.044569 2.513794 1.168061 15014169
-9.434180 2.531204 0.309264 15014169
-9.405824 2.123270 1.489617 15014169
-9.621666 2.332601 1.103630 15014169
-9.400777 1.936042 0.514506 15014169
-9.186709 1.902065 0.376263 15014169
-9.302385 2.236470 0.323167 15014169
-9.249434 1.973119 0.448123 15014169
-9.157948 2.096296 1.401550 15014169
11.447734 -0.944253 0.470655 1645029
11.451958 -0.663878 1.225890 1645029
10.928016 -1.152793 1.059514 1645029
11.175893 -0.900205 1.012812 1645029
11.241190 -0.857429 1.192114 1645029
11.178693 -0.861709 1.484519 1645029
11.194677 -0.820578 0.601256 1645029
11.077287 -0.665786 1.267104 1645029
11.303567 -0.858816 0.961220 1645029
11.260285 -1.303669 0.638202 1645029
11.785512 -1.029268 1.089702 1645029
11.566377 -1.296495 1.273088 1645029
11.074215 -1.046196 0.619206 1645029
11.720197 -1.178409 1.238720 1645029
11.120817 -1.007809 0.840993 1645029
10.927774 -0.728361 1.146918 1645029
10.826073 -1.251357 0.964216 1645029
11.457638 -0.645689 1.124821 1645029
11.535204 -0.809082 1.270204 1645029
11.264935 -1.116655 0.908998 1645029
11.509158 -1.215823 1.143240 1645029
11.117655 -1.211802 1.325041 1645029
11.449618 -0.712111 1.285910 1645029
11.277755 -1.372261 0.692440 1645029
11.368612 -1.451661 0.784291 1645029
11.148619 -0.775086 1.126288 1645029
11.370371 -1.272824 0.867181 1645029
11.216664 -0.983616 0.931042 1645029
11.622398 -0.983315 1.029174 1645029
11.550343 -1.121284 1.108920 1645029
11.092568 -1.173270 0.843122 1645029
10.946596 -0.976288 0.652453 1645029
11.099197 -0.969738 1.333734 1645029
11.116777 -0.995970 0.896940 1645029
11.659489 -1.302021 0.936472 1645029
11.256249 -0.980631 1.064287 1645029
11.333580 -0.619600 1.083367 1645029
10.812933 -1.321088 1.057597 1645029
11.315415 -0.958377 1.158603 1645029
11.066063 -1.361441 1.079929 1645029
11.102429 -1.186977 0.513274 1645029
10.900728 -1.046136 0.875105 1645029
11.499443 -1.168663 1.133489 1645029
11.287240 -1.084601 1.212979 1645029
11.146385 -0.857525 0.689884 1645029
11.399504 -0.893758 0.672800 1645029
11.417752 -0.630602 0.983563 1645029
11.380502 -1.001773 0.883678 1645029
11.204741 -1.033189 0.675611 1645029
11.567088 -1.332892 0.794193 1645029
11.192718 -1.466202 0.946425 1645029
11.647000 -1.082728 0.974939 1645029
11.224873 -1.206616 0.839238 1645029
11.122397 -1.348904 1.345398 1645029
11.206240 -0.886246 0.503163 1645029
11.716450 -1.062525 1.283519 1645029
10.984814 -0.710207 0.723484 1645029
10.979606 -0.835532 0.653277 1645029
11.372774 -1.487220 0.895752 1645029
10.983956 -1.190113 0.870555 1645029
11.276104 -1.466542 0.945459 1645029
11.415409 -1.091136 0.969090 1645029
10.993479 -1.145157 1.005730 1645029
11.179219 -0.778542 0.886484 1645029
11.166896 -0.548816 0.969271 1645029
11.074213 -1.100304 1.409998 1645029
11.175052 -1.159100 1.138490 1645029
11.410961 -0.886451 1.255198 1645029
11.650620 -0.914518 1.160073 1645029
11.729794 -0.937882 1.007320 1645029
10.960831 -1.361466 1.255566 1645029
11.547951 -0.700487 1.057131 1645029
11.660971 -1.039065 1.031278 1645029
11.030419 -0.814735 0.580749 1645029
11.179605 -0.717246 1.250698 1645029
11.298824 -0.623449 1.073366 1645029
11.463916 -0.843342 0.834509 1645029
11.283858 -0.844210 0.548097 1645029
11.584006 -1.025491 1.006744 1645029
11.623366 -0.792407 1.205489 1645029
-4.351342 7.174287 0.483923 10053171
-5.969646 7.098987 0.420440 10053171
-4.426273 6.984900 2.365331 10053171
-5.173506 7.157639 2.908666 10053171
-3.852551 7.002799 0.279379 10053171
-6.702794 6.773582 2.494839 10053171
-4.103760 7.164061 2.550096 10053171
-3.174820 6.934811 1.349633 10053171
-4.404668 6.998657 0.515240 10053171
-3.520083 7.202295 2.572757 10053171
-3.697360 7.178658 2.485888 10053171
-3.274562 6.980905 0.841548 10053171
-3.997036 7.047462 0.179378 10053171
-4.964293 6.827228 1.160897 10053171
-6.830243 6.974916 0.184077 10053171
-4.625589 7.121897 2.217391 10053171
-6.429457 6.984920 1.210845 10053171
-4.670098 6.940369 0.441659 10053171
-6.905560 6.754410 2.810162 10053171
-6.306949 7.209780 2.867804 10053171
-6.080687 7.077088 0.748440 10053171
-6.140682 6.796923 2.796300 10053171
-3.738739 6.868521 2.241727 10053171
-4.819856 7.065959 2.514812 10053171
-6.579412 7.011076 2.656033 10053171
-6.049187 7.144811 1.121225 10053171
-3.407944 7.160377 1.449149 10053171
-4.625410 6.979749 1.311543 10053171
-6.030660 7.226248 2.387968 10053171
-6.681065 7.030177 2.926392 10053171
-6.868959 7.050089 1.115424 10053171
-5.978954 6.753934 0.152199 10053171
-6.141167 7.034966 1.962817 10053171
-3.864202 6.967868 0.593256 10053171
-4.725160 7.146358 0.108411 10053171
-5.864630 7.157574 2.074524 10053171
-4.836273 6.941013 1.408513 10053171
-5.504596 7.228629 2.741493 10053171
-5.053037 6.770594 1.296580 10053171
-6.173465 6.971145 2.546418 10053171
-4.465675 6.912229 2.127481 10053171
-4.115187 7.098845 1.115535 10053171
-3.848644 6.762378 0.893179 10053171
-4.734030 6.924933 2.243086 10053171
-5.544625 6.970307 0.622505 10053171
-3.806395 7.041926 1.152925 10053171
-3.502359 7.056327 2.126263 10053171
-4.287378 7.206802 0.702620 10053171
-4.131731 7.222516 2.547739 10053171
-5.293622 6.974210 1.591988 10053171
-6.777795 7.067287 2.647736 10053171
-5.677911 6.967851 1.201415 10053171
-5.754752 6.859691 2.796136 10053171
-3.538789 6.870368 2.695263 10053171
-3.084829 6.868484 0.609403 10053171
-5.032768 7.041393 2.175961 10053171
-3.490985 7.043331 0.823506 10053171
-5.428048 7.048264 1.622034 10053171
-3.353152 7.080429 2.187162 10053171
-6.459148 7.167774 0.028028 10053171
-6.363882 6.752851 2.588679 10053171
-4.391267 6.941226 2.929286 10053171
-6.314309 6.952126 0.871107 10053171
-3.766024 7.186155 1.050884 10053171
-3.556528 7.078548 2.687727 10053171
-4.188955 6.895529 2.123407 10053171
-6.339365 6.814422 1.058368 10053171
-3.766908 7.015453 1.945596 10053171
-3.881512 7.071707 1.238300 10053171
-5.458076 7.196076 0.691692 10053171
-5.929083 6.936834 2.511740 10053171
-3.301264 6.928431 1.493773 10053171
-6.814485 6.775229 2.292032 10053171
-3.688759 6.978180 0.998285 10053171
-6.507937 7.220824 1.593738 10053171
-5.300905 6.976603 0.865931 10053171
-6.473797 6.879074 0.456523 10053171
-4.534920 7.102136 2.279373 10053171
-6.742352 7.182028 1.144173 10053171
-4.006844 6.877436 0.255269 10053171
-5.799597 7.210789 0.716844 10053171
-6.956068 7.054652 2.911846 10053171
-3.124680 7.067876 2.181921 10053171
-4.138826 7.102349 0.028623 10053171
-4.448744 7.176695 1.333617 10053171
-6.616674 7.231106 0.409642 10053171
-5.829448 6.861592 0.140809 10053171
-3.254792 6.875791 0.148028 10053171
-6.517410 6.939157 1.320389 10053171
-5.969795 6.847348 0.010172 10053171
-5.445076 7.054458 1.780196 10053171
-6.397301 7.018136 2.971057 10053171
-6.078856 6.824702 2.963674 10053171
-4.238374 7.204146 1.401866 10053171
-4.284535 7.110056 2.211129 10053171
-3.943881 7.189123 2.401615 10053171
-5.676949 7.229171 0.410327 10053171
-5.339899 6.911050 0.446107 10053171
-3.347582 6.962682 0.990397 10053171
-6.864761 6.960838 0.248406 10053171
-4.471597 6.809885 1.763183 10053171
-6.233724 7.222320 1.530369 10053171
-3.848220 7.193563 0.864173 10053171
-3.786661 6.969357 2.102734 10053171
-4.814734 7.151196 1.229231 10053171
-5.644340 7.242486 1.581437 10053171
-4.215008 6.963021 0.416212 10053171
-5.508326 7.209935 0.311886 10053171
-3.268624 7.069680 0.140019 10053171
-5.110661 6.786455 1.777282 10053171
-5.632182 7.044244 2.635853 10053171
-5.458151 6.898496 2.377065 10053171
-4.449815 6.938160 0.686100 10053171
-4.764798 6.961831 2.310130 10053171
-6.481937 6.964788 1.167482 10053171
-5.725948 6.784970 1.385577 10053171
-4.580114 6.925086 1.790374 10053171
-4.031607 7.058795 2.555469 10053171
-3.321445 7.049915 0.185454 10053171
-4.653070 6.769132 1.423777 10053171
-3.843003 7.194167 0.857248 10053171
-5.172082 6.849987 0.247048 10053171
-6.426086 6.761292 0.292843 10053171
-5.587059 7.025157 0.820469 10053171
-3.131158 7.188056 1.538937 10053171
-5.389088 7.086390 2.717250 10053171
-5.324667 6.917887 2.696439 10053171
-4.402721 6.912394 0.775919 10053171
-6.972668 7.112421 2.672377 10053171
-4.258212 7.025698 2.889194 10053171
-4.869878 6.988256 0.230192 10053171
-6.477478 6.901170 2.240601 10053171
-5.343986 6.916246 1.738172 10053171
-5.244181 7.045350 1.627891 10053171
-4.645104 6.854174 0.827520 10053171
-3.275914 6.835946 0.441960 10053171
-4.004648 6.943315 1.212095 10053171
-3.768239 7.242285 0.778768 10053171
-5.112752 7.045250 2.755485 10053171
-4.736972 7.179511 1.078922 10053171
-5.655474 6.791675 2.534114 10053171
-5.400211 7.178338 2.276480 10053171
-6.042112 6.983373 2.953604 10053171
-3.715002 6.922081 1.058574 10053171
-4.228791 7.078721 2.727275 10053171
-5.915035 7.051011 0.649174 10053171
-4.962805 6.809671 2.322282 10053171
-3.925233 6.830478 1.348861 10053171
-6.022276 7.191501 1.727866 10053171
-3.623286 7.193339 0.383711 10053171
-5.844213 6.926617 2.266101 10053171
-6.566864 6.881109 1.762167 10053171
-4.769828 6.808516 2.772706 10053171
-6.491895 7.159033 1.215374 10053171
-3.569917 7.015737 1.079778 10053171
-6.249329 6.823223 1.537869 10053171
-3.036980 6.879753 1.546211 10053171
-6.360460 7.219965 0.947915 10053171
-4.803380 7.009691 1.220097 10053171
-6.396063 7.063734 0.915451 10053171
-6.877435 6.885756 2.249644 10053171
-3.692423 7.215260 1.806141 10053171
-4.203548 7.193809 0.807319 10053171
-6.315110 6.801550 2.933694 10053171
-3.035660 6.775307 2.259372 10053171
-6.429030 6.933569 1.471336 10053171
-6.295225 6.994898 0.982994 10053171
-5.146654 6.784042 1.221651 10053171
-3.960071 7.157719 0.940946 10053171
-6.414028 7.092605 0.861484 10053171
-6.216487 6.754447 2.089845 10053171
-3.526506 7.027731 0.944975 10053171
-5.323292 6.964721 2.318259 10053171
-4.493705 6.761597 0.637902 10053171
-5.577506 7.224150 0.156469 10053171
-3.611097 6.920536 1.820444 10053171
-6.979887 7.183175 2.093246 10053171
-6.193745 7.162364 1.948190 10053171
-4.695411 6.899146 0.438475 10053171
-5.551442 6.952676 1.727572 10053171
-6.744121 6.798399 1.275977 10053171
-5.575861 6.799736 1.505959 10053171
-6.386240 6.879769 2.031944 10053171
-5.979208 6.775269 1.061602 10053171
-5.756162 6.752644 2.080609 10053171
-5.558560 6.815570 1.556633 10053171
-3.366252 7.074401 2.632790 10053171
-5.036943 7.021376 0.371692 10053171
-4.181960 7.173456 0.549321 10053171
-5.058423 7.128680 0.829404 10053171
-6.415907 6.894958 2.849198 10053171
-6.856570 6.823095 2.552251 10053171
-6.725651 6.736978 0.417057 10053171
-3.255143 7.082516 1.585123 10053171
-6.024164 6.744113 2.624357 10053171
-4.055585 6.936462 1.565672 10053171
-6.718012 7.233434 0.599571 10053171
-6.900112 6.953666 2.979352 10053171
-4.486977 6.921011 1.932910 10053171
-4.883883 7.062033 2.551271 10053171
-3.971157 7.107228 0.799332 10053171
-4.122348 7.229404 0.498248 10053171
-3.916233 6.788805 1.144027 10053171
-3.479227 7.220165 2.466655 10053171
-3.392576 7.188877 0.168209 10053171
-3.152335 6.777901 0.466820 10053171
-4.777652 7.225115 1.089172 10053171
-6.929776 7.106941 0.575039 10053171
-6.240564 6.782257 1.890798 10053171
-6.629635 6.916878 0.626646 10053171
-6.378488 7.158908 1.730795 10053171
-6.416753 6.835842 1.123627 10053171
-4.993880 6.834180 0.274184 10053171
-5.298060 7.041889 1.115400 10053171
-6.003680 7.088181 1.256479 10053171
-3.173223 7.013040 2.071628 10053171
-4.523740 6.914176 0.168388 10053171
-6.046207 6.829957 0.171245 10053171
-3.646792 7.145017 0.317601 10053171
-3.328048 7.203760 2.617766 10053171
-3.998219 6.911671 2.672937 10053171
-4.107027 6.845099 2.977324 10053171
-5.541516 7.081621 1.917034 10053171
-4.329999 7.148525 0.739613 10053171
-4.261001 6.951325 0.576221 10053171
-3.621208 7.165799 0.604238 10053171
-3.741746 6.936249 0.906052 10053171
-4.656110 7.021399 0.623788 10053171
-4.180790 6.955177 0.195312 10053171
-6.532323 6.784585 2.343107 10053171
-4.716474 7.150667 0.498746 10053171
-5.163943 6.978904 1.465884 10053171
-6.452597 7.250134 1.311803 10053171
-6.969042 7.022347 2.102531 10053171
-6.603435 7.237752 1.480842 10053171
-5.032354 7.115707 2.887110 10053171
-4.712030 6.852318 0.735907 10053171
-4.301571 6.905385 1.325664 10053171
-5.426487 6.815788 2.040158 10053171
-4.020076 6.765990 2.827511 10053171
-5.965402 7.004121 1.396879 10053171
-6.727497 6.758320 0.258024 10053171
-3.272027 7.146444 2.694688 10053171
-5.105180 7.062504 1.728097 10053171
-5.845205 7.193714 0.509363 10053171
-6.233750 6.878044 1.071062 10053171
-6.952770 7.077840 1.621844 10053171
-5.771874 7.218699 2.549888 10053171
-6.232104 6.920519 2.036015 10053171
-3.784127 6.960320 1.353757 10053171
-5.697371 7.159099 0.881325 10053171
-3.138281 6.794393 0.972296 10053171
-3.916298 6.855659 1.123072 10053171
-5.341266 7.191293 1.633609 10053171
-3.512918 6.767789 0.851625 10053171
-4.680757 7.246804 1.539584 10053171
-3.633058 6.987779 2.190595 10053171
-4.566550 7.139837 2.691233 10053171
-4.898975 7.079999 2.084589 10053171
-6.916502 6.801901 2.398333 10053171
-3.429186 7.108548 0.850162 10053171
-5.550716 7.075663 2.918700 10053171
-4.815187 6.932025 0.693124 10053171
-4.599183 6.996927 2.172725 10053171
-6.920846 7.027004 2.191833 10053171
-3.639019 6.855709 1.233472 10053171
-4.328660 6.929644 0.834434 10053171
-6.429226 6.797360 2.068354 10053171
-6.045945 6.788231 2.057422 10053171
-4.833943 6.767455 0.936537 10053171
-3.718215 6.870378 0.010820 10053171
-4.872734 7.121009 2.464396 10053171
-3.750565 7.026699 2.467765 10053171
-5.184813 7.081049 1.515911 10053171
-6.247121 6.844596 1.598143 10053171
-6.691155 7.179757 2.945762 10053171
-3.951458 6.922066 0.938698 10053171
-6.243956 7.049525 0.949288 10053171
-4.891520 7.158116 1.531174 10053171
-3.287144 7.227234 0.922481 10053171
-6.349280 7.057409 1.848285 10053171
-5.698416 6.809852 1.347894 10053171
-3.562885 6.907565 0.416726 10053171
-5.631915 6.792432 2.108781 10053171
-4.305518 7.252042 0.458195 10053171
-3.198977 6.997756 1.422625 10053171
-3.118424 6.961449 1.819987 10053171
-4.068912 6.767992 0.896065 10053171
-4.267969 7.208902 1.342505 10053171
-3.089800 6.884128 0.307995 10053171
-4.007745 7.130635 1.440237 10053171
-5.428819 6.925182 1.088439 10053171
-3.987382 6.960992 0.371916 10053171
-3.783915 6.944724 0.151080 10053171
-5.705184 7.259548 1.865418 10053171
-5.673606 7.207357 1.789216 10053171
-6.031535 6.753430 2.365578 10053171
-3.606392 6.951043 0.788455 10053171
-5.206305 7.126235 1.180031 10053171
-5.125227 6.836272 2.485483 10053171
-4.277550 7.189398 0.628518 10053171
-6.975259 7.223201 0.048931 10053171
-4.013059 6.785896 1.116655 10053171
-4.066636 6.780098 1.830430 10053171
-5.415203 6.867477 2.731890 10053171
-3.286475 7.055480 1.522200 10053171
-3.291065 7.202433 0.005765 10053171
-3.223988 6.827247 1.488725 10053171
-4.630145 6.959166 1.550840 10053171
-4.956620 6.842742 0.140144 10053171
-6.785098 6.845310 1.571146 10053171
-5.577229 6.928147 0.141299 10053171
-6.922464 6.907972 1.428311 10053171
-4.180207 6.763097 1.299448 10053171
-6.383335 6.914697 0.221287 10053171
-3.387538 6.746838 2.824702 10053171
-4.101575 6.805479 1.421104 10053171
-4.727820 6.839333 1.915439 10053171
-6.193258 6.805400 0.135877 10053171
-5.188624 7.148441 1.839373 10053171
-6.256392 7.118603 2.258454 10053171
-5.142763 7.093966 1.389515 10053171
-6.465402 6.944175 1.313902 10053171
-5.455823 7.063822 0.286515 10053171
-4.956455 7.168922 1.777718 10053171
-3.871311 7.001339 1.664506 10053171
-5.424992 7.063973 2.724298 10053171
-5.699331 7.049751 2.972179 10053171
-6.820772 7.117682 0.793508 10053171
-4.931865 7.142236 1.136140 10053171
-6.981624 6.922772 0.254396 10053171
-6.725152 6.980411 1.046870 10053171
-4.302508 6.789567 1.944794 10053171
-3.982357 7.161645 0.077078 10053171
-3.113054 7.043165 1.307622 10053171
-3.853549 7.026507 0.423220 10053171
-3.142354 6.754755 1.709176 10053171
-3.452511 6.861111 0.330232 10053171
-6.603389 7.071801 1.242025 10053171
-4.082231 7.127030 0.751844 10053171
-3.782714 6.993441 2.071554 10053171
-3.804301 7.036171 1.233794 10053171
-4.638397 7.135433 2.696923 10053171
-4.591070 7.219553 2.349178 10053171
-6.253069 7.143526 0.873558 10053171
-3.100114 6.897800 0.018535 10053171
-4.394310 6.752898 0.507269 10053171
-5.185705 6.995285 2.840151 10053171
-5.328698 6.997552 2.477016 10053171
-3.658694 7.228092 1.083706 10053171
-4.828384 6.761079 0.073956 10053171
-4.758619 7.137741 0.905687 10053171
-4.093474 6.880770 1.520389 10053171
-3.555473 6.965809 0.962096 10053171
-6.972793 7.121415 0.912414 10053171
-3.888751 6.939965 1.368039 10053171
-3.587579 6.939747 2.712482 10053171
-5.514197 6.832468 2.589337 10053171
-5.385139 6.764124 2.403961 10053171
-3.029454 6.798584 2.929604 10053171
-6.167561 6.837220 2.050258 10053171
-4.449648 7.137775 0.771437 10053171
-4.503669 7.030262 0.700761 10053171
-3.189137 7.233470 2.725363 10053171
-5.881216 7.189833 2.535028 10053171
-4.231188 6.900241 2.129596 10053171
-3.201113 6.946067 0.503486 10053171
-5.004035 6.839545 1.834975 10053171
-3.732470 6.968395 0.095583 10053171
-4.326802 7.224663 0.534373 10053171
-6.201720 6.863286 1.563216 10053171
-3.870948 7.196721 0.599395 10053171
-5.435915 6.770955 1.457587 10053171
-3.215069 6.808140 2.186219 10053171
-3.450839 6.979639 0.317964 10053171
-3.944890 7.246957 2.053786 10053171
-6.177411 7.213945 0.274431 10053171
-6.557529 6.894898 0.544233 10053171
-4.625007 6.888436 1.243684 10053171
-5.142395 6.787430 -0.009988 10053171
-5.442357 6.798707 0.538812 10053171
-3.765059 6.772093 0.397517 10053171
-5.348815 7.208930 0.693814 10053171
-3.180969 7.186583 1.368177 10053171
-4.925143 6.763564 2.547997 10053171
-6.738380 7.123677 1.622622 10053171
-4.793315 6.781835 1.184652 10053171
-4.071537 7.040318 1.635408 10053171
-4.065496 7.033107 1.579000 10053171
-3.487852 6.906080 2.897049 10053171
-4.076387 7.158204 2.882613 10053171
-6.609483 6.896292 1.745946 10053171
-5.171512 7.043240 1.691324 10053171
-5.121893 7.176789 2.132534 10053171
-4.497947 6.873817 0.025958 10053171
-5.348440 6.758060 2.588882 10053171
-5.176592 6.765110 1.361493 10053171
-4.074461 6.892240 0.717551 10053171
-4.384617 7.049335 1.049821 10053171
-5.226445 7.108313 0.701960 10053171
-3.738021 6.769797 1.894529 10053171
-3.655731 7.249574 2.740162 10053171
-3.355530 7.149352 0.988287 10053171
-4.074389 7.210296 2.635232 10053171
-3.098309 7.163188 2.859112 10053171
-3.565803 7.030963 1.662926 10053171
-5.297244 7.126568 0.086402 10053171
-3.920339 6.936645 2.295062 10053171
-6.415246 7.043430 2.553843 10053171
-3.118782 7.103065 2.804432 10053171
-4.859334 7.148639 0.130188 10053171
-5.900951 6.888360 0.146505 10053171
-4.292758 7.033941 0.581541 10053171
-4.619164 7.141847 0.005350 10053171
-6.609582 7.211063 1.370618 10053171
-6.063307 6.941411 0.104443 10053171
-5.833056 6.760224 2.902072 10053171
-4.465638 7.061220 2.835424 10053171
-5.619389 7.208353 2.539540 10053171
-3.123334 6.959211 0.622073 10053171
-5.757378 6.947797 0.590464 10053171
-4.087823 7.128121 1.519796 10053171
-4.687419 6.779561 1.672675 10053171
-4.967366 7.122755 1.203436 10053171
-4.428154 6.974916 0.512298 10053171
-5.290040 7.247042 0.309833 10053171
-3.873770 6.958180 0.837436 10053171
-4.255804 6.934792 2.666136 10053171
-5.238619 7.117247 1.715677 10053171
-3.034981 6.959535 0.262187 10053171
-5.433741 6.858662 1.046420 10053171
-6.572046 7.093789 2.724866 10053171
-5.089653 6.817331 1.663562 10053171
-3.041926 6.899332 0.759127 10053171
-6.585613 7.000213 1.162425 10053171
-3.074085 7.006652 0.200558 10053171
-6.261548 7.217126 1.914039 10053171
-3.688340 6.935721 1.354628 10053171
-4.164655 7.087100 0.207575 10053171
-3.857753 7.161966 1.798925 10053171
-4.188073 7.013450 1.344646 10053171
-3.098568 6.801980 0.728628 10053171
-5.607024 7.225067 0.122105 10053171
-5.676357 7.019156 2.797475 10053171
-4.796923 6.939394 1.795545 10053171
-5.933322 7.140325 2.073026 10053171
-3.318608 7.110780 0.962833 10053171
-6.489880 6.818985 0.718532 10053171
-6.599753 7.069711 1.910633 10053171
-3.735786 6.871610 0.033268 10053171
-4.632628 7.142033 2.046537 10053171
-5.604661 6.765997 2.681523 10053171
-3.967295 7.092765 0.440513 10053171
-3.908982 6.783412 1.632025 10053171
-5.379758 7.016707 0.794830 10053171
-4.829891 6.829170 1.754814 10053171
-5.766131 6.937839 1.076476 10053171
-6.605952 6.859589 0.188684 10053171
-4.517990 6.972346 1.709382 10053171
-3.709329 7.125331 2.792319 10053171
-5.702800 6.852229 0.080575 10053171
-5.662154 7.049482 0.372393 10053171
-4.261446 6.846739 0.854351 10053171
-5.871247 6.841595 2.072978 10053171
-4.900076 6.835680 2.907926 10053171
-3.172707 7.000975 2.019590 10053171
-3.622379 6.902912 1.087640 10053171
-4.777198 7.124431 2.864820 10053171
-4.528697 7.168869 1.496401 10053171
-3.463934 7.089457 1.042767 10053171
-3.162341 7.162711 0.502156 10053171
-5.433663 7.100356 0.815408 10053171
-6.633578 6.974025 2.580446 10053171
-3.292845 6.921422 2.361689 10053171
-5.834340 7.135441 2.068316 10053171
-4.675188 6.932016 1.462883 10053171
-4.285476 6.816589 2.110759 10053171
-3.025744 6.752610 2.474062 10053171
-3.070160 7.011636 1.082828 10053171
-4.369548 7.195528 0.306415 10053171
-5.499422 7.224447 2.272587 10053171
-5.619954 7.121155 1.111355 10053171
-3.886525 6.879210 1.859155 10053171
-4.673489 7.105394 2.939540 10053171
-4.737277 7.179757 2.697358 10053171
-6.278787 7.048172 1.599228 10053171
-3.120645 7.206114 0.323848 10053171
-4.522316 6.875535 2.812839 10053171
-3.061226 6.927263 1.116502 10053171
-4.424146 7.255563 2.846581 10053171
-5.022162 6.929338 2.683862 10053171
-3.216041 6.985822 0.501572 10053171
-5.993684 6.819693 0.807524 10053171
-4.667713 7.136828 0.321126 10053171
-3.013670 7.065457 0.537290 10053171
-5.449228 6.905882 1.113859 10053171
-3.933563 6.809382 0.620352 10053171
-6.068220 6.973550 2.711602 10053171
-3.327888 6.905665 0.567348 10053171
-5.738108 6.753798 2.848610 10053171
-4.196121 6.848401 0.638752 10053171
-6.601343 6.998873 2.957481 10053171
-6.904314 7.243665 2.541416 10053171
-6.900520 7.220714 0.732822 10053171
-5.278156 7.001468 2.464852 10053171
-5.223413 6.975558 1.272888 10053171
-3.167484 7.154634 1.909346 10053171
-6.390495 6.971191 1.707931 10053171
-4.064246 6.861167 0.122689 10053171
-3.507029 6.897904 0.021240 10053171
-6.090674 6.878727 1.878357 10053171
-3.093502 7.068880 0.766787 10053171
-3.569466 7.037036 2.720251 10053171
-4.244023 7.043250 2.632154 10053171
-3.436981 6.898315 2.414232 10053171
-5.109287 6.891826 2.868949 10053171
-4.445082 7.124734 1.058646 10053171
-6.598118 6.840339 2.035472 10053171
-3.830703 6.892182 2.276650 10053171
-3.561344 6.990163 1.044488 10053171
-4.298593 6.775739 0.887940 10053171
-3.879074 7.015054 1.002426 10053171
-5.344485 6.969598 2.074854 10053171
-3.232673 6.845541 0.505413 10053171
-3.407678 7.244708 0.651173 10053171
-6.365320 6.750144 1.224330 10053171
-5.826212 7.219594 1.598247 10053171
-3.831572 6.895018 0.793028 10053171
-6.551622 6.885077 1.586939 10053171
-4.367966 6.781800 0.980617 10053171
-5.664096 6.928287 0.068152 10053171
-4.416491 7.027699 1.178281 10053171
-4.177911 6.889621 2.105620 10053171
-3.274050 7.163948 1.281913 10053171
-3.746785 7.223866 2.660707 10053171
-5.881266 6.835320 0.040274 10053171
-5.661345 6.805582 1.580175 10053171
-4.941211 6.966545 2.457240 10053171
-6.098084 7.066887 1.121046 10053171
-6.773812 7.234699 2.118164 10053171
-5.468341 6.864762 1.238619 10053171
-6.181619 6.918174 2.913067 10053171
-5.550867 6.770651 2.401649 10053171
-4.517621 7.187526 1.525644 10053171
-5.307054 6.894256 0.635270 10053171
-6.022131 7.225310 1.493870 10053171
-3.520895 6.869439 2.509061 10053171
-5.673859 6.939531 2.289947 10053171
-6.068327 6.955109 1.447754 10053171
-6.568795 6.889481 1.255119 10053171
-6.772696 7.069977 2.629082 10053171
-6.573660 6.863844 1.833094 10053171
-6.057440 6.971147 2.785483 10053171
-4.223737 7.174575 2.766419 10053171
-4.897734 7.062978 2.182796 10053171
-4.859414 7.148703 0.079043 10053171
-4.081531 6.835858 1.570475 10053171
-6.982086 7.251833 0.345823 10053171
-5.500009 7.155163 0.030909 10053171
-3.503614 6.815132 0.709193 10053171
-6.068480 6.792564 0.887858 10053171
-3.538745 6.801132 2.849523 10053171
-3.540736 7.171631 0.911022 10053171
-5.206194 6.826437 2.956270 10053171
-6.942564 6.858877 2.327933 10053171
-4.347839 6.860294 0.572813 10053171
-4.586158 6.862004 0.875090 10053171
-3.505306 6.819717 0.296385 10053171
-6.427567 6.994740 1.162647 10053171
-5.293509 7.237128 1.662472 10053171
-4.229877 7.180821 1.723182 10053171
-5.745599 7.120475 0.932475 10053171
-4.653297 6.933604 2.940424 10053171
-5.854407 7.032503 1.048187 10053171
-5.194415 7.149186 0.277469 10053171
-4.819512 6.846548 2.726526 10053171
-3.318472 6.993654 0.772845 10053171
-3.922289 7.026503 1.812789 10053171
-5.791773 6.998889 1.278419 10053171
-3.321332 6.973154 1.651474 10053171
-3.003888 7.229794 0.794059 10053171
-3.195974 7.207315 2.774971 10053171
-3.182458 7.195237 2.310879 10053171
-6.060933 6.942349 2.268749 10053171
-6.815138 7.049438 2.057118 10053171
-4.078282 6.803228 1.164517 10053171
-3.207264 7.223513 1.690827 10053171
-6.938488 7.152263 1.483005 10053171
-4.302852 6.906289 1.130771 10053171
-5.324646 7.049476 0.113627 10053171
-6.802378 7.151686 2.895161 10053171
-4.205974 6.817130 2.428583 10053171
-3.449044 7.034162 2.657179 10053171
-3.054814 6.777073 1.149049 10053171
-3.478960 7.206680 0.571333 10053171
-3.466357 6.952062 2.307225 10053171
-4.100808 7.085044 2.711658 10053171
-3.720762 7.072396 2.910888 10053171
-5.754872 6.918923 0.472647 10053171
-4.756113 7.113808 1.556142 10053171
5.896003 -5.974403 1.142188 8342706
6.139806 -5.738364 1.804147 8342706
5.420110 -6.087775 3.623477 8342706
6.175092 -6.461262 0.581601 8342706
5.463217 -6.203090 3.042457 8342706
6.176764 -6.456942 4.076813 8342706
6.343360 -6.045649 4.891661 8342706
6.208770 -5.633308 0.323158 8342706
6.004180 -6.159025 3.992297 8342706
6.202162 -5.998516 0.490117 8342706
5.589390 -5.667105 2.016920 8342706
6.170708 -6.441898 3.322391 8342706
6.536866 -5.790998 4.820543 8342706
6.061536 -5.637234 2.418243 8342706
6.476521 -5.975801 1.297418 8342706
6.096035 -6.218374 2.929145 8342706
6.536019 -5.890907 0.299327 8342706
6.335434 -6.438287 2.974307 8342706
6.303784 -5.503191 2.207330 8342706
6.444515 -6.379237 2.671155 8342706
6.191216 -6.101854 2.940300 8342706
6.269098 -5.573502 2.042338 8342706
5.633773 -6.273601 3.537742 8342706
5.795566 -5.549303 0.198779 8342706
5.666362 -5.780570 0.510382 8342706
6.488916 -5.816617 1.402369 8342706
6.040155 -5.426459 0.763219 8342706
6.209457 -6.330228 1.501853 8342706
6.415849 -6.153265 1.578197 8342706
6.528470 -6.025147 3.471314 8342706
5.612206 -6.174074 3.369534 8342706
5.860232 -6.187466 4.710078 8342706
5.793333 -5.528111 2.041049 8342706
6.332016 -5.778308 2.894575 8342706
6.246913 -5.941997 3.538368 8342706
5.445272 -6.126838 0.533942 8342706
6.397269 -5.832587 1.990780 8342706
5.898158 -5.768821 1.732934 8342706
5.742710 -5.867650 3.147430 8342706
5.662461 -6.179099 1.856855 8342706
5.802841 -5.507380 0.787606 8342706
6.460495 -6.085641 0.405729 8342706
5.979386 -6.144549 4.294608 8342706
5.591083 -6.193309 4.556097 8342706
5.730052 -5.755195 4.161219 8342706
5.722843 -5.924897 3.125417 8342706
6.043587 -5.982810 1.429356 8342706
6.400117 -6.271003 1.995307 8342706
5.646515 -5.724433 3.098906 8342706
6.290627 -6.097771 3.905316 8342706
5.402538 -5.982716 4.562559 8342706
5.963961 -5.458999 4.500970 8342706
5.505225 -5.952655 3.240493 8342706
6.405250 -5.955355 1.946011 8342706
6.169169 -6.487607 4.300071 8342706
6.386601 -5.853124 1.209105 8342706
5.415980 -5.947553 2.315383 8342706
5.503706 -5.756806 4.333018 8342706
6.434901 -5.998119 2.993612 8342706
6.099364 -5.664819 4.846477 8342706
6.264678 -5.868732 2.118983 8342706
5.818787 -5.472645 2.080498 8342706
5.891286 -6.333992 3.545308 8342706
6.007840 -5.496181 3.505800 8342706
5.758500 -6.045513 4.538931 8342706
5.844227 -6.098173 1.747652 8342706
6.164991 -5.771171 1.980199 8342706
6.173972 -6.291688 1.973011 8342706
5.766022 -6.226534 1.528646 8342706
5.603714 -6.240561 1.056190 8342706
5.843764 -6.371016 1.263849 8342706
5.958104 -5.952541 3.007690 8342706
6.053673 -6.098563 4.756236 8342706
5.793532 -5.819731 0.610203 8342706
5.739516 -6.097313 2.503340 8342706
5.929342 -6.008509 3.162231 8342706
5.472406 -6.215257 1.933053 8342706
6.087580 -5.611371 0.148249 8342706
6.437366 -5.942237 1.236128 8342706
6.562225 -6.047074 3.869370 8342706
6.012613 -6.220160 3.291422 8342706
5.587655 -5.659415 1.962400 8342706
6.089089 -6.285878 4.449434 8342706
6.118599 -5.614306 4.626132 8342706
6.428740 -5.685329 0.224996 8342706
5.962638 -6.167910 2.691375 8342706
6.230898 -5.992445 2.432589 8342706
5.500857 -6.167137 3.672003 8342706
6.063022 -6.340936 1.994407 8342706
5.878719 -6.319305 1.032366 8342706
6.170848 -6.417792 4.446786 8342706
5.562320 -5.939918 3.856541 8342706
5.687391 -6.378515 2.522539 8342706
6.094193 -6.505417 1.412206 8342706
5.854963 -5.901655 4.556251 8342706
5.603557 -5.781956 2.342222 8342706
6.456633 -5.831571 2.617755 8342706
6.091890 -6.438692 0.595174 8342706
5.559233 -6.140542 1.891810 8342706
6.318645 -6.044673 1.868641 8342706
6.550581 -6.060300 3.647166 8342706
5.647857 -6.383571 0.620417 8342706
5.685153 -6.463700 0.767345 8342706
6.219279 -6.018734 2.561420 8342706
5.644762 -6.026534 3.286825 8342706
5.754795 -5.583202 4.708053 8342706
5.768591 -6.245530 4.034196 8342706
5.657254 -5.828861 1.227640 8342706
6.433619 -5.967093 4.448298 8342706
5.828328 -5.636430 3.506973 8342706
6.025671 -5.787402 0.919277 8342706
6.167993 -6.357954 1.751839 8342706
6.153884 -5.795808 1.593355 8342706
5.958986 -5.758755 4.069703 8342706
6.046482 -6.175001 4.586524 8342706
5.799734 -6.139612 0.216226 8342706
5.887871 -5.636797 1.676585 8342706
6.188379 -5.633603 3.853469 8342706
5.698768 -5.978111 3.120475 8342706
5.814013 -6.180529 2.600352 8342706
5.679421 -5.861335 2.918321 8342706
5.605748 -6.250655 3.745591 8342706
5.890855 -6.585166 1.071435 8342706
6.123653 -5.800991 1.668833 8342706
6.303740 -6.306434 0.552318 8342706
6.351480 -5.688199 2.307774 8342706
6.129138 -5.586980 3.066272 8342706
5.659357 -5.709391 1.240316 8342706
6.000799 -5.727293 3.708801 8342706
6.194183 -6.051302 4.414895 8342706
6.521463 -6.122225 2.686269 8342706
6.341164 -6.157898 3.380394 8342706
5.662904 -6.306282 4.712341 8342706
6.283652 -5.534452 4.642297 8342706
5.970767 -6.219827 3.552685 8342706
5.752805 -5.645980 2.607742 8342706
6.074380 -6.560142 4.477026 8342706
5.533141 -5.772830 4.272697 8342706
5.520744 -6.157225 2.892607 8342706
6.110977 -5.652889 2.468580 8342706
5.687880 -5.897434 4.032580 8342706
5.880831 -5.428982 3.056200 8342706
6.485003 -5.800178 0.142499 8342706
6.066726 -5.442124 0.398373 8342706
6.386161 -5.737831 0.065432 8342706
6.066030 -5.778066 0.509666 8342706
5.666070 -5.701997 3.083199 8342706
6.341064 -6.220649 1.528702 8342706
6.128602 -5.811588 2.492264 8342706
5.754667 -6.149921 1.615262 8342706
5.980053 -6.204381 0.123801 8342706
5.853958 -6.042231 3.766913 8342706
5.726691 -6.142352 3.397744 8342706
6.316734 -6.236151 4.598084 8342706
6.314825 -6.441067 3.371874 8342706
6.008584 -6.548217 4.181072 8342706
6.022323 -5.664229 4.219136 8342706
5.694628 -5.612325 4.212531 8342706
6.179092 -5.850767 1.890599 8342706
5.507634 -6.243540 4.643867 8342706
5.909377 -6.330234 4.701093 8342706
6.066225 -6.464985 1.324763 8342706
6.114668 -5.611725 2.053692 8342706
5.950106 -6.201275 1.691110 8342706
6.016034 -6.026883 4.535958 8342706
6.085736 -5.626141 1.155471 8342706
6.131845 -6.270963 1.581681 8342706
5.741045 -5.747662 0.116869 8342706
6.358593 -6.187484 3.053231 8342706
6.097663 -5.579030 2.614755 8342706
6.263603 -5.856248 1.021816 8342706
5.623340 -6.090140 1.907884 8342706
5.692939 -5.682714 2.260193 8342706
5.786967 -5.657997 2.600194 8342706
5.518715 -5.932108 3.587648 8342706
6.025746 -5.827776 1.876627 8342706
5.724629 -5.874714 1.442446 8342706
5.733050 -6.247671 2.812389 8342706
5.997048 -6.329967 4.885281 8342706
5.978024 -6.452645 4.820993 8342706
6.086651 -5.597685 3.845822 8342706
5.639246 -5.579410 2.015433 8342706
6.518310 -6.027592 4.247690 8342706
5.656360 -5.595976 1.916008 8342706
6.094088 -6.455113 1.703460 8342706
5.606391 -6.237669 1.869803 8342706
6.321807 -5.895008 3.498250 8342706
6.476782 -5.825573 3.824784 8342706
6.456266 -6.110548 3.879008 8342706
6.123142 -5.851167 3.364846 8342706
6.168918 -6.403500 1.026883 8342706
5.663065 -6.136103 3.325531 8342706
6.506783 -6.332717 0.137651 8342706
6.378171 -6.109023 4.938785 8342706
5.436675 -5.913399 3.781204 8342706
6.479418 -6.021659 0.253890 8342706
6.243384 -5.661435 3.739546 8342706
6.102790 -6.010933 2.461409 8342706
6.266753 -5.981102 0.688030 8342706
6.413511 -5.960663 2.418247 8342706
6.079078 -6.513564 2.777538 8342706
6.405167 -6.097543 1.398752 8342706
6.201429 -5.648188 1.077635 8342706
6.254303 -5.604241 4.313458 8342706
6.163266 -6.465483 0.745265 8342706
5.616974 -6.074828 3.207783 8342706
6.533853 -5.791498 1.097596 8342706
6.163003 -5.793254 2.596101 8342706
5.994557 -6.090913 2.541144 8342706
6.386032 -5.684387 1.804208 8342706
5.968178 -6.102574 3.844734 8342706
6.493626 -6.022567 1.589472 8342706
5.482185 -6.263777 0.730423 8342706
5.823185 -6.361306 4.993315 8342706
6.463774 -5.773509 3.984300 8342706
6.233833 -6.036615 0.110214 8342706
6.278507 -5.839652 3.581425 8342706
6.486714 -6.062204 4.584035 8342706
5.913505 -6.065788 3.151043 8342706
6.398045 -6.250548 1.751403 8342706
6.042962 -5.436045 1.962583 8342706
5.401652 -5.973990 4.251946 8342706
6.092659 -6.072902 2.962118 8342706
6.262349 -5.932950 3.254181 8342706
5.642710 -6.176647 3.351526 8342706
6.124725 -6.384584 4.407546 8342706
6.088305 -5.536937 4.125697 8342706
5.924393 -5.850713 2.917612 8342706
5.426543 -6.100706 2.062252 8342706
6.293252 -6.429511 4.882365 8342706
5.627000 -6.389999 2.936818 8342706
6.310761 -6.341717 2.374070 8342706
6.427827 -5.809559 1.061149 8342706
6.463367 -5.863014 2.257906 8342706
5.996679 -5.504429 2.060763 8342706
6.207583 -5.761968 0.473644 8342706
5.889216 -6.255027 1.568711 8342706
6.401690 -5.767877 2.450560 8342706
6.359467 -5.534547 4.103449 8342706
6.471836 -6.159350 1.484581 8342706
6.167933 -5.804416 3.243726 8342706
5.735176 -6.388015 3.103828 8342706
6.267312 -5.529423 4.471771 8342706
6.035201 -5.898052 0.749908 8342706
5.593812 -6.364194 4.391812 8342706
5.589225 -5.758857 4.286485 8342706
6.216688 -5.835052 1.373653 8342706
5.742890 -5.790370 1.053527 8342706
5.890287 -6.118184 0.629681 8342706
6.178099 -5.431641 1.174633 8342706
6.274161 -5.533959 1.164895 8342706
5.667933 -6.269261 4.291096 8342706
5.921041 -6.070996 4.936968 8342706
6.194519 -5.570463 3.769803 8342706
5.643979 -6.024941 4.256156 8342706
6.101142 -6.589624 4.287610 8342706
5.696477 -5.714917 3.979944 8342706
5.545280 -6.072144 3.760080 8342706
6.212925 -6.426458 1.043916 8342706
6.562747 -5.945404 0.475267 8342706
5.980519 -5.548831 2.928836 8342706
6.182805 -6.403333 1.649056 8342706
5.509861 -6.233353 3.916243 8342706
5.614775 -6.450968 2.794497 8342706
5.796274 -5.505305 2.254236 8342706
6.536568 -6.238164 2.067466 8342706
6.069921 -6.378708 0.551445 8342706
5.435127 -5.860636 2.601095 8342706
5.850476 -5.661236 2.542335 8342706
6.314052 -6.074483 0.233998 8342706
6.039485 -5.606596 4.350991 8342706
6.516195 -6.302975 4.433143 8342706
5.826721 -6.387979 4.402955 8342706
5.457671 -5.788206 4.317275 8342706
5.945324 -5.493745 1.501447 8342706
6.535738 -6.211740 4.025483 8342706
6.388601 -6.179257 1.430176 8342706
5.811715 -6.180077 3.742095 8342706
6.097941 -6.334375 1.924653 8342706
5.544412 -5.639417 3.377922 8342706
5.793088 -6.438125 3.536559 8342706
5.502795 -5.678892 3.937404 8342706
6.177822 -5.579246 0.035115 8342706
6.355432 -5.958238 2.652793 8342706
6.370628 -6.085387 1.726855 8342706
5.784541 -5.785671 3.223505 8342706
6.014412 -5.808711 3.200143 8342706
6.322510 -6.045701 2.037541 8342706
6.370864 -5.817824 2.201036 8342706
6.058397 -5.800045 0.120824 8342706
5.815311 -6.065148 0.099943 8342706
6.208417 -6.454698 0.884317 8342706
6.343417 -6.465921 0.741903 8342706
6.145646 -6.351252 4.233537 8342706
5.861040 -6.510258 1.795049 8342706
5.654093 -5.900836 0.977340 8342706
5.787919 -5.668202 2.688621 8342706
6.197807 -5.741393 0.401362 8342706
6.083395 -5.416404 2.088598 8342706
6.003395 -6.481411 1.055040 8342706
6.256478 -5.553905 1.278992 8342706
6.452995 -5.679091 3.613444 8342706
6.481925 -6.261708 0.332370 8342706
5.780425 -5.931255 4.021649 8342706
6.151949 -6.105346 1.727161 8342706
6.116227 -6.231353 3.240675 8342706
5.584224 -6.282025 3.689565 8342706
6.546132 -6.157533 1.840572 8342706
6.247778 -6.234726 1.709195 8342706
5.589987 -5.783940 2.491486 8342706
6.394809 -6.387666 2.026265 8342706
6.088192 -6.199169 3.558445 8342706
6.153142 -6.587430 4.294007 8342706
6.448439 -6.392448 3.681120 8342706
6.113808 -5.547772 2.012540 8342706
6.083622 -5.468253 0.888732 8342706
6.147404 -6.432619 1.159215 8342706
5.665430 -6.079978 0.115076 8342706
5.848557 -5.594284 2.634378 8342706
5.793562 -6.398702 2.620260 8342706
6.095635 -5.473787 3.493380 8342706
5.758367 -6.290379 3.358731 8342706
6.315890 -6.321972 1.081506 8342706
5.811833 -6.550921 4.770947 8342706
6.230222 -5.650602 4.905953 8342706
5.990469 -6.469976 1.872167 8342706
5.666200 -5.809935 0.280424 8342706
6.300627 -5.511283 4.305360 8342706
5.611231 -5.858682 4.368970 8342706
6.234598 -5.589873 0.494874 8342706
6.291668 -6.386462 4.011749 8342706
6.178809 -6.540655 0.578684 8342706
6.163116 -5.857708 1.026420 8342706
6.437697 -6.152287 2.765543 8342706
6.054742 -6.407152 3.714503 8342706
5.979340 -5.549401 2.049137 8342706
6.436481 -6.191034 3.307873 8342706
6.104071 -5.440405 0.247633 8342706
5.488845 -5.726503 4.418965 8342706
6.163171 -6.355225 1.662428 8342706
6.428363 -5.599627 1.836288 8342706
5.882824 -6.098477 0.927015 8342706
6.368805 -5.608930 3.688636 8342706
5.635725 -6.126793 3.732903 8342706
6.510387 -5.909097 1.172001 8342706
5.736690 -6.000696 2.430598 8342706
6.255963 -6.344321 2.917641 8342706
5.696807 -6.378466 4.082288 8342706
6.049938 -6.275047 3.886894 8342706
6.390661 -5.535740 4.943429 8342706
6.537405 -6.280091 4.648221 8342706
6.027334 -5.943481 3.884285 8342706
6.173160 -6.371431 4.360329 8342706
5.731612 -6.190601 1.983551 8342706
6.434418 -5.877651 2.110468 8342706
6.446261 -5.971188 2.203398 8342706
5.846517 -5.435771 1.054310 8342706
6.482880 -5.802864 0.302989 8342706
5.856534 -5.458825 1.388120 8342706
6.229063 -5.709486 4.831297 8342706
5.974590 -5.636405 1.248435 8342706
6.482388 -5.800410 2.271370 8342706
5.786701 -6.216518 3.668998 8342706
6.256704 -6.193223 1.512381 8342706
5.977818 -6.401905 3.989246 8342706
6.001241 -5.821745 2.281048 8342706
6.158709 -6.062513 4.109797 8342706
6.158725 -6.412187 4.361365 8342706
6.297345 -5.592155 4.734756 8342706
6.357278 -5.812345 3.608128 8342706
5.994658 -5.805072 3.156599 8342706
6.562756 -5.854024 3.062125 8342706
6.280870 -5.866322 2.864388 8342706
6.294738 -6.332557 1.998876 8342706
5.745576 -5.710959 3.618264 8342706
5.707524 -5.719072 3.065400 8342706
6.260240 -5.975477 1.452354 8342706
6.380467 -6.221050 1.092762 8342706
5.839983 -5.581676 2.983202 8342706
5.522052 -5.908961 0.140931 8342706
5.634391 -5.650307 0.459535 8342706
5.602941 -5.567535 2.879460 8342706
5.999767 -5.503837 2.119437 8342706
5.519398 -6.126441 1.880318 8342706
6.140157 -5.499343 3.474156 8342706
5.440802 -5.910227 4.562122 8342706
5.457588 -5.806899 2.910101 8342706
6.201885 -6.315330 1.855626 8342706
5.542927 -6.376976 0.847135 8342706
5.873457 -6.516632 1.608886 8342706
6.105552 -6.324984 3.416041 8342706
5.974393 -6.481040 4.604896 8342706
6.348664 -6.160780 0.800148 8342706
6.505120 -6.319189 1.437829 8342706
6.547040 -5.917617 3.415338 8342706
5.586822 -6.097028 1.111665 8342706
6.291562 -6.303761 1.945554 8342706
6.155941 -6.302372 2.939753 8342706
6.075039 -6.525716 4.970678 8342706
5.985909 -6.466137 0.593735 8342706
6.307427 -5.762323 1.756236 8342706
6.407999 -5.931547 1.316849 8342706
6.219312 -6.408611 0.504802 8342706
6.303408 -6.136885 2.897723 8342706
6.484210 -6.149351 0.094746 8342706
6.099123 -5.667624 1.237807 8342706
6.492312 -6.277213 4.306404 8342706
6.451652 -5.655306 4.824018 8342706
6.499053 -6.172425 3.619648 8342706
6.309315 -6.334711 1.594555 8342706
5.748469 -6.285402 0.432241 8342706
6.170040 -5.601101 2.693950 8342706
6.247656 -6.043656 3.847742 8342706
6.321140 -5.840881 0.394840 8342706
6.180867 -5.891173 3.957242 8342706
5.785964 -6.398571 3.280051 8342706
6.408219 -6.211339 -0.021726 8342706
6.338242 -5.768879 1.366411 8342706
6.281018 -5.989269 4.237461 8342706
6.338191 -6.074311 2.040906 8342706
5.774626 -5.577775 4.386802 8342706
5.839755 -6.031236 0.853539 8342706
6.036426 -5.730405 4.164344 8342706
5.510859 -5.730756 3.982387 8342706
6.469639 -6.119346 1.766055 8342706
6.278257 -6.452013 1.692727 8342706
6.277330 -6.207520 4.642000 8342706
5.540722 -6.319499 1.230392 8342706
6.009329 -6.204159 3.447412 8342706
6.233258 -5.562909 3.761211 8342706
6.035682 -6.572889 3.677592 8342706
5.932471 -6.019532 1.751348 8342706
5.797305 -5.651888 2.748781 8342706
6.189871 -6.319014 0.920839 8342706
6.175529 -5.990248 3.893663 8342706
6.121593 -6.307467 1.978302 8342706
5.755898 -6.140513 1.015344 8342706
6.575077 -6.000538 1.747167 8342706
5.737437 -6.117036 4.308788 8342706
6.470634 -5.775303 1.031131 8342706
5.568048 -5.867155 0.780265 8342706
6.309128 -6.015825 4.987880 8342706
6.186967 -6.550402 4.105595 8342706
6.084997 -6.401429 4.707965 8342706
6.004846 -5.813218 1.399562 8342706
6.509697 -6.146048 4.985865 8342706
6.137964 -6.098616 1.668194 8342706
5.820128 -5.964292 2.073915 8342706
5.728294 -5.943939 3.045666 8342706
6.508747 -6.246158 4.114480 8342706
5.483341 -5.881376 3.589727 8342706
6.184148 -6.102936 0.972916 8342706
5.875681 -6.255407 1.875453 8342706
5.938762 -5.658012 2.376009 8342706
6.326508 -6.266106 0.095802 8342706
5.781056 -5.589633 4.545795 8342706
5.987862 -5.459461 4.061885 8342706
5.780596 -5.440588 3.556770 8342706
6.408836 -6.338719 1.540601 8342706
5.492918 -6.014016 4.719536 8342706
6.046635 -6.522169 0.125197 8342706
6.533543 -5.933824 1.500506 8342706
6.375313 -5.554374 3.372878 8342706
5.792094 -5.877123 0.825426 8342706
6.019591 -5.987158 0.902960 8342706
5.625734 -5.925716 2.227250 8342706
5.717516 -5.620203 2.282997 8342706
5.780050 -6.104897 3.550266 8342706
6.326055 -5.491011 1.147420 8342706
5.662188 -5.778851 4.830760 8342706
5.894618 -5.787433 0.075052 8342706
5.638885 -6.448103 2.459241 8342706
5.887957 -6.470456 3.635297 8342706
6.023224 -6.586858 0.559446 8342706
6.043326 -5.701255 1.738587 8342706
6.115131 -5.912985 1.762617 8342706
6.142446 -5.773784 4.151351 8342706
5.472103 -6.260068 4.970687 8342706
6.534639 -5.831907 2.159126 8342706
6.231031 -6.444535 3.896266 8342706
6.238611 -5.710383 2.522069 8342706
6.226449 -6.372040 2.396908 8342706
6.077546 -5.645577 4.470048 8342706
5.636757 -6.295529 3.455682 8342706
5.995866 -6.433599 2.712858 8342706
6.564296 -6.091778 0.465488 8342706
5.714325 -5.665617 4.800314 8342706
6.319160 -5.794093 0.299976 8342706
5.957886 -5.739487 4.692414 8342706
6.060935 -5.532693 2.423836 8342706
6.379488 -5.933878 1.870041 8342706
5.845191 -6.328914 3.414139 8342706
6.085678 -5.700243 4.210702 8342706
6.450648 -5.849569 0.481845 8342706
6.388967 -5.771360 4.620731 8342706
6.238233 -6.058063 2.761975 8342706
6.320167 -6.229388 0.716696 8342706
5.454655 -6.001260 2.425458 8342706
5.686861 -5.933122 4.334633 8342706
6.278181 -5.894605 4.807796 8342706
6.306156 -5.575476 1.369948 8342706
5.813307 -6.247880 4.057792 8342706
6.441961 -5.676687 4.584636 8342706
5.868716 -5.501740 4.373297 8342706
5.668591 -5.849302 0.471274 8342706
6.408058 -5.827416 3.474811 8342706
6.347663 -5.746684 0.658253 8342706
5.689676 -6.091120 0.754169 8342706
