# .PCD v0.7 - Point Cloud Data file format
VERSION 0.7
FIELDS x y z rgb
SIZE 4 4 4 4
TYPE F F F U
COUNT 1 1 1 1
WIDTH 1287
HEIGHT 1
VIEWPOINT 0 0 0 1 0 0 0
POINTS 1287
DATA ascii
2.739308 16.879841 1.639166 15014169
2.646491 17.410769 0.615427 15014169
2.322758 17.047350 0.611342 15014169
2.892360 16.916817 1.346505 15014169
2.552003 16.905014 1.367871 15014169
2.332299 17.433651 1.642279 15014169
2.914307 17.083078 0.362474 15014169
2.977952 17.017422 1.289416 15014169
2.532416 16.820635 1.500616 15014169
2.739141 17.319118 1.057161 15014169
2.883805 17.426258 0.335622 15014169
2.343601 16.960741 0.467876 15014169
2.787192 17.078997 1.528038 15014169
2.415118 17.096272 0.345176 15014169
2.771898 17.118183 0.472996 15014169
2.930516 17.428738 0.399760 15014169
2.324614 17.092489 1.152257 15014169
2.507620 17.262897 0.594085 15014169
2.629092 17.181097 0.929004 15014169
2.400200 16.938761 0.483368 15014169
2.524476 16.968611 1.024138 15014169
2.718509 17.100368 0.739103 15014169
2.680492 17.397224 1.480061 15014169
2.357386 17.019577 0.875139 15014169
2.796934 17.262836 0.923695 15014169
2.595015 17.356482 1.065086 15014169
2.925808 16.833626 0.815591 15014169
2.966508 17.302223 1.539460 15014169
2.466298 17.298361 0.563214 15014169
2.670340 16.951334 0.915021 15014169
2.838686 17.022257 1.161441 15014169
2.588680 17.441254 1.212178 15014169
2.732090 17.042530 1.048005 15014169
2.319120 16.860451 1.586649 15014169
2.326507 17.460428 1.326890 15014169
2.723158 17.326517 0.481155 15014169
2.832555 17.305071 1.052019 15014169
2.636660 17.113668 0.910897 15014169
2.851646 16.983143 0.385830 15014169
2.953068 17.115719 1.364971 15014169
2.782057 17.165398 0.499964 15014169
2.468292 17.102762 1.091828 15014169
2.857089 17.011639 0.860364 15014169
2.903487 17.384296 0.459178 15014169
2.405387 17.258047 1.096643 15014169
2.984521 17.316683 1.429790 15014169
2.441251 17.149498 1.183908 15014169
2.286907 17.157681 0.925873 15014169
2.517635 16.993839 1.584385 15014169
2.317737 17.007868 0.704896 15014169
2.952730 16.799726 0.949687 15014169
2.509115 17.273010 1.269781 15014169
2.765882 17.410532 1.608811 15014169
2.347939 16.867306 0.369079 15014169
2.938983 17.485929 0.831789 15014169
2.341478 16.862354 1.517494 15014169
2.610622 16.931686 1.174172 15014169
2.848708 17.120485 0.368830 15014169
2.568271 17.403027 0.449151 15014169
2.355652 17.337317 0.485639 15014169
2.373681 16.949329 0.712008 15014169
2.527078 17.340456 0.650064 15014169
2.360732 16.881855 0.797448 15014169
2.438766 17.372402 1.154262 15014169
2.475695 17.474379 0.865046 15014169
2.937630 16.969673 0.749145 15014169
2.968101 16.861267 1.529115 15014169
2.959433 17.017685 1.587749 15014169
2.910890 17.501060 0.452941 15014169
2.702821 17.331959 1.320098 15014169
2.876700 16.793251 1.631405 15014169
2.390831 16.808037 1.659835 15014169
2.411496 17.371361 0.315818 15014169
2.312633 16.819149 1.192384 15014169
2.456216 17.075340 1.649799 15014169
2.437052 16.964268 0.978171 15014169
2.483499 17.152020 0.930037 15014169
2.521465 16.800579 1.366096 15014169
2.913598 17.031475 0.953822 15014169
2.332105 17.299952 0.620807 15014169
2.398387 16.883141 0.583129 15014169
2.791447 17.100115 1.285352 15014169
2.394773 16.945974 1.459300 15014169
2.305658 16.949192 1.469012 15014169
2.757147 16.982162 1.448287 15014169
2.409171 17.169447 1.129512 15014169
2.969183 17.272869 0.782050 15014169
2.638300 16.947004 1.685016 15014169
2.562613 16.856623 1.685042 15014169
2.910814 17.161373 0.343845 15014169
2.860484 17.418255 1.171304 15014169
2.489970 17.438641 0.339848 15014169
2.505969 17.043728 1.506994 15014169
2.305369 17.255285 1.074115 15014169
2.513497 16.815817 0.513986 15014169
2.741188 16.825470 0.380526 15014169
2.635769 17.143131 0.332309 15014169
2.664504 16.855715 0.460298 15014169
2.767336 17.013439 1.381235 15014169
-0.484133 -13.611609 0.477680 1645029
-0.484183 -13.317827 1.218247 1645029
-0.994319 -13.836125 1.061976 1645029
-0.766772 -13.592661 1.017643 1645029
-0.671382 -13.523444 1.207970 1645029
-0.733370 -13.540089 1.493207 1645029
-0.731612 -13.497477 0.606377 1645029
-0.841531 -13.371665 1.259647 1645029
-0.595422 -13.576441 0.968656 1645029
-0.650889 -13.976658 0.617944 1645029
-0.131951 -13.707560 1.080944 1645029
-0.350661 -13.987904 1.261753 1645029
-0.836953 -13.700092 0.619605 1645029
-0.198551 -13.858671 1.232644 1645029
-0.779200 -13.711844 0.836614 1645029
-1.004007 -13.421357 1.154300 1645029
-1.079895 -13.962276 0.969237 1645029
-0.452811 -13.319516 1.131735 1645029
-0.393359 -13.494911 1.289662 1645029
-0.637662 -13.790401 0.906243 1645029
-0.403825 -13.892673 1.165773 1645029
-0.799372 -13.919098 1.329138 1645029
-0.482961 -13.397774 1.264598 1645029
-0.639952 -14.036079 0.693883 1645029
-0.544662 -14.144575 0.763843 1645029
-0.779828 -13.453468 1.112527 1645029
-0.548207 -13.954963 0.852841 1645029
-0.701695 -13.666293 0.911284 1645029
-0.313269 -13.644431 1.046360 1645029
-0.373211 -13.781482 1.135664 1645029
-0.838941 -13.857466 0.841125 1645029
-0.991136 -13.664664 0.645389 1645029
-0.841352 -13.666884 1.343093 1645029
-0.810148 -13.662490 0.892102 1645029
-0.266318 -13.991926 0.950747 1645029
-0.660385 -13.656863 1.050103 1645029
-0.578911 -13.299792 1.064822 1645029
-1.098238 -14.001041 1.074785 1645029
-0.586827 -13.648044 1.165175 1645029
-0.865351 -14.007146 1.073449 1645029
-0.824060 -13.850195 0.530638 1645029
-1.040503 -13.740423 0.871639 1645029
-0.415285 -13.866049 1.138145 1645029
-0.625443 -13.754164 1.211331 1645029
-0.778997 -13.552065 0.686948 1645029
-0.516727 -13.582429 0.687390 1645029
-0.504522 -13.311194 0.991574 1645029
-0.528522 -13.653557 0.885161 1645029
-0.725632 -13.710414 0.686827 1645029
-0.336817 -13.988019 0.807391 1645029
-0.762706 -14.147993 0.959462 1645029
-0.258663 -13.765037 0.978587 1645029
-0.691404 -13.893794 0.848940 1645029
-0.805429 -14.007133 1.360469 1645029
-0.718639 -13.580023 0.512100 1645029
-0.200953 -13.717189 1.286869 1645029
-0.935524 -13.402464 0.718611 1645029
-0.941280 -13.511683 0.646192 1645029
-0.529379 -14.170284 0.903352 1645029
-0.910102 -13.880935 0.874053 1645029
-0.618020 -14.131680 0.953864 1645029
-0.496219 -13.787742 0.971820 1645029
-0.931772 -13.826292 0.993277 1645029
-0.731503 -13.464366 0.886969 1645029
-0.759789 -13.243217 0.942992 1645029
-0.844678 -13.799871 1.413184 1645029
-0.759143 -13.832066 1.165341 1645029
-0.530218 -13.559026 1.236262 1645029
-0.286469 -13.586830 1.155717 1645029
-0.185201 -13.609894 1.007458 1645029
-0.954625 -14.055932 1.225008 1645029
-0.369308 -13.405852 1.067778 1645029
-0.264690 -13.716600 1.023128 1645029
-0.899288 -13.495633 0.579339 1645029
-0.735576 -13.387263 1.240720 1645029
-0.610391 -13.310271 1.078557 1645029
-0.457356 -13.521740 0.858022 1645029
-0.635700 -13.531933 0.551438 1645029
-0.316372 -13.687017 1.001826 1645029
-0.278012 -13.481347 1.202449 1645029
-4.367090 7.175411 0.468374 10053171
-5.981806 7.079877 0.410728 10053171
-4.433741 6.973073 2.366737 10053171
-5.156377 7.165775 2.893499 10053171
-3.851344 7.001882 0.280061 10053171
-6.679947 6.759228 2.478354 10053171
-4.101436 7.163463 2.549335 10053171
-3.164016 6.962456 1.349912 10053171
-4.400471 6.982496 0.512546 10053171
-3.479094 7.206086 2.566036 10053171
-3.670693 7.207716 2.507230 10053171
-3.262263 6.973445 0.862237 10053171
-3.987942 7.062330 0.158353 10053171
-4.986358 6.793672 1.146907 10053171
-6.833353 6.975534 0.201107 10053171
-4.616981 7.133912 2.197183 10053171
-6.417930 6.991404 1.213790 10053171
-4.666791 6.945734 0.449858 10053171
-6.908847 6.766078 2.825260 10053171
-6.336116 7.213821 2.890316 10053171
-6.061833 7.054924 0.763621 10053171
-6.124887 6.800874 2.806094 10053171
-3.733966 6.850097 2.214041 10053171
-4.838220 7.045504 2.500281 10053171
-6.574738 6.999394 2.659757 10053171
-6.060822 7.133794 1.120145 10053171
-3.395923 7.153038 1.453123 10053171
-4.619257 6.953202 1.338181 10053171
-6.023303 7.222991 2.406921 10053171
-6.664961 7.022493 2.936004 10053171
-6.858881 7.068868 1.108764 10053171
-5.975220 6.770923 0.162640 10053171
-6.137486 7.021960 1.950422 10053171
-3.855056 6.975999 0.580304 10053171
-4.713535 7.168220 0.088860 10053171
-5.881459 7.167088 2.084171 10053171
-4.850135 6.948918 1.387284 10053171
-5.492722 7.230991 2.736989 10053171
-5.044694 6.749039 1.319328 10053171
-6.168710 6.985237 2.523656 10053171
-4.469273 6.924161 2.110299 10053171
-4.108256 7.096737 1.111313 10053171
-3.867147 6.755183 0.888560 10053171
-4.732062 6.919870 2.256150 10053171
-5.550306 6.968225 0.644160 10053171
-3.797952 7.078005 1.159313 10053171
-3.491878 7.071951 2.137863 10053171
-4.284778 7.188338 0.688163 10053171
-4.120984 7.268269 2.567226 10053171
-5.285000 6.965733 1.596349 10053171
-6.769122 7.051421 2.613604 10053171
-5.657292 6.976974 1.219457 10053171
-5.756593 6.872076 2.784605 10053171
-3.521178 6.857777 2.696892 10053171
-3.067113 6.884592 0.638131 10053171
-5.044587 7.037978 2.152552 10053171
-3.512998 7.069269 0.800776 10053171
-5.440652 7.050626 1.607695 10053171
-3.332388 7.087691 2.152790 10053171
-6.478024 7.185937 0.042722 10053171
-6.357034 6.754855 2.597579 10053171
-4.387104 6.938329 2.928004 10053171
-6.324222 6.967993 0.874524 10053171
-3.771246 7.158326 1.058030 10053171
-3.556463 7.066663 2.684404 10053171
-4.165797 6.928408 2.151210 10053171
-6.346393 6.822137 1.066516 10053171
-3.773099 7.024039 1.899306 10053171
-3.889997 7.060859 1.234048 10053171
-5.437339 7.190633 0.699989 10053171
-5.926379 6.912271 2.507698 10053171
-3.289158 6.926684 1.474710 10053171
-6.801548 6.741343 2.280725 10053171
-3.687956 6.996284 1.010601 10053171
-6.520506 7.212571 1.573565 10053171
-5.309342 7.000765 0.875819 10053171
-6.506185 6.882606 0.446190 10053171
-4.529216 7.104661 2.286433 10053171
-6.746795 7.156596 1.130030 10053171
-4.025609 6.896558 0.241217 10053171
-5.788908 7.210793 0.713499 10053171
-6.961693 7.074598 2.934978 10053171
-3.119891 7.074176 2.188534 10053171
-4.146448 7.086607 0.042888 10053171
-4.446519 7.173994 1.357142 10053171
-6.607820 7.213635 0.403497 10053171
-5.853601 6.872276 0.168664 10053171
-3.263411 6.881967 0.164595 10053171
-6.523705 6.924396 1.344503 10053171
-5.975403 6.839641 -0.003574 10053171
-5.431479 7.043998 1.771925 10053171
-6.374986 7.004372 2.972093 10053171
-6.069156 6.846268 2.944354 10053171
-4.227425 7.201032 1.414140 10053171
-4.307526 7.110748 2.186834 10053171
-3.920492 7.177438 2.408521 10053171
-5.662657 7.219169 0.381333 10053171
-5.353438 6.903259 0.441833 10053171
-3.335192 6.969575 0.984537 10053171
-6.873925 6.967397 0.270915 10053171
-4.478888 6.809646 1.777256 10053171
-6.226769 7.229322 1.526270 10053171
-3.850474 7.182806 0.873627 10053171
-3.781313 6.977325 2.086894 10053171
-4.797796 7.129544 1.241722 10053171
-5.645030 7.244213 1.585269 10053171
-4.238481 6.967625 0.421379 10053171
-5.509906 7.190614 0.312237 10053171
-3.274752 7.090333 0.135663 10053171
-5.110424 6.787667 1.793085 10053171
-5.639589 7.039717 2.633120 10053171
-5.454991 6.876228 2.384396 10053171
-4.461606 6.926235 0.684198 10053171
-4.762833 6.937102 2.308255 10053171
-6.484192 6.951984 1.160979 10053171
-5.727723 6.780121 1.363782 10053171
-4.575325 6.915582 1.775971 10053171
-4.059502 7.080430 2.553968 10053171
-3.335459 7.027969 0.189480 10053171
-4.623505 6.754930 1.414603 10053171
-3.804264 7.202403 0.866523 10053171
-5.171583 6.847052 0.239575 10053171
-6.418393 6.770534 0.295239 10053171
-5.584155 7.022508 0.835866 10053171
-3.129996 7.164306 1.562853 10053171
-5.384846 7.069207 2.713984 10053171
-5.330684 6.914956 2.697880 10053171
-4.385282 6.912738 0.778742 10053171
-6.978302 7.108344 2.640411 10053171
-4.286140 7.040710 2.900402 10053171
-4.847630 6.976521 0.258807 10053171
-6.482657 6.896001 2.257677 10053171
-5.348707 6.927453 1.747076 10053171
-5.254907 7.059913 1.639020 10053171
-4.648005 6.838888 0.821709 10053171
-3.265676 6.815882 0.441556 10053171
-4.002050 6.952144 1.204984 10053171
-3.749824 7.226313 0.789662 10053171
-5.117991 7.032709 2.755133 10053171
-4.749824 7.168472 1.093632 10053171
-5.647183 6.770898 2.541945 10053171
-5.387669 7.164865 2.264460 10053171
-6.053774 7.002980 2.968948 10053171
-3.719161 6.924487 1.067239 10053171
-4.246014 7.071508 2.722003 10053171
-5.925635 7.055019 0.633596 10053171
-4.975094 6.801791 2.311538 10053171
-3.931829 6.805713 1.363160 10053171
-6.023660 7.189464 1.714966 10053171
-3.621182 7.199868 0.415574 10053171
-5.857904 6.926617 2.259508 10053171
-6.575770 6.886477 1.731726 10053171
-4.760259 6.801694 2.779571 10053171
-6.486646 7.158143 1.209934 10053171
-3.558002 7.008470 1.101669 10053171
-6.238668 6.815673 1.554346 10053171
-3.028438 6.865567 1.552974 10053171
-6.379107 7.232631 0.960415 10053171
-4.774262 6.994499 1.229372 10053171
-6.395864 7.095714 0.927289 10053171
-6.902890 6.884845 2.245718 10053171
-3.716521 7.217211 1.820966 10053171
-4.221267 7.170589 0.814900 10053171
-6.309262 6.785104 2.953824 10053171
-3.047468 6.757156 2.258069 10053171
-6.408144 6.923551 1.493523 10053171
-6.287453 6.992928 0.995868 10053171
-5.152715 6.769235 1.215891 10053171
-3.966509 7.147279 0.929624 10053171
-6.402804 7.087225 0.848782 10053171
-6.223010 6.734936 2.098971 10053171
-3.515035 7.042154 0.965382 10053171
-5.329360 6.954505 2.324703 10053171
-4.504797 6.751837 0.617688 10053171
-5.573323 7.217809 0.162146 10053171
-3.617140 6.924922 1.811804 10053171
-6.992405 7.178760 2.097771 10053171
-6.194279 7.158662 1.953233 10053171
-4.713480 6.902194 0.451854 10053171
-5.561831 6.945234 1.735943 10053171
-6.754102 6.764070 1.272870 10053171
-5.556995 6.804438 1.498631 10053171
-6.407913 6.874035 2.042058 10053171
-5.989829 6.767408 1.071673 10053171
-5.774164 6.757153 2.075312 10053171
-5.570888 6.804450 1.566871 10053171
-3.362982 7.082909 2.629747 10053171
-5.063321 7.026144 0.363654 10053171
-4.189762 7.184153 0.529010 10053171
-5.072485 7.137375 0.833203 10053171
-6.388042 6.929440 2.854029 10053171
-6.856214 6.818419 2.524063 10053171
-6.715072 6.767889 0.430569 10053171
-3.257417 7.092915 1.577134 10053171
-6.001424 6.735372 2.602968 10053171
-4.046998 6.924060 1.547570 10053171
-6.697878 7.204933 0.599865 10053171
-6.908286 6.957639 2.952980 10053171
-4.468346 6.942657 1.944980 10053171
-4.893591 7.065840 2.553973 10053171
-3.938307 7.107039 0.781941 10053171
-4.135791 7.258615 0.501928 10053171
-3.907192 6.784698 1.126676 10053171
-3.478280 7.225362 2.472308 10053171
-3.403353 7.187206 0.180367 10053171
-3.147887 6.788483 0.456991 10053171
-4.799930 7.209798 1.084599 10053171
-6.922416 7.078992 0.565573 10053171
-6.236920 6.764502 1.883281 10053171
-6.661487 6.921013 0.629583 10053171
-6.355523 7.170965 1.721986 10053171
-6.412109 6.826400 1.130102 10053171
-4.974041 6.822371 0.308306 10053171
-5.303504 7.049895 1.129148 10053171
-6.004951 7.067605 1.266270 10053171
-3.176082 7.011044 2.072980 10053171
-4.537799 6.920142 0.165494 10053171
-6.037562 6.825130 0.186516 10053171
-3.634475 7.140887 0.316194 10053171
-3.310797 7.192718 2.600246 10053171
-4.007838 6.911554 2.664885 10053171
-4.128253 6.853733 2.993099 10053171
-5.534270 7.093457 1.944679 10053171
-4.324807 7.162776 0.752668 10053171
-4.265550 6.935691 0.580960 10053171
-3.620773 7.145896 0.617605 10053171
-3.725710 6.949651 0.914590 10053171
-4.654400 7.021159 0.628721 10053171
-4.181675 6.906888 0.194245 10053171
-6.541893 6.808190 2.361089 10053171
-4.724782 7.177331 0.509536 10053171
-5.156495 6.986691 1.465224 10053171
-6.438866 7.246901 1.331853 10053171
-6.984147 7.027633 2.102883 10053171
-6.608524 7.243427 1.475040 10053171
-5.037517 7.127022 2.902369 10053171
-4.716726 6.833137 0.736471 10053171
-4.279237 6.923937 1.317185 10053171
-5.416174 6.822312 2.064708 10053171
-3.999863 6.756975 2.818471 10053171
-5.961890 7.004272 1.418682 10053171
-6.738129 6.780423 0.255916 10053171
-3.286816 7.142245 2.693531 10053171
-5.115449 7.062323 1.721920 10053171
-5.855954 7.184497 0.521223 10053171
-6.243359 6.886558 1.062806 10053171
-6.938183 7.078168 1.611575 10053171
-5.745376 7.195873 2.553867 10053171
-6.244819 6.932309 2.043316 10053171
-3.796370 6.967003 1.333451 10053171
-5.707716 7.169389 0.864034 10053171
-3.102345 6.813026 0.964189 10053171
-3.911733 6.844030 1.101266 10053171
-5.335838 7.165906 1.629032 10053171
-3.502402 6.780467 0.849646 10053171
-4.702038 7.249567 1.559507 10053171
-3.623513 6.997578 2.199598 10053171
-4.566201 7.135602 2.692104 10053171
-4.923367 7.097237 2.079325 10053171
-6.916638 6.779655 2.376382 10053171
-3.411869 7.112736 0.850404 10053171
-5.527159 7.050218 2.908767 10053171
-4.824417 6.917085 0.713402 10053171
-4.590311 7.012895 2.177759 10053171
-6.909413 7.022494 2.220102 10053171
-3.643636 6.872582 1.218188 10053171
-4.326578 6.919962 0.822740 10053171
-6.443619 6.775428 2.061040 10053171
-6.032684 6.794112 2.062719 10053171
-4.831117 6.764254 0.953993 10053171
-3.708860 6.864959 0.006010 10053171
-4.875130 7.134468 2.479193 10053171
-3.744940 7.009252 2.465883 10053171
-5.173993 7.090520 1.518404 10053171
-6.227982 6.854777 1.600897 10053171
-6.670487 7.174908 2.923811 10053171
-3.951364 6.923883 0.925189 10053171
-6.245825 7.034722 0.966161 10053171
-4.876408 7.173826 1.519650 10053171
-3.290765 7.217665 0.920239 10053171
-6.348417 7.059496 1.854052 10053171
-5.676422 6.822638 1.341276 10053171
-3.553768 6.915493 0.429153 10053171
-5.658088 6.779847 2.099027 10053171
-4.305149 7.258303 0.435264 10053171
-3.182441 7.021082 1.435096 10053171
-3.121214 6.945113 1.832783 10053171
-4.077755 6.770267 0.897340 10053171
-4.281226 7.192217 1.315612 10053171
-3.097008 6.848926 0.287375 10053171
-4.010322 7.129771 1.416898 10053171
-5.435566 6.905421 1.056771 10053171
-4.006467 6.960380 0.360515 10053171
-3.785711 6.955592 0.164415 10053171
-5.720168 7.269044 1.877337 10053171
-5.686178 7.194438 1.788272 10053171
-6.056259 6.740233 2.390533 10053171
-3.605495 6.956637 0.797044 10053171
-5.216014 7.145000 1.185407 10053171
-5.133817 6.843729 2.503967 10053171
-4.269213 7.200784 0.622232 10053171
-6.978769 7.209432 0.078444 10053171
-4.013657 6.790873 1.124001 10053171
-4.056112 6.796245 1.838933 10053171
-5.419139 6.862664 2.745674 10053171
-3.264606 7.051881 1.538145 10053171
-3.308616 7.231338 0.000959 10053171
-3.225910 6.824529 1.504029 10053171
-4.646344 6.948485 1.554775 10053171
-4.964540 6.843705 0.155792 10053171
-6.798298 6.845110 1.560856 10053171
-5.526150 6.923787 0.136212 10053171
-6.907348 6.904891 1.423261 10053171
-4.185492 6.756769 1.313913 10053171
-6.397528 6.925333 0.228575 10053171
-3.347890 6.763195 2.842484 10053171
-4.107920 6.801540 1.412657 10053171
-4.733647 6.828164 1.924304 10053171
-6.167685 6.805866 0.123785 10053171
-5.194577 7.121773 1.833716 10053171
-6.269271 7.125912 2.265039 10053171
-5.139386 7.080678 1.389404 10053171
-6.465806 6.934781 1.320219 10053171
-5.464431 7.085462 0.281150 10053171
-4.963469 7.175479 1.786906 10053171
-3.860333 6.985225 1.639790 10053171
-5.416649 7.081166 2.731478 10053171
-5.712458 7.057996 2.979952 10053171
-6.813041 7.135753 0.776188 10053171
-4.898520 7.163043 1.116893 10053171
-6.962177 6.947529 0.266191 10053171
-6.744028 6.986160 1.036828 10053171
-4.309175 6.795054 1.925211 10053171
-3.989529 7.158642 0.090353 10053171
-3.120879 7.040161 1.323791 10053171
-3.863676 7.027291 0.404407 10053171
-3.118045 6.742360 1.718353 10053171
-3.473934 6.856556 0.320321 10053171
-6.628269 7.088113 1.219704 10053171
-4.082157 7.124611 0.744765 10053171
-3.813993 6.993621 2.075584 10053171
-3.795508 7.025034 1.237551 10053171
-4.629269 7.149137 2.688789 10053171
-4.625955 7.218146 2.366713 10053171
-6.244426 7.140054 0.884946 10053171
-3.102914 6.916161 0.014287 10053171
-4.378736 6.773635 0.511820 10053171
-5.180184 7.028757 2.855536 10053171
-5.326835 6.998352 2.469814 10053171
-3.671243 7.210163 1.072220 10053171
-4.820108 6.764154 0.075163 10053171
-4.776145 7.120704 0.912631 10053171
-4.083412 6.875495 1.533172 10053171
-3.531528 6.960620 0.970659 10053171
-6.964969 7.122764 0.901682 10053171
-3.904834 6.933598 1.366497 10053171
-3.606102 6.950809 2.734388 10053171
-5.522499 6.819318 2.593963 10053171
-5.419707 6.775116 2.396702 10053171
-3.017627 6.796198 2.929448 10053171
-6.153658 6.842188 2.053270 10053171
-4.435418 7.120289 0.784264 10053171
-4.518383 7.027066 0.709717 10053171
-3.178107 7.229484 2.727762 10053171
-5.890533 7.217335 2.539492 10053171
-4.222045 6.899600 2.125536 10053171
-3.210615 6.929360 0.480284 10053171
-5.003961 6.824476 1.845421 10053171
-3.723454 6.970929 0.081427 10053171
-4.309849 7.216538 0.523196 10053171
-6.195310 6.868402 1.545401 10053171
-3.868503 7.189931 0.584145 10053171
-5.437456 6.773427 1.462755 10053171
-3.221850 6.803133 2.169094 10053171
-3.449638 6.941702 0.325479 10053171
-3.953955 7.242687 2.043003 10053171
-6.188384 7.193799 0.271662 10053171
-6.566260 6.898362 0.547836 10053171
-4.606485 6.890448 1.239718 10053171
-5.133601 6.792643 -0.009470 10053171
-5.462398 6.817385 0.524518 10053171
-3.772516 6.785693 0.391017 10053171
-5.334594 7.241432 0.673227 10053171
-3.186312 7.176498 1.375102 10053171
-4.930360 6.744625 2.546610 10053171
-6.726725 7.124056 1.629901 10053171
-4.820541 6.794379 1.171656 10053171
-4.104978 7.024436 1.642155 10053171
-4.090456 7.035506 1.609070 10053171
-3.490722 6.920616 2.925305 10053171
-4.075193 7.153584 2.888725 10053171
-6.597876 6.917359 1.753533 10053171
-5.189793 7.043536 1.696078 10053171
-5.097925 7.169718 2.158815 10053171
-4.485370 6.859350 0.037337 10053171
-5.344552 6.756617 2.571059 10053171
-5.162865 6.758363 1.366567 10053171
-4.061402 6.891946 0.721175 10053171
-4.396089 7.046888 1.033306 10053171
-5.238454 7.116732 0.709112 10053171
-3.759012 6.768543 1.912623 10053171
-3.644157 7.245636 2.731165 10053171
-3.370806 7.152001 0.989455 10053171
-4.063895 7.198840 2.630775 10053171
-3.101319 7.176167 2.868878 10053171
-3.570305 7.037775 1.657744 10053171
-5.331728 7.127705 0.094160 10053171
-3.918150 6.940966 2.304186 10053171
-6.390651 7.041049 2.536956 10053171
-3.109520 7.094189 2.770962 10053171
-4.848032 7.151125 0.111480 10053171
-5.917683 6.893107 0.143422 10053171
-4.279410 7.069140 0.565261 10053171
-4.627249 7.149429 -0.000294 10053171
-6.634140 7.207820 1.393211 10053171
-6.053499 6.925293 0.095337 10053171
-5.825940 6.774772 2.917081 10053171
-4.484707 7.043376 2.830330 10053171
-5.621170 7.191399 2.537002 10053171
-3.112008 6.958950 0.603100 10053171
-5.766571 6.957550 0.609765 10053171
-4.079401 7.097532 1.555115 10053171
-4.704617 6.770411 1.666687 10053171
-4.961192 7.141889 1.233171 10053171
-4.428270 6.963951 0.509067 10053171
-5.293405 7.243417 0.312010 10053171
-3.875191 6.968280 0.836474 10053171
-4.231934 6.933700 2.666356 10053171
-5.234115 7.104063 1.713662 10053171
-3.016821 6.987887 0.261287 10053171
-5.430972 6.875350 1.043314 10053171
-6.582898 7.088460 2.699086 10053171
-5.111397 6.819797 1.626365 10053171
-3.025989 6.906267 0.769132 10053171
-6.594225 6.982181 1.157127 10053171
-3.069279 6.987743 0.183846 10053171
-6.260776 7.211577 1.924881 10053171
-3.684714 6.914597 1.369676 10053171
-4.173982 7.120128 0.204513 10053171
-3.851357 7.151340 1.805767 10053171
-4.180717 7.010111 1.335837 10053171
-3.091102 6.798901 0.726032 10053171
-5.605203 7.218942 0.116764 10053171
-5.650020 7.021436 2.790057 10053171
-4.776331 6.942354 1.800282 10053171
-5.935650 7.174010 2.048002 10053171
-3.328102 7.105686 0.983350 10053171
-6.488091 6.820231 0.741217 10053171
-6.598149 7.072695 1.904102 10053171
-3.745665 6.848847 0.034260 10053171
-4.620966 7.113593 2.023319 10053171
-5.612676 6.760710 2.659335 10053171
-3.961453 7.075223 0.432222 10053171
-3.906978 6.781276 1.649103 10053171
-5.373469 7.015610 0.790408 10053171
-4.840301 6.834768 1.749839 10053171
-5.776238 6.944804 1.071012 10053171
-6.622664 6.872649 0.163175 10053171
-4.527565 6.967202 1.706728 10053171
-3.715775 7.096454 2.799238 10053171
-5.714104 6.850409 0.087801 10053171
-5.663373 7.051888 0.391293 10053171
-4.247807 6.836572 0.878589 10053171
-5.868354 6.879664 2.061107 10053171
-4.895227 6.847632 2.918718 10053171
-3.162868 6.993735 2.035675 10053171
-3.615988 6.902401 1.080838 10053171
-4.808123 7.133297 2.849917 10053171
-4.539383 7.158230 1.474757 10053171
-3.448411 7.090172 1.069880 10053171
-3.152338 7.172901 0.515720 10053171
-5.422791 7.100589 0.814784 10053171
-6.660564 6.964324 2.583988 10053171
-3.289107 6.914172 2.400389 10053171
-5.841987 7.156328 2.058017 10053171
-4.647724 6.940560 1.482827 10053171
-4.287799 6.842460 2.114066 10053171
-3.022858 6.734087 2.470649 10053171
-3.040479 6.985441 1.093302 10053171
-4.383380 7.176400 0.305874 10053171
-5.493553 7.230830 2.315362 10053171
-5.594951 7.121511 1.112073 10053171
-3.895870 6.902197 1.865419 10053171
-4.679851 7.087936 2.939651 10053171
-4.730749 7.167625 2.685529 10053171
-6.302697 7.033734 1.602723 10053171
-3.126045 7.199731 0.329128 10053171
-4.505671 6.875684 2.785279 10053171
-3.038889 6.924174 1.124270 10053171
-4.458680 7.233677 2.834335 10053171
-5.005745 6.925560 2.709138 10053171
-3.212206 6.952081 0.514149 10053171
-5.972332 6.814789 0.783665 10053171
-4.702229 7.149272 0.326513 10053171
-3.002797 7.059923 0.561497 10053171
-5.426014 6.893434 1.086606 10053171
-3.921169 6.824800 0.629021 10053171
-6.079619 6.982749 2.733514 10053171
-3.294361 6.933291 0.551617 10053171
-5.710984 6.761890 2.818592 10053171
-4.174766 6.854062 0.639046 10053171
-6.603370 6.992719 2.951783 10053171
-6.917176 7.238892 2.517721 10053171
-6.885232 7.214675 0.735390 10053171
-5.280735 7.015076 2.452600 10053171
-5.194387 6.959611 1.279721 10053171
-3.179062 7.157267 1.924361 10053171
-6.379554 6.958260 1.727113 10053171
-4.090463 6.874698 0.113976 10053171
-3.512580 6.879723 0.011070 10053171
-6.120964 6.875751 1.876740 10053171
-3.114527 7.074628 0.781401 10053171
-3.573431 7.035703 2.711379 10053171
-4.241349 7.046419 2.633322 10053171
-3.431480 6.908169 2.414372 10053171
-5.118890 6.900082 2.889752 10053171
-4.460394 7.128543 1.060291 10053171
-6.614904 6.832846 2.040068 10053171
-3.826251 6.877530 2.273479 10053171
-3.554682 7.002432 1.037397 10053171
-4.285676 6.762721 0.880096 10053171
-3.865077 7.009377 1.012523 10053171
-5.373644 6.980690 2.103659 10053171
-3.242935 6.840189 0.495341 10053171
-3.398889 7.265915 0.626156 10053171
-6.359439 6.754180 1.240808 10053171
-5.808905 7.228834 1.580439 10053171
-3.803987 6.890011 0.810820 10053171
-6.572228 6.868413 1.590856 10053171
-4.374534 6.814157 0.976334 10053171
-5.659687 6.898736 0.090938 10053171
-4.376914 7.020635 1.190954 10053171
-4.172657 6.914759 2.126496 10053171
-3.245573 7.151756 1.283193 10053171
-3.750636 7.225328 2.641967 10053171
-5.889964 6.814029 0.068532 10053171
-5.673087 6.809585 1.562992 10053171
-4.953791 6.956922 2.471680 10053171
-6.084341 7.055342 1.140617 10053171
-6.766469 7.238975 2.121235 10053171
-5.451149 6.861169 1.250475 10053171
-6.180239 6.894782 2.910956 10053171
-5.555594 6.765674 2.400935 10053171
-4.521997 7.168916 1.538166 10053171
-5.305536 6.892186 0.594039 10053171
-6.006457 7.228477 1.498024 10053171
-3.515824 6.857025 2.540279 10053171
-5.684864 6.937685 2.271664 10053171
-6.071200 6.951749 1.452460 10053171
-6.591366 6.897055 1.251564 10053171
-6.770154 7.070338 2.607984 10053171
-6.563573 6.855128 1.822589 10053171
-6.082386 6.977796 2.785257 10053171
-4.233966 7.193805 2.773687 10053171
-4.911173 7.082961 2.192387 10053171
-4.865738 7.137901 0.037463 10053171
-4.097963 6.843097 1.580782 10053171
-6.998206 7.247974 0.330101 10053171
-5.486815 7.162474 0.037108 10053171
-3.511313 6.810829 0.728636 10053171
-6.071945 6.786018 0.907126 10053171
-3.545675 6.816025 2.837790 10053171
-3.541667 7.171000 0.916911 10053171
-5.198650 6.835402 2.954112 10053171
-6.947800 6.858001 2.323222 10053171
-4.331590 6.839252 0.575307 10053171
-4.576960 6.862258 0.882563 10053171
-3.481627 6.837877 0.295122 10053171
-6.421353 6.979374 1.133217 10053171
-5.280412 7.246778 1.651978 10053171
-4.223014 7.176847 1.695961 10053171
-5.756137 7.120787 0.919951 10053171
-4.643194 6.957994 2.945696 10053171
-5.834571 7.026110 1.016973 10053171
-5.186719 7.138784 0.285544 10053171
-4.799746 6.858561 2.719260 10053171
-3.339424 6.988866 0.793379 10053171
-3.916600 7.043708 1.828357 10053171
-5.806307 7.000453 1.283753 10053171
-3.343864 6.957666 1.643427 10053171
-3.002925 7.227640 0.803674 10053171
-3.188475 7.210835 2.789379 10053171
-3.155708 7.186275 2.315178 10053171
-6.059549 6.928108 2.253592 10053171
-6.826046 7.070951 2.040369 10053171
-4.064525 6.797069 1.172366 10053171
-3.192699 7.208165 1.699431 10053171
-6.919110 7.161934 1.471444 10053171
-4.317207 6.897088 1.102113 10053171
-5.281497 7.042055 0.086407 10053171
-6.800642 7.140203 2.872592 10053171
-4.232915 6.813246 2.440402 10053171
-3.455174 7.047338 2.679811 10053171
-3.063688 6.775249 1.152251 10053171
-3.474944 7.208979 0.565700 10053171
-3.468564 6.949417 2.314550 10053171
-4.100675 7.084415 2.725237 10053171
-3.730702 7.065499 2.913083 10053171
-5.749979 6.926522 0.493904 10053171
-4.755913 7.093826 1.543302 10053171
5.894323 -5.985928 1.149466 8342706
6.112394 -5.730153 1.793364 8342706
5.431458 -6.102993 3.656970 8342706
6.163096 -6.460419 0.574103 8342706
5.456588 -6.238211 3.056798 8342706
6.175889 -6.445394 4.074848 8342706
6.348048 -6.078404 4.900425 8342706
6.211164 -5.636757 0.304206 8342706
6.007108 -6.177451 4.016152 8342706
6.175807 -5.989631 0.502605 8342706
5.576031 -5.657687 2.006077 8342706
6.155154 -6.438814 3.306453 8342706
6.526463 -5.823581 4.806795 8342706
6.039262 -5.610357 2.416163 8342706
6.474729 -5.964278 1.322798 8342706
6.077714 -6.217128 2.926387 8342706
6.523253 -5.890309 0.292809 8342706
6.338228 -6.419878 2.970525 8342706
6.306616 -5.501156 2.223435 8342706
6.454823 -6.385256 2.668462 8342706
6.204480 -6.096195 2.960480 8342706
6.289319 -5.560149 2.043020 8342706
5.634239 -6.277353 3.516217 8342706
5.822979 -5.548552 0.189377 8342706
5.642911 -5.761879 0.513534 8342706
6.518946 -5.812879 1.404136 8342706
6.043799 -5.417034 0.775614 8342706
6.203768 -6.313478 1.515681 8342706
6.432141 -6.153662 1.598202 8342706
6.524335 -6.032742 3.469776 8342706
5.626454 -6.173711 3.376761 8342706
5.832308 -6.201995 4.706166 8342706
5.777267 -5.538885 2.038789 8342706
6.327097 -5.782441 2.899091 8342706
6.271715 -5.946537 3.544055 8342706
5.444485 -6.114688 0.541878 8342706
6.390857 -5.809996 1.998132 8342706
5.904369 -5.785841 1.728791 8342706
5.734138 -5.865530 3.152190 8342706
5.659867 -6.178147 1.834419 8342706
5.799677 -5.503222 0.794514 8342706
6.469961 -6.065165 0.394821 8342706
5.985803 -6.147114 4.289625 8342706
5.589825 -6.182557 4.551857 8342706
5.743182 -5.773517 4.149131 8342706
5.744017 -5.908470 3.104671 8342706
6.029065 -5.976074 1.418882 8342706
6.407532 -6.296141 1.989163 8342706
5.661732 -5.720675 3.105152 8342706
6.272365 -6.063286 3.893521 8342706
5.414869 -5.997193 4.572473 8342706
5.971516 -5.460293 4.490771 8342706
5.492739 -5.953395 3.231815 8342706
6.424072 -5.969382 1.941638 8342706
6.179015 -6.480061 4.268768 8342706
6.386750 -5.886807 1.190425 8342706
5.394844 -5.952636 2.350241 8342706
5.511360 -5.753824 4.326659 8342706
6.435562 -6.007421 2.998748 8342706
6.104541 -5.662409 4.820353 8342706
6.276484 -5.860021 2.122184 8342706
5.803988 -5.468922 2.085381 8342706
5.873026 -6.311737 3.565430 8342706
5.994891 -5.518384 3.512865 8342706
5.767574 -6.042095 4.523628 8342706
5.843341 -6.078408 1.752619 8342706
6.162910 -5.755586 1.997602 8342706
6.157515 -6.302507 1.966846 8342706
5.771837 -6.240464 1.529691 8342706
5.607664 -6.256371 1.041339 8342706
5.861205 -6.381828 1.252979 8342706
5.957873 -5.947577 2.999803 8342706
6.071750 -6.108826 4.743934 8342706
5.790254 -5.804941 0.615109 8342706
5.722922 -6.086243 2.517370 8342706
5.947044 -5.981655 3.169156 8342706
5.476543 -6.197260 1.905235 8342706
6.086192 -5.603379 0.156633 8342706
6.449923 -5.942570 1.226330 8342706
6.589045 -6.077687 3.866214 8342706
6.036477 -6.202409 3.293609 8342706
5.587226 -5.655660 1.978711 8342706
6.089042 -6.291018 4.458075 8342706
6.126769 -5.597422 4.631954 8342706
6.429111 -5.674800 0.203310 8342706
5.955965 -6.159018 2.719609 8342706
6.227556 -5.960743 2.441319 8342706
5.493716 -6.176917 3.680112 8342706
6.052394 -6.306943 1.998610 8342706
5.881862 -6.332359 0.989989 8342706
6.176214 -6.410517 4.428739 8342706
5.559539 -5.932800 3.882748 8342706
5.693634 -6.384455 2.517454 8342706
6.120965 -6.506899 1.409203 8342706
5.866296 -5.894216 4.547987 8342706
5.591260 -5.760032 2.348635 8342706
6.459446 -5.852845 2.621816 8342706
6.115009 -6.421949 0.580524 8342706
5.561721 -6.146171 1.872118 8342706
6.321411 -6.025908 1.882358 8342706
6.564535 -6.041642 3.650651 8342706
5.648128 -6.365006 0.621512 8342706
5.688121 -6.465544 0.775849 8342706
6.194564 -6.027472 2.578724 8342706
5.648053 -6.036624 3.314955 8342706
5.759638 -5.572734 4.708291 8342706
5.779197 -6.228645 4.038302 8342706
5.655342 -5.825438 1.238130 8342706
6.405521 -5.985425 4.444785 8342706
5.828502 -5.630016 3.521894 8342706
6.032769 -5.787782 0.932902 8342706
6.162868 -6.370293 1.766435 8342706
6.148382 -5.790981 1.587062 8342706
5.957662 -5.777188 4.085020 8342706
6.054476 -6.197281 4.596301 8342706
5.774627 -6.142552 0.230512 8342706
5.902957 -5.629436 1.671889 8342706
6.189538 -5.633256 3.842556 8342706
5.698743 -5.955782 3.114828 8342706
5.804114 -6.184415 2.621425 8342706
5.699160 -5.857948 2.897875 8342706
5.610162 -6.255649 3.730066 8342706
5.885518 -6.595177 1.063613 8342706
6.112820 -5.805250 1.679914 8342706
6.298919 -6.329165 0.572633 8342706
6.359523 -5.687984 2.300725 8342706
6.150413 -5.578604 3.087354 8342706
5.684760 -5.689137 1.214733 8342706
5.996221 -5.717243 3.698203 8342706
6.222362 -6.026925 4.403359 8342706
6.504035 -6.112458 2.693977 8342706
6.348014 -6.160807 3.362979 8342706
5.678395 -6.283025 4.704496 8342706
6.282777 -5.527431 4.642656 8342706
5.975343 -6.222592 3.562629 8342706
5.753198 -5.651460 2.590875 8342706
6.075352 -6.580939 4.509622 8342706
5.538297 -5.764097 4.234477 8342706
5.514099 -6.147408 2.874195 8342706
6.119134 -5.644507 2.484908 8342706
5.688685 -5.892429 4.039276 8342706
5.880133 -5.436798 3.023638 8342706
6.490867 -5.811334 0.130535 8342706
6.063784 -5.421247 0.411939 8342706
6.381969 -5.733727 0.067970 8342706
6.052348 -5.756117 0.525803 8342706
5.659104 -5.732389 3.067580 8342706
6.339889 -6.221858 1.517811 8342706
6.130343 -5.793242 2.480693 8342706
5.778637 -6.182379 1.598408 8342706
5.985308 -6.199008 0.107306 8342706
5.851626 -6.038992 3.741494 8342706
5.716998 -6.174815 3.392769 8342706
6.301834 -6.260635 4.586079 8342706
6.320053 -6.449278 3.370044 8342706
6.009275 -6.558661 4.165046 8342706
6.003397 -5.686706 4.223329 8342706
5.713203 -5.619744 4.241546 8342706
6.204556 -5.880249 1.881420 8342706
5.501094 -6.206335 4.637825 8342706
5.917464 -6.320361 4.702663 8342706
6.054420 -6.453498 1.317893 8342706
6.127191 -5.627588 2.047615 8342706
5.956149 -6.198386 1.722677 8342706
6.045161 -6.020082 4.560663 8342706
6.098809 -5.614890 1.153118 8342706
6.159668 -6.313215 1.567433 8342706
5.750775 -5.721622 0.134989 8342706
6.326113 -6.163916 3.028985 8342706
6.111456 -5.558987 2.639499 8342706
6.279855 -5.867890 1.029565 8342706
5.603857 -6.055534 1.901261 8342706
5.718244 -5.658984 2.250058 8342706
5.787532 -5.637207 2.589388 8342706
5.522697 -5.918305 3.585916 8342706
6.016210 -5.812272 1.864550 8342706
5.722482 -5.886799 1.469199 8342706
5.747712 -6.268435 2.825436 8342706
6.005586 -6.311816 4.892549 8342706
5.960397 -6.443096 4.853627 8342706
6.086149 -5.591960 3.821419 8342706
5.640042 -5.587281 2.000008 8342706
6.528172 -6.037936 4.249678 8342706
5.661490 -5.608815 1.940006 8342706
6.093474 -6.442842 1.685263 8342706
5.596276 -6.223794 1.860587 8342706
6.339381 -5.913865 3.511589 8342706
6.487207 -5.828930 3.815882 8342706
6.444664 -6.096818 3.872937 8342706
6.129866 -5.847440 3.360427 8342706
6.162257 -6.397917 1.019024 8342706
5.655020 -6.139670 3.347018 8342706
6.504322 -6.316162 0.126975 8342706
6.393826 -6.093332 4.934577 8342706
5.446601 -5.902794 3.793125 8342706
6.472549 -6.027951 0.235771 8342706
6.244188 -5.667580 3.711106 8342706
6.102561 -6.008633 2.454824 8342706
6.279319 -5.982988 0.693261 8342706
6.423762 -5.963037 2.430241 8342706
6.089675 -6.490793 2.784997 8342706
6.407276 -6.088029 1.395409 8342706
6.196465 -5.642087 1.073957 8342706
6.260816 -5.592294 4.333485 8342706
6.158478 -6.444249 0.732045 8342706
5.630050 -6.047754 3.178010 8342706
6.529979 -5.812313 1.094911 8342706
6.156113 -5.778320 2.593496 8342706
6.009102 -6.087445 2.527767 8342706
6.380615 -5.681501 1.822990 8342706
5.969753 -6.117189 3.830800 8342706
6.493835 -6.014325 1.575497 8342706
5.497622 -6.281460 0.713279 8342706
5.831344 -6.344759 4.983483 8342706
6.467749 -5.768646 3.982565 8342706
6.221403 -6.038734 0.113691 8342706
6.275258 -5.835445 3.577934 8342706
6.483452 -6.061675 4.584894 8342706
5.910845 -6.052638 3.150245 8342706
6.394126 -6.243766 1.767639 8342706
6.026136 -5.447781 1.965891 8342706
5.406018 -5.962992 4.242412 8342706
6.094773 -6.066816 2.967765 8342706
6.266200 -5.932664 3.235924 8342706
5.640999 -6.181618 3.337758 8342706
6.150329 -6.380993 4.415377 8342706
6.079785 -5.530786 4.106223 8342706
5.931393 -5.856411 2.917617 8342706
5.426423 -6.119167 2.051325 8342706
6.318756 -6.437188 4.891189 8342706
5.635686 -6.376420 2.933111 8342706
6.318442 -6.347718 2.369392 8342706
6.422758 -5.801785 1.051457 8342706
6.451277 -5.891588 2.274758 8342706
5.961680 -5.523652 2.058389 8342706
6.217515 -5.744577 0.468519 8342706
5.895185 -6.285562 1.574032 8342706
6.401135 -5.773253 2.451286 8342706
6.368346 -5.537798 4.081279 8342706
6.481813 -6.179907 1.476671 8342706
6.191213 -5.806015 3.240424 8342706
5.713386 -6.403809 3.086647 8342706
6.257806 -5.536949 4.479103 8342706
6.012102 -5.891345 0.765015 8342706
5.590591 -6.374910 4.399052 8342706
5.609974 -5.750927 4.262868 8342706
6.204797 -5.822146 1.377308 8342706
5.733979 -5.807837 1.060949 8342706
5.871823 -6.113933 0.625779 8342706
6.176187 -5.446282 1.182222 8342706
6.302528 -5.511464 1.162202 8342706
5.651555 -6.249630 4.273963 8342706
5.926325 -6.049651 4.933233 8342706
6.192791 -5.572251 3.774717 8342706
5.653337 -6.029469 4.280853 8342706
6.098414 -6.575593 4.275381 8342706
5.705341 -5.729442 3.950013 8342706
5.543488 -6.094313 3.777963 8342706
6.208200 -6.416663 1.023742 8342706
6.563027 -5.957524 0.480948 8342706
6.004988 -5.539214 2.913988 8342706
6.201441 -6.392705 1.655093 8342706
5.508415 -6.213223 3.925589 8342706
5.592745 -6.441071 2.801707 8342706
5.810524 -5.489239 2.262076 8342706
6.518734 -6.241135 2.077715 8342706
6.063900 -6.384007 0.548203 8342706
5.431375 -5.860914 2.592693 8342706
5.852820 -5.691166 2.552627 8342706
6.302670 -6.076315 0.241923 8342706
6.053630 -5.616757 4.346488 8342706
6.505067 -6.291631 4.432084 8342706
5.821763 -6.392807 4.411871 8342706
5.456193 -5.778851 4.325087 8342706
5.949847 -5.497723 1.504636 8342706
6.541146 -6.216031 4.015380 8342706
6.395741 -6.166514 1.418816 8342706
5.824114 -6.189333 3.746012 8342706
6.107080 -6.347146 1.915524 8342706
5.550275 -5.636542 3.374067 8342706
5.787215 -6.464499 3.544293 8342706
5.507561 -5.690729 3.903460 8342706
6.170254 -5.584287 0.061290 8342706
6.362945 -5.964297 2.642430 8342706
6.374947 -6.068243 1.758927 8342706
5.789165 -5.782979 3.217676 8342706
6.021445 -5.810298 3.185164 8342706
6.313569 -6.045497 2.032320 8342706
6.363886 -5.797711 2.205297 8342706
6.078708 -5.800129 0.103122 8342706
5.823745 -6.055589 0.114797 8342706
6.229700 -6.464745 0.875691 8342706
6.340773 -6.468465 0.739643 8342706
6.143533 -6.370347 4.228459 8342706
5.865894 -6.533403 1.827544 8342706
5.653555 -5.917907 0.975401 8342706
5.763641 -5.676611 2.688394 8342706
6.193936 -5.749795 0.405215 8342706
6.078459 -5.440914 2.101447 8342706
6.011041 -6.498405 1.054605 8342706
6.239428 -5.554258 1.268769 8342706
6.444652 -5.671049 3.599067 8342706
6.495656 -6.254546 0.318236 8342706
5.769740 -5.917767 3.995300 8342706
6.174634 -6.112504 1.751039 8342706
6.097034 -6.232353 3.247509 8342706
5.598566 -6.272562 3.711843 8342706
6.538856 -6.148346 1.837900 8342706
6.249286 -6.229648 1.696412 8342706
5.557934 -5.800241 2.466581 8342706
6.372289 -6.404089 2.019261 8342706
6.122023 -6.216350 3.571407 8342706
6.158127 -6.573877 4.295398 8342706
6.439178 -6.369965 3.682900 8342706
6.125109 -5.539968 2.013382 8342706
6.077081 -5.452262 0.900001 8342706
6.137945 -6.420084 1.154674 8342706
5.684853 -6.082419 0.125945 8342706
5.837907 -5.600478 2.650853 8342706
5.807936 -6.387339 2.627493 8342706
6.101528 -5.490769 3.511854 8342706
5.774072 -6.286815 3.353181 8342706
6.341457 -6.338500 1.095216 8342706
5.793637 -6.547546 4.764263 8342706
6.255841 -5.669456 4.902775 8342706
6.004466 -6.477217 1.858295 8342706
5.687930 -5.779312 0.313636 8342706
6.291045 -5.528124 4.302798 8342706
5.589285 -5.860597 4.358303 8342706
6.222124 -5.587028 0.489447 8342706
6.275333 -6.366175 4.019361 8342706
6.178251 -6.557171 0.576042 8342706
6.172745 -5.863880 1.017689 8342706
6.440769 -6.147540 2.749341 8342706
6.041232 -6.388174 3.740215 8342706
5.989989 -5.529017 2.055130 8342706
6.455444 -6.199756 3.290916 8342706
6.118857 -5.418412 0.248084 8342706
5.495920 -5.704088 4.400354 8342706
6.163970 -6.356327 1.683916 8342706
6.419703 -5.595550 1.852812 8342706
5.865468 -6.097428 0.914542 8342706
6.364243 -5.606251 3.697262 8342706
5.656119 -6.145718 3.762342 8342706
6.523976 -5.919431 1.171672 8342706
5.719501 -5.993616 2.428755 8342706
6.247009 -6.338302 2.938497 8342706
5.712497 -6.386242 4.090945 8342706
6.048896 -6.265092 3.909261 8342706
6.384026 -5.549330 4.920909 8342706
6.539549 -6.271393 4.654113 8342706
6.022314 -5.910070 3.869814 8342706
6.170529 -6.376154 4.351222 8342706
5.738774 -6.196399 1.992623 8342706
6.442591 -5.872046 2.107931 8342706
6.454313 -6.005231 2.218748 8342706
5.858900 -5.448460 1.054078 8342706
6.480189 -5.812059 0.293939 8342706
5.839972 -5.475892 1.384345 8342706
6.222792 -5.698435 4.842081 8342706
5.976930 -5.642763 1.238345 8342706
6.484350 -5.795922 2.255418 8342706
5.769359 -6.235480 3.689557 8342706
6.275076 -6.196385 1.528827 8342706
5.967502 -6.407936 3.959679 8342706
5.995280 -5.810232 2.282048 8342706
6.158556 -6.037043 4.085597 8342706
6.160915 -6.424078 4.350469 8342706
6.300429 -5.604027 4.740949 8342706
6.345290 -5.833728 3.599413 8342706
5.986501 -5.801287 3.167360 8342706
6.522499 -5.867461 3.041775 8342706
6.268678 -5.856361 2.831624 8342706
6.273991 -6.322898 1.997316 8342706
5.764500 -5.715336 3.602966 8342706
5.702303 -5.709974 3.068885 8342706
6.286353 -5.973372 1.453532 8342706
6.379675 -6.244128 1.086498 8342706
5.822083 -5.578370 2.976937 8342706
5.526275 -5.903816 0.117238 8342706
5.665524 -5.639918 0.446525 8342706
5.608971 -5.584064 2.862501 8342706
5.989374 -5.512815 2.116205 8342706
5.516150 -6.115734 1.876072 8342706
6.109739 -5.502526 3.472044 8342706
5.432355 -5.894595 4.589213 8342706
5.453356 -5.781601 2.910736 8342706
6.191123 -6.308879 1.844263 8342706
5.563727 -6.391518 0.842468 8342706
5.881756 -6.479646 1.610026 8342706
6.103290 -6.333544 3.435616 8342706
5.958455 -6.482649 4.603920 8342706
6.366926 -6.159956 0.806346 8342706
6.517761 -6.319959 1.464019 8342706
6.559342 -5.899066 3.399368 8342706
5.565310 -6.089188 1.117413 8342706
6.288205 -6.273475 1.951054 8342706
6.153438 -6.288580 2.942956 8342706
6.067526 -6.494973 4.962091 8342706
5.984304 -6.448491 0.612941 8342706
6.311293 -5.768892 1.760761 8342706
6.385969 -5.930223 1.285194 8342706
6.234160 -6.396214 0.497567 8342706
6.294334 -6.122602 2.892138 8342706
6.481808 -6.141551 0.107126 8342706
6.076523 -5.657931 1.227371 8342706
6.484384 -6.270797 4.285571 8342706
6.424147 -5.659130 4.827921 8342706
6.505306 -6.167034 3.632182 8342706
6.319362 -6.335626 1.589002 8342706
5.742395 -6.302086 0.439953 8342706
6.164700 -5.593723 2.706335 8342706
6.240973 -6.044545 3.833307 8342706
6.310066 -5.851428 0.392555 8342706
6.191747 -5.868746 3.948541 8342706
5.768785 -6.408138 3.289183 8342706
6.386950 -6.207954 0.001487 8342706
6.358868 -5.759354 1.368359 8342706
6.292371 -6.017025 4.237982 8342706
6.343931 -6.093942 2.044546 8342706
5.780107 -5.569652 4.366704 8342706
5.817692 -6.022733 0.862645 8342706
6.035051 -5.743209 4.187381 8342706
5.498093 -5.708622 3.997252 8342706
6.467682 -6.126079 1.761904 8342706
6.290049 -6.461261 1.720419 8342706
6.286458 -6.219046 4.617561 8342706
5.516818 -6.343591 1.247419 8342706
5.993817 -6.251223 3.455732 8342706
6.234394 -5.576601 3.791679 8342706
6.053991 -6.578074 3.656087 8342706
5.950808 -6.027852 1.746463 8342706
5.805687 -5.626373 2.770209 8342706
6.178510 -6.303478 0.930570 8342706
6.177119 -5.988522 3.886532 8342706
6.127012 -6.289973 1.975651 8342706
5.751000 -6.142799 1.021574 8342706
6.558527 -6.020720 1.748884 8342706
5.729900 -6.111150 4.293555 8342706
6.484067 -5.773065 1.023580 8342706
5.556771 -5.863468 0.759492 8342706
6.346338 -5.996179 4.993812 8342706
6.194119 -6.545214 4.129551 8342706
6.082955 -6.417485 4.704521 8342706
6.001667 -5.814101 1.412731 8342706
6.497134 -6.162490 4.999628 8342706
6.135754 -6.083385 1.672624 8342706
5.831425 -5.966577 2.080003 8342706
5.742676 -5.966184 3.043439 8342706
6.512575 -6.259616 4.107242 8342706
5.466188 -5.868135 3.591905 8342706
6.169079 -6.082934 0.987575 8342706
5.885562 -6.258581 1.886875 8342706
5.958808 -5.656364 2.386994 8342706
6.311734 -6.300354 0.085371 8342706
5.819314 -5.579488 4.525414 8342706
5.980617 -5.450763 4.063137 8342706
5.811410 -5.446276 3.560292 8342706
6.405931 -6.359528 1.539007 8342706
5.505113 -6.027373 4.712046 8342706
6.048275 -6.528390 0.124730 8342706
6.545870 -5.945784 1.502171 8342706
6.364399 -5.558168 3.360825 8342706
5.791371 -5.876606 0.823084 8342706
6.022079 -5.978021 0.872167 8342706
5.629345 -5.910634 2.239043 8342706
5.714260 -5.652374 2.288686 8342706
5.772422 -6.116737 3.537412 8342706
6.341240 -5.499343 1.138296 8342706
5.651384 -5.770594 4.823776 8342706
5.884645 -5.782631 0.106607 8342706
5.646832 -6.463272 2.437571 8342706
5.892465 -6.455484 3.631497 8342706
6.031422 -6.582581 0.593180 8342706
6.055785 -5.696711 1.737977 8342706
6.093008 -5.925007 1.780108 8342706
6.148913 -5.771590 4.161117 8342706
5.492465 -6.266121 4.964466 8342706
6.555620 -5.824048 2.163927 8342706
6.235069 -6.439767 3.919619 8342706
6.235697 -5.742340 2.529157 8342706
6.220914 -6.352606 2.386289 8342706
6.082390 -5.660548 4.506104 8342706
5.625455 -6.301964 3.476609 8342706
5.995280 -6.423326 2.701588 8342706
6.580576 -6.099501 0.434271 8342706
5.722714 -5.655963 4.798915 8342706
6.293781 -5.777751 0.295568 8342706
5.957649 -5.743239 4.680545 8342706
6.080681 -5.536685 2.425985 8342706
6.373827 -5.944338 1.856945 8342706
5.837381 -6.334396 3.413997 8342706
6.104542 -5.698710 4.253804 8342706
6.481516 -5.832105 0.472321 8342706
6.383247 -5.780756 4.604905 8342706
6.261837 -6.051738 2.755798 8342706
6.333518 -6.230782 0.708310 8342706
5.442554 -6.018993 2.428366 8342706
5.698950 -5.933287 4.320703 8342706
6.275083 -5.911794 4.822568 8342706
6.325366 -5.567349 1.376516 8342706
5.806398 -6.221451 4.055279 8342706
6.435315 -5.695143 4.599659 8342706
5.852852 -5.506135 4.351249 8342706
5.652194 -5.849936 0.470163 8342706
6.425275 -5.811153 3.477269 8342706
6.363181 -5.747737 0.652673 8342706
5.671343 -6.079026 0.764267 8342706
