# .PCD v0.7 - Point Cloud Data file format
VERSION 0.7
FIELDS x y z rgb
SIZE 4 4 4 4
TYPE F F F U
COUNT 1 1 1 1
WIDTH 1306
HEIGHT 1
VIEWPOINT 0 0 0 1 0 0 0
POINTS 1306
DATA ascii
-1.203113 10.349424 1.332220 15014169
-1.530633 10.306757 1.336993 15014169
-1.730898 10.814552 1.644158 15014169
-1.128244 10.493594 0.324255 15014169
-1.102802 10.425899 1.291245 15014169
-1.520889 10.222646 1.492718 15014169
-1.315451 10.721266 1.084828 15014169
-1.147762 10.811830 0.315333 15014169
-1.737084 10.361239 0.481558 15014169
-1.310561 10.472975 1.539671 15014169
-1.666492 10.488192 0.330260 15014169
-1.311739 10.510538 0.478295 15014169
-1.161959 10.832332 0.410189 15014169
-1.747719 10.500525 1.131802 15014169
-1.539747 10.680058 0.571623 15014169
-1.432551 10.582329 0.915812 15014169
-1.682765 10.326628 0.485890 15014169
-1.541907 10.345661 1.018614 15014169
-1.396763 10.499475 0.754110 15014169
-1.411040 10.822650 1.478084 15014169
-1.710817 10.415503 0.874819 15014169
-1.309042 10.679417 0.917726 15014169
-1.498489 10.741032 1.054521 15014169
-1.155523 10.215584 0.820728 15014169
-1.104567 10.700179 1.551876 15014169
-1.605143 10.717328 0.584301 15014169
-1.407066 10.355921 0.904736 15014169
-1.227104 10.396028 1.166790 15014169
-1.472129 10.825340 1.196754 15014169
-1.328586 10.445008 1.032575 15014169
-1.776235 10.259328 1.574594 15014169
-1.746403 10.829585 1.293977 15014169
-1.351235 10.701855 0.489528 15014169
-1.220455 10.695438 1.053851 15014169
-1.440134 10.510466 0.919083 15014169
-1.216840 10.371051 0.396429 15014169
-1.106086 10.502096 1.366182 15014169
-1.307421 10.552102 0.489678 15014169
-1.582449 10.509290 1.082105 15014169
-1.222482 10.393113 0.857365 15014169
-1.152541 10.757870 0.446941 15014169
-1.699557 10.646973 1.090432 15014169
-1.100078 10.699981 1.419765 15014169
-1.618294 10.548295 1.192044 15014169
-1.790361 10.546851 0.923805 15014169
-1.523751 10.366739 1.566181 15014169
-1.763715 10.418958 0.703324 15014169
-1.106705 10.193861 0.924039 15014169
-1.569166 10.664679 1.272520 15014169
-1.321300 10.810466 1.619698 15014169
-1.731385 10.268946 0.378288 15014169
-1.152362 10.866701 0.820609 15014169
-1.746607 10.263368 1.534238 15014169
-1.469084 10.319501 1.188582 15014169
-1.245172 10.511726 0.347609 15014169
-1.505064 10.781687 0.430588 15014169
-1.720451 10.731049 0.482723 15014169
-1.696804 10.346288 0.711866 15014169
-1.549605 10.754202 0.644423 15014169
-1.717324 10.246174 0.796309 15014169
-1.634043 10.768751 1.131834 15014169
-1.586404 10.903707 0.886515 15014169
-1.158358 10.387804 0.736836 15014169
-1.100107 10.236604 1.543067 15014169
-1.117502 10.430429 1.574217 15014169
-1.165018 10.882912 0.473148 15014169
-1.383646 10.723516 1.319345 15014169
-1.220837 10.191463 1.624428 15014169
-1.680118 10.202975 1.660367 15014169
-1.641929 10.770781 0.323512 15014169
-1.778105 10.244370 1.193500 15014169
-1.616318 10.482697 1.650174 15014169
-1.651417 10.342456 0.979080 15014169
-1.609548 10.542621 0.921501 15014169
-1.550609 10.182269 1.358085 15014169
-1.170423 10.434048 0.964477 15014169
-1.751986 10.714729 0.621381 15014169
-1.697140 10.283294 0.576248 15014169
-1.284298 10.477830 1.276289 15014169
-1.693219 10.342436 1.436435 15014169
-1.768737 10.345766 1.479830 15014169
-1.332090 10.370902 1.441639 15014169
-1.678698 10.552706 1.139601 15014169
-1.090164 10.657061 0.780447 15014169
-1.440691 10.352271 1.688577 15014169
-1.506261 10.244154 1.685657 15014169
-1.181811 10.545822 0.352441 15014169
-1.217527 10.798245 1.190294 15014169
-1.610285 10.822166 0.326616 15014169
-1.577271 10.429475 1.492684 15014169
-1.775093 10.648334 1.079486 15014169
-1.565790 10.252039 0.497420 15014169
-1.337616 10.219297 0.372868 15014169
-1.461744 10.573606 0.324537 15014169
-1.410861 10.266725 0.472969 15014169
-1.311502 10.398584 1.396460 15014169
3.601970 -7.763756 0.504994 1645029
3.609254 -7.507214 1.223601 1645029
3.085035 -7.995030 1.043864 1645029
3.299824 -7.758367 0.992347 1645029
3.410049 -7.675012 1.209231 1645029
3.338636 -7.693654 1.477455 1645029
3.365238 -7.656819 0.605038 1645029
3.249967 -7.525296 1.262061 1645029
3.498180 -7.727273 0.946388 1645029
3.449222 -8.145651 0.627971 1645029
3.938026 -7.884249 1.088406 1645029
3.737635 -8.140099 1.278915 1645029
3.239858 -7.885766 0.614152 1645029
3.914294 -8.014569 1.248122 1645029
3.271899 -7.865504 0.844267 1645029
3.108200 -7.583252 1.140324 1645029
2.997043 -8.099751 0.944041 1645029
3.630928 -7.487579 1.149317 1645029
3.699704 -7.648416 1.289667 1645029
3.461641 -7.953220 0.893377 1645029
3.670297 -8.062752 1.153630 1645029
3.276896 -8.059061 1.334821 1645029
3.600111 -7.557067 1.285763 1645029
3.454387 -8.199749 0.688013 1645029
3.532031 -8.290141 0.754363 1645029
3.313995 -7.615688 1.141149 1645029
3.552841 -8.124207 0.859440 1645029
3.398482 -7.816949 0.942312 1645029
3.793988 -7.824280 1.042137 1645029
3.721910 -7.936886 1.117680 1645029
3.270134 -8.015819 0.838157 1645029
3.100240 -7.816534 0.637606 1645029
3.265007 -7.824825 1.352978 1645029
3.272246 -7.822851 0.890060 1645029
3.798629 -8.151146 0.945635 1645029
3.421394 -7.839776 1.051922 1645029
3.502020 -7.449949 1.078801 1645029
2.988672 -8.172787 1.057378 1645029
3.495762 -7.806361 1.168544 1645029
3.233954 -8.198363 1.091060 1645029
3.274853 -8.006598 0.491248 1645029
3.047479 -7.875378 0.865139 1645029
3.667373 -8.007384 1.153121 1645029
3.460599 -7.920314 1.201441 1645029
3.296239 -7.712417 0.701170 1645029
3.581897 -7.749469 0.681496 1645029
3.580052 -7.482436 1.013427 1645029
3.553798 -7.839242 0.870759 1645029
3.356197 -7.868987 0.675303 1645029
3.754795 -8.163412 0.803910 1645029
3.357588 -8.311100 0.965753 1645029
3.816839 -7.923233 0.951570 1645029
3.384001 -8.048333 0.840882 1645029
3.305995 -8.181192 1.348845 1645029
3.352912 -7.746680 0.516506 1645029
3.871093 -7.903316 1.265267 1645029
3.133536 -7.544829 0.733933 1645029
3.160947 -7.645457 0.663195 1645029
3.554768 -8.326994 0.895360 1645029
3.165913 -8.020428 0.886116 1645029
3.469781 -8.284254 0.957944 1645029
3.578883 -7.956938 0.962152 1645029
3.143674 -7.997221 1.006312 1645029
3.326590 -7.615844 0.893923 1645029
3.335325 -7.383404 0.955273 1645029
3.224422 -7.957773 1.415362 1645029
3.321160 -7.993989 1.151957 1645029
3.568442 -7.710519 1.254731 1645029
3.811336 -7.771508 1.134166 1645029
3.885714 -7.780303 0.984175 1645029
3.138989 -8.222939 1.244526 1645029
3.703759 -7.552416 1.046562 1645029
3.818349 -7.892721 1.018255 1645029
3.201793 -7.656582 0.574503 1645029
3.335820 -7.572293 1.242615 1645029
3.459101 -7.468764 1.071577 1645029
3.631997 -7.667830 0.863186 1645029
3.435640 -7.678196 0.551957 1645029
3.779839 -7.862290 1.017137 1645029
3.793900 -7.626197 1.217775 1645029
6.196612 -7.322762 0.614757 1690649
5.933652 -7.737160 0.774286 1690649
6.128298 -7.709753 0.710885 1690649
5.573756 -7.766672 1.309509 1690649
6.228799 -7.577389 0.495899 1690649
5.936494 -7.508833 0.586874 1690649
6.158790 -7.615013 1.005583 1690649
5.896746 -7.696146 1.070132 1690649
6.418870 -7.682666 1.303876 1690649
5.750202 -7.642151 0.926720 1690649
6.393840 -7.512242 0.516820 1690649
6.050651 -7.744123 1.768161 1690649
5.959417 -7.993612 0.181451 1690649
5.661926 -7.423439 1.066470 1690649
6.065973 -7.312547 1.009897 1690649
6.178560 -7.941867 1.175019 1690649
6.378712 -7.727307 1.007538 1690649
5.824816 -7.787783 0.572868 1690649
6.138379 -7.484694 1.399853 1690649
6.075227 -7.684450 1.134014 1690649
6.092257 -7.226132 1.724091 1690649
6.065474 -8.014708 1.163379 1690649
5.574129 -7.787636 0.863964 1690649
5.541912 -7.777036 0.876783 1690649
5.717856 -7.245713 1.532384 1690649
6.143797 -7.725847 1.850564 1690649
5.646132 -7.729727 1.408657 1690649
6.140035 -7.302279 1.826707 1690649
5.968239 -7.921076 0.640159 1690649
6.224930 -7.385654 1.252073 1690649
5.820064 -7.278436 1.428766 1690649
5.818447 -7.489878 1.593553 1690649
6.349569 -7.811114 0.975941 1690649
5.780825 -7.530916 0.751354 1690649
5.987287 -7.739426 1.087205 1690649
6.255835 -7.249863 1.109191 1690649
5.558444 -7.573058 0.523783 1690649
6.042495 -7.417078 0.599904 1690649
5.700811 -7.748708 1.272367 1690649
6.019020 -7.359365 1.872546 1690649
6.143281 -7.467691 1.071286 1690649
5.822966 -7.900185 0.349398 1690649
6.113431 -7.442335 1.905008 1690649
5.961595 -7.903694 0.979656 1690649
5.698838 -7.287871 1.891647 1690649
6.198420 -7.766646 1.143652 1690649
6.025259 -7.919402 1.415596 1690649
5.935486 -7.439114 0.994816 1690649
5.806906 -7.204752 1.049126 1690649
5.955370 -7.282081 1.356764 1690649
5.791401 -7.451476 1.234382 1690649
6.140474 -7.181142 0.414003 1690649
6.355612 -7.489979 1.499442 1690649
5.752781 -7.394211 1.014947 1690649
5.584271 -7.762249 1.857383 1690649
5.920099 -7.966052 1.683322 1690649
5.780704 -7.711308 0.808238 1690649
5.803960 -7.463588 0.591000 1690649
6.329059 -7.866660 0.917807 1690649
5.938945 -7.642453 1.476063 1690649
5.624663 -7.648483 0.900261 1690649
6.117913 -7.583067 0.123705 1690649
5.749767 -7.472982 0.193761 1690649
6.008767 -7.983953 0.171982 1690649
5.961531 -7.352084 0.973001 1690649
6.085327 -7.829378 1.727373 1690649
5.785327 -7.869413 1.674726 1690649
6.022942 -8.054336 1.790085 1690649
5.763611 -7.440089 0.222366 1690649
5.664386 -7.749104 0.350247 1690649
5.776753 -7.496382 1.337785 1690649
6.111830 -7.748798 0.662223 1690649
5.829399 -7.853064 1.636732 1690649
6.344367 -7.655391 1.143074 1690649
6.130218 -7.632872 0.109183 1690649
5.941054 -7.238455 1.233831 1690649
6.028864 -7.421854 0.226157 1690649
5.970954 -7.947567 1.117453 1690649
6.271184 -7.644261 0.725938 1690649
6.154392 -7.330778 1.197804 1690649
5.918264 -7.184024 0.231462 1690649
5.958659 -7.803045 0.467428 1690649
6.057134 -7.430802 0.920724 1690649
5.837900 -7.552772 1.763474 1690649
5.623871 -7.479100 0.668924 1690649
6.067434 -7.954960 0.205660 1690649
5.953182 -7.971797 1.480123 1690649
5.799276 -7.879749 0.138196 1690649
6.210531 -7.423905 1.499088 1690649
6.263566 -7.808885 1.244622 1690649
6.000961 -7.310924 1.702163 1690649
5.927423 -7.259309 1.103439 1690649
6.184373 -7.304826 0.761736 1690649
5.779762 -7.710701 0.178048 1690649
5.758504 -7.262364 1.278042 1690649
6.249001 -7.879889 0.576191 1690649
5.784291 -7.475264 1.673941 1690649
5.902566 -7.572036 1.898807 1690649
6.251869 -7.445948 0.486777 1690649
5.848872 -7.848922 1.603911 1690649
5.610585 -7.813393 0.958799 1690649
5.849605 -7.308889 1.726686 1690649
5.828288 -7.857341 1.475235 1690649
5.654554 -7.392379 0.609556 1690649
5.759012 -7.389986 0.147246 1690649
5.665079 -7.936391 1.130733 1690649
5.740801 -7.393069 0.607905 1690649
5.780840 -7.379572 1.073825 1690649
5.632492 -7.802350 0.754943 1690649
5.773496 -7.745309 1.286389 1690649
6.314033 -7.886382 0.149840 1690649
5.982928 -7.177436 1.894029 1690649
6.365786 -7.509375 0.970190 1690649
6.190948 -7.992765 1.824936 1690649
6.361032 -7.512470 1.454991 1690649
6.114376 -7.878118 1.045596 1690649
6.225712 -7.425954 1.387524 1690649
6.007939 -7.951992 1.160051 1690649
5.917556 -7.269814 0.744618 1690649
6.024054 -7.992362 0.149777 1690649
5.598454 -7.645236 0.953227 1690649
5.679244 -7.347049 0.294405 1690649
6.272009 -7.477156 1.315627 1690649
6.191226 -7.904796 0.102379 1690649
5.767118 -7.626092 1.059820 1690649
6.023337 -7.820827 0.259108 1690649
5.620508 -7.656737 0.961126 1690649
5.977467 -7.892996 0.466048 1690649
6.339411 -7.430820 0.693443 1690649
5.664717 -7.500180 1.862215 1690649
5.869702 -7.474085 0.235618 1690649
6.085424 -7.636147 0.456137 1690649
6.285578 -7.920410 0.883331 1690649
5.557629 -7.443949 1.391275 1690649
5.736107 -7.510170 1.526443 1690649
5.792041 -7.613649 0.319005 1690649
6.145132 -7.900076 1.451789 1690649
5.908752 -7.633856 0.495918 1690649
6.181666 -7.737672 1.356506 1690649
6.106198 -7.399761 0.202939 1690649
5.615996 -7.638371 0.674001 1690649
6.374373 -7.736479 0.771626 1690649
6.272726 -7.473077 1.274933 1690649
5.873886 -7.544633 0.900746 1690649
5.653882 -7.614331 0.645983 1690649
6.388709 -7.457996 1.204934 1690649
6.035460 -7.739585 1.317872 1690649
5.805402 -7.494093 1.676696 1690649
6.005101 -7.213384 1.191266 1690649
6.390142 -7.596921 1.282509 1690649
6.190349 -7.791239 0.508717 1690649
5.752040 -7.604261 1.016047 1690649
6.058325 -7.605077 1.204907 1690649
6.138640 -7.705383 0.701456 1690649
-4.364357 7.151164 0.451659 10053171
-5.978881 7.112529 0.419688 10053171
-4.441285 6.971078 2.359241 10053171
-5.179685 7.158010 2.886876 10053171
-3.836871 6.994803 0.295126 10053171
-6.695984 6.752357 2.491914 10053171
-4.113155 7.157884 2.537464 10053171
-3.168187 6.956835 1.343681 10053171
-4.381532 6.989128 0.488297 10053171
-3.506903 7.188752 2.558510 10053171
-3.686860 7.191480 2.509792 10053171
-3.258209 6.962909 0.845648 10053171
-4.013221 7.058990 0.163616 10053171
-4.967421 6.806141 1.151108 10053171
-6.833236 6.986225 0.170546 10053171
-4.622695 7.107936 2.195902 10053171
-6.432890 6.966572 1.225232 10053171
-4.651946 6.955745 0.428023 10053171
-6.896687 6.752294 2.847249 10053171
-6.310431 7.221441 2.882881 10053171
-6.077054 7.065313 0.767726 10053171
-6.145832 6.801127 2.809811 10053171
-3.747958 6.845686 2.211136 10053171
-4.806905 7.072644 2.514076 10053171
-6.555065 7.000330 2.652082 10053171
-6.045537 7.139806 1.111396 10053171
-3.404647 7.152568 1.450809 10053171
-4.624159 6.965727 1.340952 10053171
-5.991201 7.231668 2.404581 10053171
-6.685143 7.019662 2.977187 10053171
-6.881650 7.077169 1.111231 10053171
-5.980555 6.743372 0.146079 10053171
-6.130570 7.024602 1.950529 10053171
-3.884390 6.965309 0.577845 10053171
-4.717064 7.147622 0.100047 10053171
-5.867141 7.162841 2.063766 10053171
-4.852626 6.958525 1.381357 10053171
-5.510318 7.245117 2.734619 10053171
-5.054027 6.761307 1.309128 10053171
-6.167333 6.976974 2.549418 10053171
-4.474711 6.930192 2.140038 10053171
-4.107161 7.096646 1.118577 10053171
-3.872226 6.761682 0.874886 10053171
-4.725067 6.948651 2.243216 10053171
-5.544657 6.939376 0.632552 10053171
-3.811634 7.058131 1.178415 10053171
-3.496303 7.076205 2.129880 10053171
-4.261477 7.186854 0.697347 10053171
-4.121490 7.243616 2.552171 10053171
-5.312526 6.976522 1.619524 10053171
-6.776487 7.069105 2.593550 10053171
-5.683644 6.957025 1.211295 10053171
-5.750116 6.860179 2.772388 10053171
-3.528092 6.863887 2.683664 10053171
-3.081611 6.892484 0.626030 10053171
-5.039824 7.033449 2.164942 10053171
-3.517165 7.071267 0.811017 10053171
-5.446789 7.064484 1.613438 10053171
-3.343533 7.064173 2.172021 10053171
-6.441274 7.183578 0.025366 10053171
-6.373194 6.740403 2.604963 10053171
-4.405209 6.956442 2.929681 10053171
-6.306221 6.939433 0.866826 10053171
-3.759676 7.180559 1.052260 10053171
-3.566883 7.074396 2.693347 10053171
-4.174814 6.932164 2.132460 10053171
-6.337899 6.812185 1.055487 10053171
-3.785702 7.034850 1.915682 10053171
-3.899822 7.062985 1.248880 10053171
-5.419945 7.210734 0.715671 10053171
-5.917978 6.951085 2.522103 10053171
-3.275363 6.931920 1.489872 10053171
-6.809078 6.774591 2.284881 10053171
-3.689886 6.994197 1.000980 10053171
-6.506643 7.225707 1.586106 10053171
-5.301438 6.993817 0.851970 10053171
-6.491443 6.891180 0.441360 10053171
-4.519647 7.082269 2.266227 10053171
-6.722699 7.161615 1.120084 10053171
-4.031939 6.888522 0.252247 10053171
-5.782511 7.222125 0.696683 10053171
-6.965693 7.080154 2.922461 10053171
-3.120081 7.095812 2.171834 10053171
-4.137112 7.084013 0.039905 10053171
-4.434975 7.172997 1.344657 10053171
-6.599606 7.220989 0.420564 10053171
-5.830702 6.854491 0.168487 10053171
-3.245356 6.877319 0.148825 10053171
-6.526281 6.932706 1.326173 10053171
-5.989857 6.848879 -0.010227 10053171
-5.447296 7.039620 1.781758 10053171
-6.371984 6.998622 2.957524 10053171
-6.078777 6.846566 2.955564 10053171
-4.240171 7.214200 1.418771 10053171
-4.288780 7.110768 2.199620 10053171
-3.922934 7.191794 2.401553 10053171
-5.670367 7.207269 0.397390 10053171
-5.359019 6.904211 0.457812 10053171
-3.333482 6.930031 0.980951 10053171
-6.877796 6.941272 0.247783 10053171
-4.509281 6.797894 1.764295 10053171
-6.240876 7.226623 1.543444 10053171
-3.829479 7.187153 0.860778 10053171
-3.778156 6.977687 2.083389 10053171
-4.793150 7.142216 1.237058 10053171
-5.655454 7.260581 1.578691 10053171
-4.239578 6.953058 0.428539 10053171
-5.520298 7.202044 0.320295 10053171
-3.279140 7.087044 0.157311 10053171
-5.118373 6.785783 1.789492 10053171
-5.626379 7.041828 2.640041 10053171
-5.434581 6.878770 2.387894 10053171
-4.475116 6.924582 0.697353 10053171
-4.776959 6.941293 2.315793 10053171
-6.488441 6.962482 1.176980 10053171
-5.725270 6.782712 1.395337 10053171
-4.568695 6.909770 1.781639 10053171
-4.067278 7.071800 2.553563 10053171
-3.323718 7.007773 0.181365 10053171
-4.632608 6.747629 1.382056 10053171
-3.802940 7.225096 0.846617 10053171
-5.165747 6.868202 0.243962 10053171
-6.424815 6.749369 0.301630 10053171
-5.585629 7.019971 0.827574 10053171
-3.147994 7.179173 1.550302 10053171
-5.377614 7.052557 2.727422 10053171
-5.322335 6.935704 2.691096 10053171
-4.376323 6.903448 0.783599 10053171
-6.980965 7.105760 2.677697 10053171
-4.292551 7.048576 2.893086 10053171
-4.861423 6.975616 0.242018 10053171
-6.472996 6.908136 2.238394 10053171
-5.361389 6.925500 1.734176 10053171
-5.251734 7.047601 1.636846 10053171
-4.660266 6.853915 0.820533 10053171
-3.277161 6.831351 0.432548 10053171
-4.016428 6.965298 1.214683 10053171
-3.755014 7.233225 0.786293 10053171
-5.105372 7.022303 2.756814 10053171
-4.749040 7.174020 1.102159 10053171
-5.645506 6.769536 2.559286 10053171
-5.415681 7.164146 2.296005 10053171
-6.057664 7.004729 2.966932 10053171
-3.698417 6.926270 1.079567 10053171
-4.251355 7.081337 2.724375 10053171
-5.928181 7.044638 0.654878 10053171
-4.963671 6.811486 2.306745 10053171
-3.918303 6.822165 1.370629 10053171
-5.997904 7.188338 1.737348 10053171
-3.601413 7.197305 0.400559 10053171
-5.893092 6.926512 2.271659 10053171
-6.575161 6.861971 1.748139 10053171
-4.762934 6.811379 2.781127 10053171
-6.483809 7.161858 1.226193 10053171
-3.570594 6.995993 1.089092 10053171
-6.275759 6.846888 1.545072 10053171
-3.020971 6.857183 1.571164 10053171
-6.388191 7.222503 0.957252 10053171
-4.799322 6.987928 1.218092 10053171
-6.395029 7.090937 0.920160 10053171
-6.881937 6.869536 2.261842 10053171
-3.715849 7.210990 1.807245 10053171
-4.228835 7.181412 0.814531 10053171
-6.334072 6.817850 2.931160 10053171
-3.051215 6.768683 2.282154 10053171
-6.415892 6.915793 1.493146 10053171
-6.294456 6.993063 0.991267 10053171
-5.127820 6.768991 1.226483 10053171
-3.962235 7.160152 0.936061 10053171
-6.406570 7.078969 0.843687 10053171
-6.213533 6.745403 2.090446 10053171
-3.536028 7.025539 0.952778 10053171
-5.316020 6.968272 2.308393 10053171
-4.490171 6.769607 0.626097 10053171
-5.575174 7.210371 0.168588 10053171
-3.631195 6.904111 1.805128 10053171
-6.991293 7.167568 2.091645 10053171
-6.186159 7.167458 1.929831 10053171
-4.701754 6.920177 0.418924 10053171
-5.553893 6.966885 1.744750 10053171
-6.753091 6.775892 1.265925 10053171
-5.576781 6.814860 1.480456 10053171
-6.407479 6.872977 2.040748 10053171
-6.001577 6.754814 1.048147 10053171
-5.764807 6.758173 2.081851 10053171
-5.535415 6.805516 1.554717 10053171
-3.379980 7.077281 2.649391 10053171
-5.046663 7.019772 0.365475 10053171
-4.192462 7.191735 0.543523 10053171
-5.073192 7.149492 0.828501 10053171
-6.402325 6.909023 2.846593 10053171
-6.868023 6.837626 2.554077 10053171
-6.725945 6.779055 0.421976 10053171
-3.230965 7.083512 1.586237 10053171
-6.027161 6.751395 2.596459 10053171
-4.059603 6.932782 1.546671 10053171
-6.739711 7.214017 0.598959 10053171
-6.906888 6.965649 2.983629 10053171
-4.462697 6.951561 1.948416 10053171
-4.909027 7.082404 2.542240 10053171
-3.965586 7.120865 0.780927 10053171
-4.147836 7.259454 0.500599 10053171
-3.910096 6.765659 1.130016 10053171
-3.481106 7.191443 2.473464 10053171
-3.370311 7.191191 0.173963 10053171
-3.161062 6.793551 0.452588 10053171
-4.782947 7.206614 1.099925 10053171
-6.922035 7.093643 0.590149 10053171
-6.242102 6.751746 1.859733 10053171
-6.631703 6.925335 0.638405 10053171
-6.358112 7.171335 1.704587 10053171
-6.427780 6.828897 1.121109 10053171
-4.985160 6.836580 0.305893 10053171
-5.289426 7.017611 1.132255 10053171
-5.993948 7.060475 1.239547 10053171
-3.162609 7.017384 2.085696 10053171
-4.508200 6.943274 0.143327 10053171
-6.051328 6.836660 0.176650 10053171
-3.642950 7.143638 0.325715 10053171
-3.335362 7.189387 2.600311 10053171
-4.032925 6.910597 2.660961 10053171
-4.108954 6.863385 2.978100 10053171
-5.528307 7.087039 1.925289 10053171
-4.310260 7.143124 0.746782 10053171
-4.267185 6.952631 0.584121 10053171
-3.607239 7.152200 0.592594 10053171
-3.717777 6.930509 0.906490 10053171
-4.649361 7.019361 0.595149 10053171
-4.182845 6.939871 0.204058 10053171
-6.521631 6.786729 2.356211 10053171
-4.737039 7.139675 0.511704 10053171
-5.151908 6.976665 1.456579 10053171
-6.452140 7.250238 1.309203 10053171
-6.960358 7.030248 2.103549 10053171
-6.618268 7.231797 1.474482 10053171
-5.025944 7.121365 2.886052 10053171
-4.728348 6.863038 0.730231 10053171
-4.305797 6.940993 1.309505 10053171
-5.438179 6.830076 2.061773 10053171
-3.993417 6.751030 2.802659 10053171
-5.941181 7.020926 1.406950 10053171
-6.739810 6.763580 0.271566 10053171
-3.278645 7.153928 2.705317 10053171
-5.102936 7.064568 1.734031 10053171
-5.861040 7.197859 0.510109 10053171
-6.240777 6.883850 1.075694 10053171
-6.957534 7.077054 1.617114 10053171
-5.731573 7.191689 2.558988 10053171
-6.220446 6.932398 2.006801 10053171
-3.790123 6.946843 1.353604 10053171
-5.709453 7.157727 0.870058 10053171
-3.117810 6.811340 0.967562 10053171
-3.929493 6.853916 1.108461 10053171
-5.345672 7.180556 1.641729 10053171
-3.521104 6.772116 0.843449 10053171
-4.687012 7.248951 1.557446 10053171
-3.654787 7.012343 2.218456 10053171
-4.568253 7.128019 2.681944 10053171
-4.895894 7.095395 2.092256 10053171
-6.932397 6.807653 2.406523 10053171
-3.420609 7.101733 0.862863 10053171
-5.532300 7.060464 2.927855 10053171
-4.839437 6.928287 0.693992 10053171
-4.605074 6.992210 2.191024 10053171
-6.898326 7.011856 2.204072 10053171
-3.652819 6.870832 1.234057 10053171
-4.354283 6.932715 0.841130 10053171
-6.430316 6.766321 2.070006 10053171
-6.057958 6.783058 2.070766 10053171
-4.850404 6.759800 0.958436 10053171
-3.737953 6.864457 0.007815 10053171
-4.882579 7.111222 2.475234 10053171
-3.761328 6.978543 2.470001 10053171
-5.176851 7.098807 1.518367 10053171
-6.254534 6.849931 1.603341 10053171
-6.705854 7.163523 2.921674 10053171
-3.947109 6.925856 0.943817 10053171
-6.248473 7.048025 0.944532 10053171
-4.922676 7.147896 1.513134 10053171
-3.283285 7.202007 0.931210 10053171
-6.347081 7.072618 1.857049 10053171
-5.701263 6.801067 1.346092 10053171
-3.540166 6.881616 0.425892 10053171
-5.629257 6.785515 2.108915 10053171
-4.298903 7.219862 0.451452 10053171
-3.204106 7.003084 1.424826 10053171
-3.117851 6.949859 1.812881 10053171
-4.090283 6.756543 0.911354 10053171
-4.282105 7.207051 1.328297 10053171
-3.075860 6.858630 0.306137 10053171
-4.018678 7.133144 1.437070 10053171
-5.424393 6.935437 1.057531 10053171
-3.997035 6.960442 0.361056 10053171
-3.797392 6.949824 0.175348 10053171
-5.729908 7.234457 1.859351 10053171
-5.694431 7.205745 1.787744 10053171
-6.021770 6.749654 2.367430 10053171
-3.605382 6.967598 0.806802 10053171
-5.224232 7.130730 1.188944 10053171
-5.134933 6.838875 2.475042 10053171
-4.291889 7.207590 0.639637 10053171
-6.963677 7.213694 0.062264 10053171
-4.040295 6.780272 1.113300 10053171
-4.041540 6.786310 1.827258 10053171
-5.411655 6.846812 2.718361 10053171
-3.287506 7.058843 1.546963 10053171
-3.309054 7.221872 0.005639 10053171
-3.249500 6.825253 1.507741 10053171
-4.625525 6.965325 1.541082 10053171
-4.956555 6.861618 0.137854 10053171
-6.809542 6.836151 1.552685 10053171
-5.553527 6.928728 0.142704 10053171
-6.907473 6.910562 1.416514 10053171
-4.203346 6.759678 1.311016 10053171
-6.373590 6.897126 0.219179 10053171
-3.357608 6.768043 2.830039 10053171
-4.098839 6.787683 1.404167 10053171
-4.755343 6.856006 1.920377 10053171
-6.160075 6.782692 0.134526 10053171
-5.193137 7.158092 1.840953 10053171
-6.261128 7.118860 2.248990 10053171
-5.129231 7.098165 1.385368 10053171
-6.463370 6.941770 1.319571 10053171
-5.463672 7.077606 0.282493 10053171
-4.946913 7.172338 1.796206 10053171
-3.847876 6.993310 1.642457 10053171
-5.419373 7.066057 2.702490 10053171
-5.707076 7.064484 2.966965 10053171
-6.829922 7.142031 0.807016 10053171
-4.893019 7.176963 1.144521 10053171
-6.958706 6.958675 0.285937 10053171
-6.740716 6.981933 1.022507 10053171
-4.315164 6.799012 1.938785 10053171
-3.976693 7.171870 0.071305 10053171
-3.101906 7.038622 1.323654 10053171
-3.851207 7.039065 0.419447 10053171
-3.120692 6.759627 1.741374 10053171
-3.481135 6.852236 0.335652 10053171
-6.618557 7.070358 1.231038 10053171
-4.098948 7.124230 0.759434 10053171
-3.798684 7.001028 2.078595 10053171
-3.777877 7.008618 1.239471 10053171
-4.609424 7.143429 2.683625 10053171
-4.596966 7.222121 2.358746 10053171
-6.233775 7.131593 0.873382 10053171
-3.099113 6.918414 0.019429 10053171
-4.380237 6.761232 0.501368 10053171
-5.178206 7.022299 2.864730 10053171
-5.349660 6.985655 2.483871 10053171
-3.660841 7.230952 1.071609 10053171
-4.838297 6.787081 0.084604 10053171
-4.733655 7.121006 0.923269 10053171
-4.084560 6.859868 1.520828 10053171
-3.562494 6.950769 0.975917 10053171
-6.958739 7.128700 0.919411 10053171
-3.913039 6.937631 1.360058 10053171
-3.593143 6.940848 2.734189 10053171
-5.493222 6.833344 2.597369 10053171
-5.390154 6.785378 2.412568 10053171
-3.026770 6.793067 2.930377 10053171
-6.151985 6.835502 2.025719 10053171
-4.425458 7.124319 0.773130 10053171
-4.514847 7.021266 0.713773 10053171
-3.195971 7.217563 2.724063 10053171
-5.878891 7.196122 2.537842 10053171
-4.212168 6.916775 2.134362 10053171
-3.182039 6.936000 0.487442 10053171
-5.000693 6.813943 1.828059 10053171
-3.721944 6.979262 0.069236 10053171
-4.305459 7.216173 0.534571 10053171
-6.200250 6.882813 1.547813 10053171
-3.868058 7.213077 0.570009 10053171
-5.444390 6.763985 1.464495 10053171
-3.213703 6.803741 2.182185 10053171
-3.454116 6.953878 0.323955 10053171
-3.955558 7.254845 2.063646 10053171
-6.183204 7.189535 0.248162 10053171
-6.557430 6.880915 0.521672 10053171
-4.613957 6.891393 1.230256 10053171
-5.151721 6.783801 -0.000996 10053171
-5.462002 6.819075 0.527868 10053171
-3.776632 6.798604 0.410264 10053171
-5.359743 7.211135 0.676922 10053171
-3.183378 7.168888 1.379702 10053171
-4.932688 6.756567 2.550312 10053171
-6.730278 7.138967 1.628203 10053171
-4.825948 6.785226 1.164090 10053171
-4.080095 7.043179 1.634190 10053171
-4.077250 7.060608 1.597041 10053171
-3.510923 6.927222 2.945096 10053171
-4.077708 7.134867 2.913242 10053171
-6.622312 6.915772 1.746582 10053171
-5.174972 7.051611 1.688213 10053171
-5.120492 7.178096 2.151016 10053171
-4.522592 6.869660 0.037347 10053171
-5.327530 6.751551 2.592448 10053171
-5.174706 6.775422 1.368534 10053171
-4.053664 6.902898 0.737908 10053171
-4.399706 7.040351 1.047807 10053171
-5.241239 7.120245 0.706704 10053171
-3.736913 6.788973 1.902505 10053171
-3.637271 7.227476 2.729395 10053171
-3.388871 7.149476 0.990527 10053171
-4.050696 7.224431 2.655520 10053171
-3.092158 7.156732 2.865703 10053171
-3.554790 7.034758 1.661327 10053171
-5.312877 7.102664 0.098030 10053171
-3.925059 6.949407 2.309003 10053171
-6.420113 7.035746 2.547172 10053171
-3.129819 7.074801 2.775498 10053171
-4.857536 7.166085 0.100406 10053171
-5.873884 6.896429 0.144527 10053171
-4.282297 7.058258 0.551476 10053171
-4.635323 7.114744 0.022854 10053171
-6.623308 7.217520 1.374957 10053171
-6.046834 6.926296 0.091080 10053171
-5.821134 6.762569 2.898940 10053171
-4.469394 7.026927 2.836633 10053171
-5.608461 7.205766 2.539281 10053171
-3.119435 6.932142 0.616275 10053171
-5.751006 6.945416 0.608373 10053171
-4.070662 7.109295 1.533664 10053171
-4.687846 6.782873 1.665153 10053171
-4.992898 7.135509 1.220577 10053171
-4.434659 6.973308 0.494769 10053171
-5.288331 7.249757 0.301028 10053171
-3.855191 6.965317 0.857416 10053171
-4.243011 6.947085 2.679563 10053171
-5.243612 7.100025 1.717404 10053171
-3.016721 6.950289 0.255325 10053171
-5.430963 6.858079 1.071213 10053171
-6.593753 7.073019 2.719158 10053171
-5.105540 6.819481 1.657217 10053171
-3.048736 6.894946 0.765956 10053171
-6.575489 6.986352 1.177470 10053171
-3.066969 6.973065 0.207289 10053171
-6.262186 7.222705 1.916475 10053171
-3.674843 6.944712 1.336262 10053171
-4.177549 7.118462 0.210549 10053171
-3.854507 7.133112 1.812178 10053171
-4.183655 7.007514 1.352147 10053171
-3.113727 6.817337 0.727457 10053171
-5.601351 7.220408 0.128411 10053171
-5.679018 7.009719 2.797366 10053171
-4.791252 6.947596 1.788288 10053171
-5.950874 7.173557 2.038094 10053171
-3.319894 7.105456 0.999466 10053171
-6.502024 6.815236 0.742722 10053171
-6.605097 7.059591 1.908790 10053171
-3.736119 6.863083 0.031946 10053171
-4.610042 7.131157 2.018737 10053171
-5.603335 6.759562 2.662722 10053171
-3.964792 7.099260 0.440734 10053171
-3.915327 6.783025 1.621702 10053171
-5.397204 7.002923 0.785406 10053171
-4.834963 6.844323 1.743227 10053171
-5.750122 6.937374 1.091763 10053171
-6.632648 6.857113 0.164262 10053171
-4.508727 6.971900 1.708865 10053171
-3.716333 7.105049 2.803517 10053171
-5.693115 6.818010 0.071203 10053171
-5.658645 7.034541 0.379981 10053171
-4.240579 6.854283 0.848500 10053171
-5.868597 6.861264 2.057312 10053171
-4.889233 6.853480 2.901874 10053171
-3.199793 6.991636 2.035473 10053171
-3.633797 6.933171 1.089653 10053171
-4.787291 7.141475 2.832480 10053171
-4.513514 7.155365 1.492886 10053171
-3.451666 7.092345 1.076157 10053171
-3.165669 7.164717 0.506509 10053171
-5.414035 7.096756 0.822044 10053171
-6.656010 6.968463 2.593580 10053171
-3.320518 6.895343 2.394205 10053171
-5.838398 7.146212 2.049357 10053171
-4.668410 6.939405 1.483294 10053171
-4.305748 6.846430 2.116132 10053171
-2.991264 6.763902 2.465820 10053171
-3.029428 6.994030 1.050201 10053171
-4.388231 7.203754 0.282982 10053171
-5.483724 7.229574 2.304465 10053171
-5.607630 7.130763 1.107122 10053171
-3.885031 6.890770 1.861250 10053171
-4.655663 7.092624 2.935282 10053171
-4.747197 7.158414 2.684821 10053171
-6.297465 7.031419 1.609584 10053171
-3.123160 7.206275 0.322565 10053171
-4.523828 6.876266 2.782991 10053171
-3.038250 6.926248 1.101032 10053171
-4.445072 7.251783 2.846695 10053171
-5.015723 6.952827 2.681236 10053171
-3.193713 6.969517 0.521532 10053171
-5.989974 6.802858 0.790234 10053171
-4.685934 7.158796 0.309736 10053171
-3.013836 7.074852 0.576669 10053171
-5.431301 6.909413 1.106752 10053171
-3.919963 6.802205 0.630855 10053171
-6.067949 6.977970 2.709409 10053171
-3.319987 6.922151 0.546452 10053171
-5.729006 6.750176 2.837886 10053171
-4.185378 6.836061 0.627573 10053171
-6.614061 6.977007 2.929783 10053171
-6.901515 7.235476 2.515220 10053171
-6.912848 7.227886 0.731659 10053171
-5.267409 6.999801 2.468281 10053171
-5.221182 6.971953 1.259938 10053171
-3.192945 7.151846 1.923318 10053171
-6.397043 6.965614 1.727108 10053171
-4.076748 6.869096 0.129333 10053171
-3.516466 6.909468 0.000541 10053171
-6.111652 6.904397 1.901053 10053171
-3.131579 7.072731 0.782232 10053171
-3.568492 7.023135 2.727769 10053171
-4.245757 7.057302 2.640858 10053171
-3.453395 6.914644 2.432641 10053171
-5.111130 6.909123 2.868186 10053171
-4.460601 7.137827 1.058735 10053171
-6.599031 6.843757 2.033497 10053171
-3.821277 6.880980 2.271269 10053171
-3.565422 6.991446 1.050157 10053171
-4.279970 6.765833 0.868127 10053171
-3.867569 7.001814 1.018217 10053171
-5.350456 6.966263 2.072523 10053171
-3.233567 6.838075 0.502638 10053171
-3.417341 7.240359 0.638760 10053171
-6.368316 6.769799 1.232067 10053171
-5.816300 7.226107 1.575941 10053171
-3.806441 6.906002 0.794686 10053171
-6.581858 6.886925 1.601212 10053171
-4.376781 6.798691 0.972410 10053171
-5.668671 6.930380 0.074158 10053171
-4.396082 7.029790 1.190564 10053171
-4.179971 6.916435 2.111441 10053171
-3.263896 7.163229 1.294012 10053171
-3.738480 7.228493 2.673419 10053171
-5.905042 6.802543 0.035726 10053171
-5.694114 6.806811 1.554527 10053171
-4.942312 6.952360 2.477179 10053171
-6.083265 7.060923 1.098731 10053171
-6.777870 7.236106 2.103568 10053171
-5.448793 6.880467 1.246882 10053171
-6.173443 6.911416 2.905772 10053171
-5.547205 6.781943 2.415157 10053171
-4.497070 7.195836 1.523541 10053171
-5.289356 6.873523 0.627963 10053171
-6.050380 7.233772 1.488616 10053171
-3.495386 6.863128 2.527399 10053171
-5.674469 6.926862 2.267971 10053171
-6.074659 6.973736 1.434542 10053171
-6.580067 6.872243 1.238156 10053171
-6.793205 7.060966 2.617383 10053171
-6.569684 6.870164 1.813405 10053171
-6.078495 6.982809 2.774077 10053171
-4.220109 7.185952 2.787829 10053171
-4.904073 7.065579 2.198188 10053171
-4.874408 7.151066 0.043269 10053171
-4.101818 6.843765 1.572467 10053171
-7.001792 7.245471 0.317642 10053171
-5.478024 7.158107 0.025005 10053171
-3.513533 6.811316 0.742790 10053171
-6.083784 6.783442 0.888698 10053171
-3.540640 6.803658 2.847434 10053171
-3.554721 7.174156 0.910586 10053171
-5.187050 6.828992 2.955798 10053171
-6.949522 6.843285 2.338381 10053171
-4.350375 6.847607 0.612369 10053171
-4.574224 6.855633 0.875027 10053171
-3.477907 6.846132 0.300631 10053171
-6.432846 6.989381 1.139374 10053171
-5.272271 7.229037 1.664940 10053171
-4.217072 7.170211 1.723911 10053171
-5.757524 7.125297 0.938453 10053171
-4.644788 6.945365 2.946095 10053171
-5.836475 7.027555 1.049874 10053171
-5.200633 7.138105 0.295857 10053171
-4.810210 6.861094 2.726850 10053171
-3.332242 6.992702 0.802505 10053171
-3.907854 7.015882 1.807727 10053171
-5.794900 7.002332 1.290535 10053171
-3.331885 6.962333 1.649830 10053171
-3.013764 7.237592 0.818004 10053171
-3.185610 7.210784 2.783820 10053171
-3.163174 7.180358 2.300637 10053171
-6.078206 6.926600 2.247033 10053171
-6.819378 7.062701 2.066241 10053171
-4.070271 6.796751 1.167989 10053171
-3.196357 7.218121 1.698831 10053171
-6.946380 7.156826 1.483098 10053171
-4.295062 6.903733 1.119636 10053171
-5.307222 7.050076 0.087996 10053171
-6.800303 7.150443 2.898153 10053171
-4.214274 6.840362 2.421706 10053171
-3.457873 7.027798 2.650101 10053171
-3.071385 6.780038 1.144607 10053171
-3.466059 7.226543 0.583318 10053171
-3.440530 6.952361 2.308022 10053171
-4.093480 7.082376 2.699081 10053171
-3.719520 7.056161 2.899963 10053171
-5.741536 6.923916 0.493942 10053171
-4.747431 7.131364 1.569460 10053171
5.881602 -5.963940 1.134635 8342706
6.133751 -5.719867 1.796579 8342706
5.452546 -6.078990 3.627202 8342706
6.155794 -6.497540 0.564623 8342706
5.451661 -6.210689 3.021164 8342706
6.186139 -6.466165 4.073462 8342706
6.357544 -6.071661 4.897625 8342706
6.195392 -5.639032 0.322248 8342706
5.998290 -6.173298 4.013483 8342706
6.173651 -5.967294 0.502562 8342706
5.577220 -5.652678 2.013713 8342706
6.175835 -6.437582 3.309859 8342706
6.528384 -5.786080 4.840211 8342706
6.061312 -5.618216 2.396542 8342706
6.457611 -5.956375 1.312393 8342706
6.102826 -6.214686 2.933587 8342706
6.543184 -5.875340 0.290561 8342706
6.343337 -6.412567 2.989784 8342706
6.309822 -5.520555 2.220078 8342706
6.474324 -6.370517 2.691688 8342706
6.176835 -6.117861 2.965440 8342706
6.283253 -5.588737 2.044672 8342706
5.611900 -6.282633 3.519894 8342706
5.790520 -5.561397 0.198605 8342706
5.668198 -5.767820 0.499998 8342706
6.495744 -5.806658 1.407365 8342706
6.027135 -5.442255 0.766863 8342706
6.184489 -6.336711 1.495062 8342706
6.443904 -6.155720 1.612818 8342706
6.535370 -6.039776 3.467941 8342706
5.620660 -6.169674 3.389102 8342706
5.856407 -6.178375 4.717651 8342706
5.788398 -5.520936 2.025126 8342706
6.331843 -5.787628 2.891310 8342706
6.269563 -5.948644 3.538640 8342706
5.439049 -6.092543 0.542657 8342706
6.404593 -5.813132 1.990189 8342706
5.908976 -5.786639 1.719208 8342706
5.722167 -5.877086 3.160199 8342706
5.642342 -6.169748 1.838243 8342706
5.804937 -5.530733 0.759184 8342706
6.463687 -6.078280 0.413121 8342706
6.000228 -6.136611 4.295151 8342706
5.584112 -6.182630 4.539949 8342706
5.744736 -5.742499 4.197221 8342706
5.734190 -5.911222 3.108274 8342706
6.018475 -5.992361 1.460727 8342706
6.418414 -6.271213 1.997669 8342706
5.657838 -5.726213 3.092549 8342706
6.278930 -6.091619 3.908776 8342706
5.391804 -5.985195 4.561547 8342706
5.957706 -5.436835 4.486115 8342706
5.503330 -5.965810 3.227321 8342706
6.428454 -5.955575 1.937853 8342706
6.175570 -6.501400 4.275020 8342706
6.390856 -5.874577 1.206430 8342706
5.416861 -5.949916 2.333900 8342706
5.524855 -5.747652 4.330055 8342706
6.430282 -5.993829 2.997676 8342706
6.105289 -5.666671 4.845672 8342706
6.289149 -5.865396 2.129079 8342706
5.810535 -5.473651 2.087340 8342706
5.885415 -6.349267 3.547546 8342706
5.996495 -5.487982 3.504449 8342706
5.764913 -6.042096 4.490903 8342706
5.851861 -6.081383 1.742251 8342706
6.168432 -5.743238 2.019844 8342706
6.162863 -6.286570 1.954579 8342706
5.770248 -6.232774 1.532780 8342706
5.623637 -6.242560 1.056983 8342706
5.850298 -6.373068 1.253946 8342706
5.961035 -5.966975 3.019326 8342706
6.065677 -6.130470 4.764293 8342706
5.813630 -5.796860 0.598632 8342706
5.712657 -6.078918 2.491103 8342706
5.948674 -5.993027 3.162872 8342706
5.491292 -6.211562 1.935038 8342706
6.083645 -5.601305 0.157148 8342706
6.441421 -5.946427 1.225737 8342706
6.558155 -6.062814 3.842628 8342706
6.023177 -6.206530 3.278914 8342706
5.575506 -5.654511 1.982589 8342706
6.076245 -6.288763 4.461293 8342706
6.111489 -5.596502 4.634208 8342706
6.428938 -5.679579 0.219894 8342706
5.959407 -6.166644 2.710525 8342706
6.231334 -5.978349 2.437120 8342706
5.508279 -6.173040 3.672791 8342706
6.053127 -6.310040 1.973264 8342706
5.853627 -6.319936 1.011388 8342706
6.170264 -6.402164 4.425507 8342706
5.529671 -5.934452 3.854648 8342706
5.681089 -6.380907 2.515477 8342706
6.113383 -6.499799 1.391291 8342706
5.838507 -5.890583 4.544998 8342706
5.618696 -5.783879 2.366471 8342706
6.460154 -5.845987 2.616931 8342706
6.099946 -6.436026 0.603582 8342706
5.577735 -6.144851 1.872208 8342706
6.300579 -6.026735 1.876740 8342706
6.564749 -6.049507 3.642895 8342706
5.658552 -6.363612 0.617449 8342706
5.664001 -6.473220 0.769186 8342706
6.234373 -6.006427 2.575712 8342706
5.644062 -6.032241 3.285411 8342706
5.763825 -5.590283 4.704898 8342706
5.766354 -6.251176 4.034686 8342706
5.634665 -5.811475 1.237416 8342706
6.409269 -5.978325 4.436022 8342706
5.831534 -5.637194 3.521598 8342706
6.016140 -5.812756 0.935067 8342706
6.146883 -6.372974 1.756069 8342706
6.164503 -5.796174 1.593177 8342706
5.980115 -5.771599 4.094309 8342706
6.047969 -6.184256 4.588947 8342706
5.777755 -6.159208 0.230891 8342706
5.911289 -5.621821 1.692349 8342706
6.188740 -5.614313 3.856722 8342706
5.700971 -5.982541 3.100229 8342706
5.800460 -6.210790 2.596085 8342706
5.679371 -5.841047 2.898164 8342706
5.617581 -6.243499 3.714483 8342706
5.923428 -6.599924 1.077513 8342706
6.122114 -5.798036 1.672572 8342706
6.317232 -6.332762 0.539887 8342706
6.346756 -5.706644 2.290656 8342706
6.136858 -5.583518 3.077500 8342706
5.685577 -5.693663 1.206944 8342706
5.994137 -5.708462 3.694246 8342706
6.217206 -6.042406 4.398615 8342706
6.511889 -6.104651 2.709187 8342706
6.334809 -6.147543 3.374244 8342706
5.680681 -6.292991 4.690578 8342706
6.296220 -5.544934 4.630582 8342706
5.973277 -6.211400 3.566182 8342706
5.756595 -5.653853 2.607046 8342706
6.067875 -6.566149 4.505386 8342706
5.544271 -5.758375 4.273068 8342706
5.520586 -6.142236 2.871932 8342706
6.101970 -5.637964 2.449325 8342706
5.682109 -5.894553 4.039915 8342706
5.889575 -5.429096 3.053575 8342706
6.496222 -5.810596 0.132911 8342706
6.055220 -5.448287 0.410961 8342706
6.391823 -5.721021 0.053805 8342706
6.038893 -5.761939 0.505591 8342706
5.674886 -5.707349 3.074137 8342706
6.360080 -6.239206 1.528081 8342706
6.118141 -5.801226 2.478145 8342706
5.755665 -6.159411 1.618263 8342706
6.003589 -6.209336 0.113422 8342706
5.847111 -6.048075 3.746057 8342706
5.726903 -6.156083 3.390057 8342706
6.315847 -6.250594 4.580902 8342706
6.327494 -6.438994 3.372535 8342706
6.012496 -6.541109 4.159308 8342706
6.019157 -5.682496 4.227177 8342706
5.706377 -5.611489 4.236921 8342706
6.203458 -5.871204 1.899262 8342706
5.509647 -6.222761 4.652328 8342706
5.904306 -6.349458 4.708904 8342706
6.041939 -6.439567 1.304938 8342706
6.117867 -5.624941 2.030083 8342706
5.943387 -6.200137 1.680611 8342706
6.015500 -6.020779 4.510853 8342706
6.086203 -5.626607 1.162813 8342706
6.117004 -6.283106 1.583097 8342706
5.750064 -5.749809 0.112203 8342706
6.338434 -6.186878 3.037252 8342706
6.112445 -5.590100 2.638223 8342706
6.260241 -5.855073 1.018491 8342706
5.596491 -6.087037 1.901428 8342706
5.723334 -5.670734 2.251315 8342706
5.798885 -5.657420 2.601005 8342706
5.520789 -5.923248 3.568441 8342706
6.020162 -5.825441 1.867586 8342706
5.717095 -5.873511 1.448284 8342706
5.733707 -6.271323 2.806170 8342706
6.007128 -6.325941 4.910142 8342706
5.988608 -6.428601 4.824437 8342706
6.085872 -5.586163 3.821508 8342706
5.614301 -5.580164 1.984968 8342706
6.519331 -6.014902 4.252126 8342706
5.668417 -5.603858 1.933981 8342706
6.083426 -6.468392 1.678225 8342706
5.606147 -6.221784 1.864810 8342706
6.346148 -5.904841 3.488697 8342706
6.461077 -5.835937 3.847303 8342706
6.422305 -6.085136 3.861330 8342706
6.113592 -5.837621 3.349987 8342706
6.159000 -6.386148 1.030575 8342706
5.664176 -6.129136 3.338197 8342706
6.486537 -6.307374 0.128665 8342706
6.378393 -6.109414 4.915272 8342706
5.436203 -5.914643 3.774658 8342706
6.492395 -6.032721 0.228053 8342706
6.248362 -5.658811 3.712846 8342706
6.084636 -6.022961 2.471681 8342706
6.281546 -5.968875 0.692492 8342706
6.412967 -5.968122 2.403330 8342706
6.088830 -6.519858 2.780049 8342706
6.389687 -6.082173 1.374611 8342706
6.192892 -5.649952 1.085579 8342706
6.273705 -5.588513 4.330993 8342706
6.156156 -6.480125 0.734154 8342706
5.631417 -6.045868 3.192998 8342706
6.542605 -5.775752 1.098544 8342706
6.151426 -5.783280 2.576330 8342706
6.008309 -6.084908 2.540309 8342706
6.351501 -5.692719 1.798587 8342706
5.959564 -6.107487 3.846396 8342706
6.505482 -6.000201 1.590657 8342706
5.491856 -6.271583 0.727072 8342706
5.817027 -6.365677 4.991580 8342706
6.457722 -5.774407 3.976430 8342706
6.231123 -6.035770 0.117241 8342706
6.253507 -5.839791 3.592970 8342706
6.490528 -6.064416 4.570944 8342706
5.918901 -6.072870 3.140212 8342706
6.383431 -6.246977 1.752240 8342706
6.040297 -5.434836 1.971322 8342706
5.428543 -5.961418 4.247844 8342706
6.089872 -6.075778 2.976811 8342706
6.258918 -5.934443 3.249482 8342706
5.621908 -6.184294 3.349920 8342706
6.130035 -6.360612 4.410645 8342706
6.082953 -5.518125 4.139209 8342706
5.944192 -5.848493 2.933837 8342706
5.437536 -6.130615 2.060881 8342706
6.297697 -6.413446 4.876211 8342706
5.660802 -6.396312 2.939661 8342706
6.340585 -6.353992 2.374723 8342706
6.419857 -5.817129 1.061573 8342706
6.450820 -5.880558 2.270758 8342706
5.976009 -5.479130 2.053745 8342706
6.231891 -5.747698 0.475234 8342706
5.914693 -6.293559 1.578752 8342706
6.377953 -5.764726 2.447563 8342706
6.363845 -5.536282 4.064747 8342706
6.459380 -6.174895 1.480402 8342706
6.148213 -5.796467 3.235815 8342706
5.710058 -6.381423 3.105751 8342706
6.242361 -5.517370 4.458905 8342706
6.042918 -5.878711 0.764190 8342706
5.580912 -6.361612 4.416112 8342706
5.606450 -5.735223 4.265573 8342706
6.199394 -5.827586 1.373457 8342706
5.744846 -5.791471 1.072269 8342706
5.860078 -6.094892 0.611166 8342706
6.202194 -5.437830 1.181641 8342706
6.273976 -5.514998 1.182147 8342706
5.642178 -6.245159 4.270550 8342706
5.940334 -6.070468 4.947353 8342706
6.197751 -5.565949 3.772310 8342706
5.670942 -6.037467 4.275972 8342706
6.101486 -6.577746 4.288145 8342706
5.692361 -5.713406 3.966542 8342706
5.555690 -6.082800 3.761227 8342706
6.196468 -6.405037 1.048980 8342706
6.561989 -5.948567 0.500834 8342706
6.004567 -5.553698 2.939144 8342706
6.186521 -6.398912 1.659947 8342706
5.502955 -6.240059 3.924062 8342706
5.615160 -6.438561 2.817437 8342706
5.798020 -5.499415 2.255096 8342706
6.548390 -6.230037 2.076669 8342706
6.072534 -6.377806 0.521030 8342706
5.446193 -5.867270 2.588798 8342706
5.837433 -5.657079 2.548429 8342706
6.294762 -6.085595 0.230607 8342706
6.050971 -5.605433 4.362869 8342706
6.515655 -6.285400 4.439840 8342706
5.807220 -6.395473 4.415332 8342706
5.459760 -5.764586 4.333713 8342706
5.971603 -5.490477 1.500928 8342706
6.520657 -6.188114 4.025824 8342706
6.380161 -6.171991 1.429071 8342706
5.810423 -6.179443 3.756985 8342706
6.108008 -6.348812 1.920884 8342706
5.530588 -5.634085 3.386886 8342706
5.798398 -6.456217 3.549966 8342706
5.511645 -5.679813 3.943483 8342706
6.156073 -5.572947 0.067072 8342706
6.356324 -5.956655 2.656163 8342706
6.391504 -6.075577 1.750967 8342706
5.787686 -5.783551 3.226202 8342706
6.022819 -5.797456 3.171606 8342706
6.326952 -6.061793 2.036614 8342706
6.336512 -5.822567 2.209432 8342706
6.051881 -5.794767 0.116662 8342706
5.830789 -6.078166 0.107410 8342706
6.225047 -6.463126 0.865249 8342706
6.367312 -6.476319 0.738114 8342706
6.150335 -6.355199 4.240214 8342706
5.857074 -6.533193 1.817597 8342706
5.649978 -5.901179 0.978966 8342706
5.762333 -5.673340 2.701739 8342706
6.211331 -5.755185 0.402393 8342706
6.098034 -5.422907 2.074733 8342706
5.989728 -6.478954 1.066515 8342706
6.263834 -5.558084 1.303527 8342706
6.443782 -5.689608 3.617797 8342706
6.489549 -6.261842 0.305949 8342706
5.753466 -5.918109 4.012375 8342706
6.169920 -6.109890 1.747133 8342706
6.090189 -6.217287 3.247553 8342706
5.603717 -6.236485 3.680310 8342706
6.541402 -6.149081 1.821154 8342706
6.259098 -6.222146 1.676093 8342706
5.559871 -5.777347 2.485608 8342706
6.360764 -6.400284 2.023267 8342706
6.107936 -6.204366 3.572703 8342706
6.152569 -6.585126 4.291833 8342706
6.450431 -6.378654 3.678092 8342706
6.103562 -5.558712 2.003418 8342706
6.094454 -5.452730 0.881093 8342706
6.156351 -6.432320 1.156782 8342706
5.672002 -6.041656 0.118374 8342706
5.849247 -5.622288 2.615536 8342706
5.785470 -6.387243 2.622406 8342706
6.091022 -5.471418 3.479064 8342706
5.769412 -6.282325 3.373003 8342706
6.329410 -6.324014 1.075150 8342706
5.826324 -6.542935 4.754689 8342706
6.269332 -5.681329 4.910223 8342706
6.010062 -6.500386 1.855298 8342706
5.693408 -5.776195 0.302811 8342706
6.315055 -5.535595 4.289819 8342706
5.607093 -5.845368 4.365716 8342706
6.222974 -5.605195 0.492086 8342706
6.272265 -6.362580 4.009371 8342706
6.186129 -6.539748 0.576627 8342706
6.178258 -5.864614 1.022395 8342706
6.436810 -6.158567 2.772785 8342706
6.047348 -6.394243 3.722514 8342706
5.999244 -5.559895 2.044339 8342706
6.456668 -6.202774 3.304574 8342706
6.100346 -5.451967 0.244299 8342706
5.497927 -5.701560 4.385385 8342706
6.166598 -6.347062 1.656947 8342706
6.406144 -5.584089 1.854267 8342706
5.873205 -6.120428 0.933480 8342706
6.352505 -5.621751 3.687556 8342706
5.643720 -6.133073 3.724629 8342706
6.526225 -5.906278 1.166960 8342706
5.727085 -6.008994 2.431940 8342706
6.237842 -6.351587 2.954357 8342706
5.712844 -6.386424 4.103391 8342706
6.060113 -6.287833 3.876218 8342706
6.386811 -5.554742 4.948472 8342706
6.518550 -6.286748 4.671342 8342706
6.028063 -5.934119 3.891071 8342706
6.190819 -6.392731 4.331649 8342706
5.741965 -6.205149 2.007207 8342706
6.453828 -5.888618 2.103570 8342706
6.446515 -5.973208 2.196199 8342706
5.858380 -5.437294 1.043937 8342706
6.472606 -5.795451 0.271916 8342706
5.854024 -5.474073 1.407147 8342706
6.233167 -5.707945 4.820620 8342706
5.968799 -5.648262 1.243937 8342706
6.500897 -5.791436 2.250316 8342706
5.787125 -6.218617 3.687422 8342706
6.251273 -6.186504 1.507286 8342706
5.973482 -6.404181 3.993074 8342706
6.006675 -5.828592 2.287140 8342706
6.173194 -6.046871 4.116361 8342706
6.166590 -6.414115 4.341466 8342706
6.280897 -5.595023 4.747250 8342706
6.340150 -5.825966 3.610525 8342706
5.982531 -5.792080 3.164392 8342706
6.530446 -5.876806 3.022121 8342706
6.276855 -5.873657 2.829443 8342706
6.303436 -6.337888 2.011552 8342706
5.755774 -5.685792 3.603936 8342706
5.715042 -5.739216 3.075215 8342706
