# .PCD v0.7 - Point Cloud Data file format
VERSION 0.7
FIELDS x y z rgb
SIZE 4 4 4 4
TYPE F F F U
COUNT 1 1 1 1
WIDTH 1287
HEIGHT 1
VIEWPOINT 0 0 0 1 0 0 0
POINTS 1287
DATA ascii
-8.820973 2.209472 1.639049 15014169
-8.949835 2.730484 0.584597 15014169
-9.241228 2.394551 0.618879 15014169
-8.686975 2.276742 1.336892 15014169
-8.992484 2.250318 1.349766 15014169
-9.224034 2.760844 1.633141 15014169
-8.598248 2.412467 0.341621 15014169
-8.586549 2.369180 1.294531 15014169
-9.009968 2.148063 1.493657 15014169
-8.815092 2.666153 1.088807 15014169
-8.653527 2.775720 0.297250 15014169
-9.209629 2.301645 0.491288 15014169
-8.780524 2.395948 1.529124 15014169
-9.140024 2.452993 0.319625 15014169
-8.785199 2.454516 0.496591 15014169
-8.649873 2.764767 0.408368 15014169
-9.231954 2.447010 1.143315 15014169
-9.051317 2.609354 0.581435 15014169
-8.907226 2.530025 0.921242 15014169
-9.181806 2.282220 0.496066 15014169
-9.059319 2.289479 1.045461 15014169
-8.878090 2.443609 0.757364 15014169
-8.889098 2.742038 1.504134 15014169
-9.216547 2.346783 0.883319 15014169
-8.800478 2.612123 0.933933 15014169
-8.956938 2.697554 1.052343 15014169
-8.628999 2.174649 0.826178 15014169
-8.607034 2.617251 1.570487 15014169
-9.096601 2.643511 0.580216 15014169
-8.898033 2.299427 0.927464 15014169
-8.712648 2.324589 1.155147 15014169
-8.939818 2.764826 1.213011 15014169
-8.823536 2.380481 1.039837 15014169
-9.242647 2.190051 1.586612 15014169
-9.231496 2.780399 1.307227 15014169
-8.822175 2.654603 0.500277 15014169
-8.691877 2.637865 1.072728 15014169
-8.926042 2.473417 0.939748 15014169
-8.715080 2.316762 0.388397 15014169
-8.626955 2.457827 1.342359 15014169
-8.808549 2.510085 0.497505 15014169
-9.097802 2.442314 1.098928 15014169
-8.710829 2.356526 0.852145 15014169
-8.638732 2.709442 0.448226 15014169
-9.156680 2.591411 1.095326 15014169
-8.564425 2.647661 1.415372 15014169
-9.111586 2.500299 1.184493 15014169
-9.274841 2.493488 0.925518 15014169
-9.026074 2.334785 1.575229 15014169
-9.247174 2.348911 0.706533 15014169
-8.612303 2.139263 0.939525 15014169
-9.033608 2.622051 1.268997 15014169
-8.815299 2.739568 1.621919 15014169
-9.217724 2.206789 0.354144 15014169
-8.625232 2.819195 0.826918 15014169
-9.223764 2.226020 1.519283 15014169
-8.947737 2.282416 1.170665 15014169
-8.716885 2.441643 0.354113 15014169
-9.019753 2.737085 0.431299 15014169
-9.173703 2.677169 0.469340 15014169
-9.174156 2.309592 0.713219 15014169
-9.035933 2.696745 0.633446 15014169
-9.192636 2.212969 0.785232 15014169
-9.102633 2.723186 1.146868 15014169
-9.061679 2.812587 0.880318 15014169
-8.647701 2.340107 0.752947 15014169
-8.580637 2.189011 1.540431 15014169
-8.587567 2.370169 1.564189 15014169
-8.637441 2.843360 0.452732 15014169
-8.860884 2.684224 1.336531 15014169
-8.686286 2.142321 1.616039 15014169
-9.159590 2.166234 1.673733 15014169
-9.126105 2.713632 0.322665 15014169
-9.255898 2.180439 1.208194 15014169
-9.107430 2.428650 1.622831 15014169
-9.123415 2.296121 0.981202 15014169
-9.075377 2.487109 0.927024 15014169
-9.032015 2.129602 1.370104 15014169
-8.646550 2.383132 0.947758 15014169
-9.232209 2.648483 0.620835 15014169
-9.184182 2.236859 0.583614 15014169
-8.762156 2.436641 1.293382 15014169
-9.171169 2.303564 1.464570 15014169
-9.267055 2.284204 1.469419 15014169
-8.787826 2.310179 1.441491 15014169
-9.154320 2.513575 1.140664 15014169
-8.608284 2.604138 0.784895 15014169
-8.919315 2.287338 1.686967 15014169
-8.980544 2.183304 1.676091 15014169
-8.653288 2.518950 0.355813 15014169
-8.669683 2.766370 1.189886 15014169
-9.080580 2.771512 0.318358 15014169
-9.022265 2.374224 1.489112 15014169
-9.269032 2.583862 1.073827 15014169
-9.024143 2.183846 0.506282 15014169
-8.787448 2.177510 0.382189 15014169
-8.953505 2.483453 0.346233 15014169
-8.897475 2.207572 0.484135 15014169
-8.794811 2.330000 1.412286 15014169
11.066021 -1.111726 0.477047 1645029
11.084756 -0.844269 1.239089 1645029
10.585267 -1.341457 1.054626 1645029
10.798923 -1.082050 1.009211 1645029
10.893238 -1.042066 1.191816 1645029
10.822479 -1.042258 1.479246 1645029
10.838241 -1.006492 0.624340 1645029
10.701118 -0.880722 1.276309 1645029
10.977103 -1.060022 0.949758 1645029
10.915865 -1.507481 0.617552 1645029
11.421802 -1.229666 1.081044 1645029
11.200963 -1.496540 1.278011 1645029
10.723270 -1.227537 0.606239 1645029
11.358115 -1.368269 1.238998 1645029
10.767801 -1.201205 0.837154 1645029
10.573987 -0.926868 1.155551 1645029
10.476463 -1.435160 0.945262 1645029
11.105932 -0.834397 1.132910 1645029
11.168130 -1.007722 1.282514 1645029
10.913847 -1.292816 0.897507 1645029
11.167641 -1.386533 1.154073 1645029
10.742633 -1.403132 1.327899 1645029
11.084089 -0.900770 1.271958 1645029
10.929384 -1.547745 0.679730 1645029
11.023036 -1.657588 0.762968 1645029
10.805116 -0.948787 1.118006 1645029
11.031261 -1.456514 0.844641 1645029
10.876318 -1.184053 0.926341 1645029
11.262771 -1.169336 1.043989 1645029
11.184958 -1.304462 1.114265 1645029
10.752734 -1.379006 0.850580 1645029
10.585225 -1.150973 0.647598 1645029
10.725682 -1.181071 1.348478 1645029
10.744884 -1.188067 0.885724 1645029
11.309675 -1.498727 0.940823 1645029
10.907575 -1.172686 1.055581 1645029
10.988588 -0.785862 1.083206 1645029
10.463264 -1.498370 1.089272 1645029
10.958101 -1.167512 1.167851 1645029
10.704032 -1.519866 1.094921 1645029
10.734979 -1.365828 0.507627 1645029
10.528145 -1.237302 0.853225 1645029
11.153404 -1.364303 1.158909 1645029
10.921676 -1.272432 1.211280 1645029
10.777086 -1.060237 0.685442 1645029
11.048420 -1.068634 0.687237 1645029
11.039599 -0.833776 0.998390 1645029
11.003059 -1.197476 0.873174 1645029
10.828560 -1.224473 0.661476 1645029
11.228102 -1.502236 0.804972 1645029
10.812779 -1.642700 0.957547 1645029
11.307839 -1.264330 0.978971 1645029
10.870057 -1.395762 0.843199 1645029
10.760237 -1.536244 1.344368 1645029
10.825961 -1.082295 0.515873 1645029
11.364131 -1.242069 1.279360 1645029
10.622046 -0.878571 0.724483 1645029
10.607044 -1.009521 0.650367 1645029
11.023131 -1.676019 0.907096 1645029
10.648294 -1.370637 0.858842 1645029
10.932755 -1.643532 0.953387 1645029
11.046285 -1.297503 0.991744 1645029
10.618821 -1.343060 1.022265 1645029
10.770385 -0.968175 0.893913 1645029
10.797524 -0.725354 0.965346 1645029
10.688681 -1.312356 1.415803 1645029
10.793613 -1.339739 1.151207 1645029
11.014579 -1.070142 1.237454 1645029
11.272228 -1.082550 1.159174 1645029
11.373784 -1.125936 1.007144 1645029
10.602726 -1.565128 1.233947 1645029
11.195352 -0.899242 1.048921 1645029
11.289809 -1.231801 1.031262 1645029
10.671822 -1.008954 0.563729 1645029
10.829000 -0.912028 1.243342 1645029
10.958321 -0.789044 1.045371 1645029
11.108053 -1.004400 0.871491 1645029
10.931108 -1.045864 0.542832 1645029
11.250768 -1.196467 1.022723 1645029
11.284128 -0.976334 1.234444 1645029
-4.373629 7.181449 0.480571 10053171
-5.972371 7.099068 0.428700 10053171
-4.437974 6.982191 2.359833 10053171
-5.159156 7.160723 2.881303 10053171
-3.822868 7.006106 0.303139 10053171
-6.686426 6.752969 2.470188 10053171
-4.100895 7.153503 2.574159 10053171
-3.167560 6.951269 1.341950 10053171
-4.397849 6.980306 0.494772 10053171
-3.500801 7.194027 2.549619 10053171
-3.684652 7.186522 2.494882 10053171
-3.252832 6.952174 0.844371 10053171
-3.992177 7.056574 0.153486 10053171
-4.953289 6.807440 1.167796 10053171
-6.822268 6.984845 0.196011 10053171
-4.606647 7.122809 2.207074 10053171
-6.427339 6.956004 1.198292 10053171
-4.659996 6.931132 0.454138 10053171
-6.899833 6.748157 2.805516 10053171
-6.316015 7.222581 2.894572 10053171
-6.068240 7.065942 0.751354 10053171
-6.128207 6.794509 2.812371 10053171
-3.732678 6.855646 2.218861 10053171
-4.832099 7.059616 2.514498 10053171
-6.576918 7.008493 2.653243 10053171
-6.051460 7.151968 1.118730 10053171
-3.393223 7.149938 1.447245 10053171
-4.617539 6.949445 1.349319 10053171
-5.992312 7.239275 2.389594 10053171
-6.674430 7.023847 2.949922 10053171
-6.854186 7.055076 1.116359 10053171
-5.981648 6.756688 0.149000 10053171
-6.139865 7.023217 1.971805 10053171
-3.866926 6.977090 0.573480 10053171
-4.712364 7.149415 0.110180 10053171
-5.881402 7.174131 2.078862 10053171
-4.852460 6.952364 1.390910 10053171
-5.488469 7.231687 2.751596 10053171
-5.062271 6.743116 1.295469 10053171
-6.166528 6.965384 2.537771 10053171
-4.485452 6.928049 2.122031 10053171
-4.103101 7.104529 1.129181 10053171
-3.858644 6.774807 0.903212 10053171
-4.724025 6.943225 2.244479 10053171
-5.546254 6.957323 0.646425 10053171
-3.808589 7.032537 1.166738 10053171
-3.482782 7.071003 2.132059 10053171
-4.285729 7.194394 0.700577 10053171
-4.125907 7.250738 2.553888 10053171
-5.315078 6.959149 1.616858 10053171
-6.755704 7.040876 2.622724 10053171
-5.653074 6.974563 1.208896 10053171
-5.759948 6.866733 2.780840 10053171
-3.536140 6.841149 2.693217 10053171
-3.084503 6.910388 0.634972 10053171
-5.037464 7.038632 2.170870 10053171
-3.513215 7.063760 0.804245 10053171
-5.444311 7.058805 1.632977 10053171
-3.334013 7.079235 2.170423 10053171
-6.470622 7.200117 0.017466 10053171
-6.384776 6.744685 2.596360 10053171
-4.393460 6.954963 2.937088 10053171
-6.322561 6.933078 0.869581 10053171
-3.771481 7.178844 1.040315 10053171
-3.553040 7.060918 2.697619 10053171
-4.187925 6.917455 2.157422 10053171
-6.370684 6.834301 1.062447 10053171
-3.774363 6.996011 1.921843 10053171
-3.888056 7.058544 1.219334 10053171
-5.447578 7.208908 0.696348 10053171
-5.921244 6.942184 2.515275 10053171
-3.286513 6.919084 1.491770 10053171
-6.790474 6.759133 2.280894 10053171
-3.699576 6.997568 1.001072 10053171
-6.511518 7.232166 1.571118 10053171
-5.289595 6.970004 0.864467 10053171
-6.483998 6.885561 0.455044 10053171
-4.533176 7.083938 2.280134 10053171
-6.746886 7.173347 1.152287 10053171
-4.050442 6.893862 0.237914 10053171
-5.778524 7.208315 0.700490 10053171
-6.958788 7.068285 2.917387 10053171
-3.120994 7.052613 2.176378 10053171
-4.131179 7.117749 0.033956 10053171
-4.415547 7.184763 1.332872 10053171
-6.614945 7.216330 0.429022 10053171
-5.846259 6.885488 0.164648 10053171
-3.272124 6.880047 0.150016 10053171
-6.537527 6.928188 1.332119 10053171
-5.954772 6.825786 0.011891 10053171
-5.458492 7.040554 1.772329 10053171
-6.369617 7.007483 2.961697 10053171
-6.068278 6.814714 2.944940 10053171
-4.265413 7.230193 1.418701 10053171
-4.284124 7.106472 2.212652 10053171
-3.909029 7.206322 2.377894 10053171
-5.668512 7.218763 0.388378 10053171
-5.360897 6.905021 0.445681 10053171
-3.340074 6.969786 0.986987 10053171
-6.877120 6.969195 0.249831 10053171
-4.476254 6.786509 1.774764 10053171
-6.242467 7.213354 1.515823 10053171
-3.874021 7.201959 0.858669 10053171
-3.774689 6.962012 2.075508 10053171
-4.802443 7.142339 1.229769 10053171
-5.643680 7.266975 1.590069 10053171
-4.248528 6.976486 0.424505 10053171
-5.518744 7.200053 0.335464 10053171
-3.270034 7.075366 0.152462 10053171
-5.099146 6.778538 1.775547 10053171
-5.637372 7.035882 2.621178 10053171
-5.458016 6.883605 2.384815 10053171
-4.468087 6.921817 0.683972 10053171
-4.777949 6.949349 2.322172 10053171
-6.493214 6.983274 1.160309 10053171
-5.736094 6.783752 1.373968 10053171
-4.562434 6.913281 1.797660 10053171
-4.048913 7.055908 2.541720 10053171
-3.340540 7.039216 0.190059 10053171
-4.631617 6.751206 1.394814 10053171
-3.805798 7.204193 0.841690 10053171
-5.169264 6.860693 0.240788 10053171
-6.426969 6.775196 0.329574 10053171
-5.578458 7.022660 0.819721 10053171
-3.121820 7.195467 1.541802 10053171
-5.361304 7.079939 2.738170 10053171
-5.327292 6.921655 2.694428 10053171
-4.385650 6.904366 0.770647 10053171
-6.980665 7.105502 2.659816 10053171
-4.281594 7.051044 2.882986 10053171
-4.853252 6.989059 0.214769 10053171
-6.467865 6.892380 2.264958 10053171
-5.363178 6.906810 1.751595 10053171
-5.247967 7.058475 1.638573 10053171
-4.629282 6.842348 0.810732 10053171
-3.264102 6.824899 0.421636 10053171
-4.013600 6.961803 1.210265 10053171
-3.768505 7.235753 0.795121 10053171
-5.109380 7.047075 2.767457 10053171
-4.748406 7.190589 1.111486 10053171
-5.678103 6.766893 2.548079 10053171
-5.396845 7.162585 2.281821 10053171
-6.059825 7.011701 2.968600 10053171
-3.717988 6.941335 1.065873 10053171
-4.240446 7.082093 2.747487 10053171
-5.928630 7.052797 0.650556 10053171
-4.969794 6.795255 2.324246 10053171
-3.919446 6.804119 1.373948 10053171
-6.009264 7.197403 1.736037 10053171
-3.627488 7.203900 0.417490 10053171
-5.855288 6.929632 2.262495 10053171
-6.551391 6.878043 1.762926 10053171
-4.766586 6.798678 2.779701 10053171
-6.489433 7.157705 1.208757 10053171
-3.584421 7.005556 1.076795 10053171
-6.267173 6.813769 1.542144 10053171
-3.002791 6.854467 1.591285 10053171
-6.388219 7.240893 0.945086 10053171
-4.807828 7.003894 1.236214 10053171
-6.414503 7.095844 0.915877 10053171
-6.876268 6.887728 2.254748 10053171
-3.726176 7.236030 1.825849 10053171
-4.228327 7.193180 0.794900 10053171
-6.323409 6.787575 2.940657 10053171
-3.038697 6.746186 2.267834 10053171
-6.402724 6.928242 1.482023 10053171
-6.300215 6.985214 1.008078 10053171
-5.155566 6.779851 1.234605 10053171
-3.961022 7.166610 0.936011 10053171
-6.428556 7.079513 0.866792 10053171
-6.225013 6.769349 2.064947 10053171
-3.524960 7.045589 0.928946 10053171
-5.329031 6.968746 2.324271 10053171
-4.503766 6.771472 0.629916 10053171
-5.557361 7.196022 0.161756 10053171
-3.630853 6.932024 1.821079 10053171
-6.992822 7.179386 2.101311 10053171
-6.184260 7.178776 1.934368 10053171
-4.719604 6.917758 0.427313 10053171
-5.557840 6.945306 1.761467 10053171
-6.760389 6.783657 1.256812 10053171
-5.582043 6.809409 1.500165 10053171
-6.410795 6.868382 2.029298 10053171
-5.992473 6.773036 1.057412 10053171
-5.772189 6.773295 2.082637 10053171
-5.566217 6.808219 1.581576 10053171
-3.369817 7.068281 2.630804 10053171
-5.031316 7.026345 0.370044 10053171
-4.166672 7.186001 0.547403 10053171
-5.053689 7.140728 0.832029 10053171
-6.392619 6.926383 2.864722 10053171
-6.866393 6.832026 2.543084 10053171
-6.718151 6.755295 0.415235 10053171
-3.254459 7.094473 1.573704 10053171
-6.014383 6.742197 2.607011 10053171
-4.050452 6.932477 1.568143 10053171
-6.719409 7.212766 0.598659 10053171
-6.913794 6.961049 2.978338 10053171
-4.482942 6.950987 1.932778 10053171
-4.899772 7.098582 2.563265 10053171
-3.973920 7.090959 0.796599 10053171
-4.125515 7.246976 0.488573 10053171
-3.931384 6.778155 1.134756 10053171
-3.465677 7.221401 2.457762 10053171
-3.386349 7.174608 0.197542 10053171
-3.161227 6.798706 0.454158 10053171
-4.793164 7.201638 1.114504 10053171
-6.924736 7.100761 0.574038 10053171
-6.240407 6.750802 1.872903 10053171
-6.645249 6.933470 0.615304 10053171
-6.339970 7.177147 1.717866 10053171
-6.413208 6.809293 1.135725 10053171
-4.978970 6.821587 0.298378 10053171
-5.309831 7.029168 1.116737 10053171
-5.992944 7.075266 1.257722 10053171
-3.175395 7.023425 2.093598 10053171
-4.530855 6.905800 0.160205 10053171
-6.058067 6.851587 0.169224 10053171
-3.642678 7.150577 0.333452 10053171
-3.323719 7.185605 2.580463 10053171
-4.015702 6.896710 2.675635 10053171
-4.112109 6.838707 2.988079 10053171
-5.547045 7.086802 1.928157 10053171
-4.327138 7.147141 0.743212 10053171
-4.271544 6.933770 0.578941 10053171
-3.612269 7.133135 0.606383 10053171
-3.755505 6.930743 0.917631 10053171
-4.646427 7.020373 0.617980 10053171
-4.203624 6.932498 0.203572 10053171
-6.553594 6.789888 2.349518 10053171
-4.719467 7.165740 0.518830 10053171
-5.170290 6.991219 1.457504 10053171
-6.454043 7.233041 1.318586 10053171
-6.993050 7.021527 2.085949 10053171
-6.603664 7.228559 1.480756 10053171
-5.041627 7.131521 2.877573 10053171
-4.723993 6.847853 0.713465 10053171
-4.305370 6.924695 1.308632 10053171
-5.427843 6.817815 2.065125 10053171
-4.010001 6.757082 2.821117 10053171
-5.966679 7.021911 1.398759 10053171
-6.741156 6.776427 0.261957 10053171
-3.296351 7.128041 2.680550 10053171
-5.110623 7.068643 1.727859 10053171
-5.868254 7.175049 0.506936 10053171
-6.250904 6.873304 1.066864 10053171
-6.950351 7.090219 1.613170 10053171
-5.743709 7.223263 2.553742 10053171
-6.217041 6.924507 2.031407 10053171
-3.786837 6.950184 1.344099 10053171
-5.739153 7.161613 0.887870 10053171
-3.118793 6.811095 0.966642 10053171
-3.900239 6.842203 1.094700 10053171
-5.337721 7.175853 1.640558 10053171
-3.516826 6.769201 0.855066 10053171
-4.692152 7.235219 1.552990 10053171
-3.650157 7.010495 2.200376 10053171
-4.577215 7.136841 2.665938 10053171
-4.906598 7.098990 2.096106 10053171
-6.923671 6.805116 2.387627 10053171
-3.410329 7.110245 0.888229 10053171
-5.533072 7.066679 2.929322 10053171
-4.831811 6.929594 0.684022 10053171
-4.584118 7.010522 2.176828 10053171
-6.923011 7.033674 2.215836 10053171
-3.655753 6.869162 1.216748 10053171
-4.329198 6.925425 0.801915 10053171
-6.416708 6.780529 2.068508 10053171
-6.045214 6.789402 2.088189 10053171
-4.832523 6.754718 0.958138 10053171
-3.718289 6.858090 0.030505 10053171
-4.875258 7.109822 2.480346 10053171
-3.746692 7.001956 2.482825 10053171
-5.178671 7.096239 1.508862 10053171
-6.245241 6.858737 1.589612 10053171
-6.663016 7.179648 2.930889 10053171
-3.929017 6.919391 0.948931 10053171
-6.246412 7.061535 0.940953 10053171
-4.888910 7.160972 1.522778 10053171
-3.252120 7.199028 0.922211 10053171
-6.355125 7.080231 1.858118 10053171
-5.662722 6.806173 1.332077 10053171
-3.566490 6.914830 0.422308 10053171
-5.625294 6.796977 2.120415 10053171
-4.284492 7.254105 0.438487 10053171
-3.196461 7.016961 1.437050 10053171
-3.114307 6.940283 1.818022 10053171
-4.058582 6.753177 0.919586 10053171
-4.279702 7.202082 1.333885 10053171
-3.068351 6.869375 0.298688 10053171
-4.007462 7.121440 1.441393 10053171
-5.431654 6.898046 1.065667 10053171
-3.983574 6.944053 0.359350 10053171
-3.796417 6.963574 0.159229 10053171
-5.746568 7.248063 1.870836 10053171
-5.710853 7.196445 1.778960 10053171
-6.046238 6.746671 2.383823 10053171
-3.604953 6.958785 0.833392 10053171
-5.220960 7.124354 1.192903 10053171
-5.133514 6.845550 2.484209 10053171
-4.290909 7.177359 0.640109 10053171
-6.965431 7.219412 0.061612 10053171
-4.016648 6.790380 1.116683 10053171
-4.059698 6.779727 1.846787 10053171
-5.414744 6.861277 2.720617 10053171
-3.265676 7.055425 1.529949 10053171
-3.306519 7.216260 0.023087 10053171
-3.217814 6.816150 1.471977 10053171
-4.636565 6.968100 1.552218 10053171
-4.969054 6.868183 0.151640 10053171
-6.818666 6.836171 1.558360 10053171
-5.555544 6.918296 0.132832 10053171
-6.924032 6.900215 1.409946 10053171
-4.209632 6.772774 1.309052 10053171
-6.392480 6.923413 0.223667 10053171
-3.372483 6.751076 2.834711 10053171
-4.111571 6.791076 1.407963 10053171
-4.749960 6.831045 1.919068 10053171
-6.144016 6.789184 0.141433 10053171
-5.205721 7.140573 1.838933 10053171
-6.261564 7.120059 2.260627 10053171
-5.144661 7.092934 1.393457 10053171
-6.460089 6.932124 1.311495 10053171
-5.470391 7.075431 0.300621 10053171
-4.926370 7.163617 1.799899 10053171
-3.847629 6.977043 1.637261 10053171
-5.418109 7.080138 2.699149 10053171
-5.704628 7.066415 2.964509 10053171
-6.842429 7.159135 0.771241 10053171
-4.912934 7.163339 1.127471 10053171
-6.980844 6.953766 0.272363 10053171
-6.738717 6.983783 1.052132 10053171
-4.297203 6.791080 1.924953 10053171
-3.977762 7.187519 0.069527 10053171
-3.122664 7.042177 1.330666 10053171
-3.863907 7.036865 0.407972 10053171
-3.111859 6.738813 1.715547 10053171
-3.449290 6.855195 0.307567 10053171
-6.603101 7.091089 1.227184 10053171
-4.096098 7.127901 0.735429 10053171
-3.793168 6.989325 2.072962 10053171
-3.794840 7.025677 1.220760 10053171
-4.649056 7.142320 2.676089 10053171
-4.616230 7.215030 2.344501 10053171
-6.260623 7.159255 0.862695 10053171
-3.103958 6.903687 0.023040 10053171
-4.402307 6.747383 0.513602 10053171
-5.175721 7.000957 2.885412 10053171
-5.311563 7.008585 2.491216 10053171
-3.661160 7.229541 1.082061 10053171
-4.843660 6.777715 0.097044 10053171
-4.755329 7.119271 0.935593 10053171
-4.093599 6.860573 1.508699 10053171
-3.558159 6.975853 0.963940 10053171
-6.971002 7.115864 0.902094 10053171
-3.901430 6.934778 1.347435 10053171
-3.593126 6.948159 2.708820 10053171
-5.499071 6.841717 2.603059 10053171
-5.392612 6.776655 2.408702 10053171
-3.044122 6.816242 2.954709 10053171
-6.157624 6.855624 2.054429 10053171
-4.437292 7.152427 0.782311 10053171
-4.519169 7.019892 0.694452 10053171
-3.196060 7.217331 2.719490 10053171
-5.889407 7.196575 2.542611 10053171
-4.214361 6.909058 2.129040 10053171
-3.178075 6.921255 0.492537 10053171
-4.997736 6.818082 1.848813 10053171
-3.739589 6.961790 0.097679 10053171
-4.323428 7.226292 0.526782 10053171
-6.169971 6.880549 1.540074 10053171
-3.856087 7.202803 0.584713 10053171
-5.432272 6.781399 1.451751 10053171
-3.196105 6.826462 2.179452 10053171
-3.462023 6.963039 0.333572 10053171
-3.954822 7.256566 2.072024 10053171
-6.188285 7.186564 0.259525 10053171
-6.570889 6.913033 0.529509 10053171
-4.613199 6.890517 1.263890 10053171
-5.127627 6.791377 0.012021 10053171
-5.458405 6.797071 0.525742 10053171
-3.754305 6.789801 0.409481 10053171
-5.345530 7.220282 0.685929 10053171
-3.183016 7.182025 1.372341 10053171
-4.930888 6.752884 2.563680 10053171
-6.727578 7.136321 1.624187 10053171
-4.817189 6.781097 1.185287 10053171
-4.085515 7.014194 1.638433 10053171
-4.090514 7.026857 1.604394 10053171
-3.492420 6.911914 2.931221 10053171
-4.074007 7.148077 2.898078 10053171
-6.608473 6.915939 1.760612 10053171
-5.188339 7.039707 1.684024 10053171
-5.125788 7.163956 2.149609 10053171
-4.508374 6.867647 0.031129 10053171
-5.341520 6.759611 2.588561 10053171
-5.158967 6.766807 1.373880 10053171
-4.065994 6.901464 0.715488 10053171
-4.389698 7.034585 1.056343 10053171
-5.216337 7.148341 0.688642 10053171
-3.739659 6.788283 1.900886 10053171
-3.663017 7.237735 2.743278 10053171
-3.366447 7.138645 1.025259 10053171
-4.072367 7.206242 2.620593 10053171
-3.096911 7.157058 2.850321 10053171
-3.563714 7.033127 1.646915 10053171
-5.311723 7.102712 0.095961 10053171
-3.927860 6.919486 2.302820 10053171
-6.403967 7.038317 2.529748 10053171
-3.128171 7.092908 2.797065 10053171
-4.865496 7.142683 0.122037 10053171
-5.905971 6.894971 0.165182 10053171
-4.267217 7.051490 0.566741 10053171
-4.640538 7.133220 -0.002256 10053171
-6.626670 7.224660 1.374291 10053171
-6.060259 6.920401 0.103073 10053171
-5.839725 6.758666 2.902935 10053171
-4.472896 7.060307 2.829446 10053171
-5.612607 7.192478 2.555687 10053171
-3.115833 6.947979 0.628423 10053171
-5.757404 6.932154 0.609657 10053171
-4.077290 7.125419 1.545091 10053171
-4.688408 6.747899 1.643582 10053171
-4.994512 7.135132 1.226719 10053171
-4.430645 6.964673 0.509669 10053171
-5.287824 7.240491 0.321222 10053171
-3.874241 6.961856 0.844159 10053171
-4.240575 6.923944 2.675532 10053171
-5.249557 7.108770 1.723874 10053171
-2.994108 6.971764 0.260777 10053171
-5.439888 6.849671 1.041571 10053171
-6.589971 7.082973 2.700211 10053171
-5.114656 6.814942 1.654260 10053171
-3.031079 6.921495 0.746249 10053171
-6.586321 6.972610 1.164384 10053171
-3.082276 6.990232 0.186452 10053171
-6.270068 7.222788 1.907988 10053171
-3.680374 6.927433 1.351865 10053171
-4.186004 7.107061 0.199396 10053171
-3.843760 7.150898 1.794008 10053171
-4.172665 7.013165 1.358869 10053171
-3.091341 6.821898 0.731311 10053171
-5.604694 7.220852 0.140368 10053171
-5.683032 7.009840 2.784999 10053171
-4.818577 6.941674 1.789655 10053171
-5.931810 7.159686 2.065292 10053171
-3.324882 7.099547 0.988914 10053171
-6.477419 6.799703 0.743161 10053171
-6.596676 7.075745 1.910970 10053171
-3.746127 6.854210 0.046465 10053171
-4.627555 7.111331 2.016974 10053171
-5.605448 6.757991 2.658459 10053171
-3.975717 7.099941 0.426678 10053171
-3.922166 6.783403 1.641097 10053171
-5.365573 7.016674 0.797713 10053171
-4.851672 6.823325 1.753291 10053171
-5.769134 6.948012 1.088561 10053171
-6.608143 6.863674 0.161584 10053171
-4.527899 6.975625 1.713218 10053171
-3.734226 7.108897 2.807491 10053171
-5.705993 6.850932 0.075912 10053171
-5.677483 7.074132 0.368960 10053171
-4.264376 6.851035 0.882059 10053171
-5.873919 6.862346 2.065120 10053171
-4.904971 6.823420 2.894983 10053171
-3.171714 6.975222 2.038173 10053171
-3.609582 6.910905 1.082022 10053171
-4.816618 7.138660 2.849204 10053171
-4.548627 7.142510 1.490088 10053171
-3.458563 7.088584 1.064656 10053171
-3.158086 7.155835 0.490119 10053171
-5.418951 7.097859 0.823930 10053171
-6.665555 6.954813 2.572863 10053171
-3.297111 6.909402 2.375490 10053171
-5.853827 7.145016 2.069427 10053171
-4.681128 6.937653 1.459276 10053171
-4.279021 6.835881 2.110231 10053171
-3.011021 6.744456 2.467845 10053171
-3.037770 6.991053 1.088280 10053171
-4.364522 7.200408 0.277720 10053171
-5.496851 7.231769 2.291936 10053171
-5.606788 7.121802 1.111165 10053171
-3.859346 6.883637 1.853074 10053171
-4.674528 7.088471 2.937273 10053171
-4.733126 7.182327 2.674213 10053171
-6.276237 7.037493 1.585670 10053171
-3.129439 7.200859 0.334833 10053171
-4.516871 6.882310 2.784807 10053171
-3.044115 6.923122 1.113847 10053171
-4.447486 7.235482 2.829254 10053171
-5.029911 6.918569 2.689769 10053171
-3.213460 6.980991 0.519062 10053171
-5.987659 6.830040 0.795502 10053171
-4.695065 7.148564 0.319261 10053171
-2.991544 7.062517 0.562953 10053171
-5.452910 6.932313 1.103840 10053171
-3.921491 6.806180 0.632457 10053171
-6.069959 6.983315 2.740210 10053171
-3.312431 6.939921 0.558065 10053171
-5.714502 6.752957 2.831922 10053171
-4.199577 6.826686 0.633064 10053171
-6.590697 6.984085 2.957963 10053171
-6.892429 7.235082 2.516522 10053171
-6.897984 7.204351 0.742284 10053171
-5.293117 7.001361 2.453494 10053171
-5.202935 6.953799 1.275571 10053171
-3.156424 7.162121 1.897094 10053171
-6.378451 6.949741 1.717082 10053171
-4.062535 6.846858 0.131104 10053171
-3.512960 6.892355 -0.015848 10053171
-6.121092 6.874307 1.887337 10053171
-3.104330 7.084492 0.773348 10053171
-3.571312 7.027219 2.702189 10053171
-4.252928 7.041313 2.620268 10053171
-3.440097 6.895592 2.413713 10053171
-5.130475 6.872355 2.893601 10053171
-4.451972 7.136918 1.073875 10053171
-6.610344 6.838470 2.045202 10053171
-3.834336 6.878654 2.267730 10053171
-3.569141 6.990020 1.058710 10053171
-4.269005 6.770076 0.877499 10053171
-3.860775 7.008602 1.002510 10053171
-5.356701 6.948585 2.085817 10053171
-3.239209 6.850500 0.500669 10053171
-3.423363 7.246089 0.645789 10053171
-6.375846 6.756186 1.223842 10053171
-5.809500 7.235959 1.585591 10053171
-3.794192 6.878423 0.815468 10053171
-6.560434 6.860587 1.605335 10053171
-4.369919 6.799008 0.985623 10053171
-5.663138 6.910317 0.073871 10053171
-4.406454 7.027948 1.201189 10053171
-4.179032 6.891163 2.095411 10053171
-3.264099 7.162248 1.288231 10053171
-3.754876 7.235452 2.646806 10053171
-5.893280 6.810616 0.052101 10053171
-5.688364 6.800529 1.567262 10053171
-4.937120 6.951232 2.459984 10053171
-6.082139 7.056630 1.128845 10053171
-6.769761 7.229110 2.115548 10053171
-5.471395 6.847908 1.255956 10053171
-6.160814 6.913134 2.905909 10053171
-5.564102 6.779694 2.414208 10053171
-4.527228 7.173644 1.531230 10053171
-5.291272 6.884099 0.626574 10053171
-6.023879 7.225198 1.496418 10053171
-3.508944 6.863282 2.530164 10053171
-5.661506 6.935773 2.280512 10053171
-6.064230 6.957449 1.463749 10053171
-6.571760 6.860905 1.273722 10053171
-6.791803 7.076543 2.614209 10053171
-6.562860 6.868853 1.829709 10053171
-6.081200 6.990767 2.812013 10053171
-4.204792 7.175199 2.771211 10053171
-4.888609 7.084599 2.190033 10053171
-4.878498 7.153818 0.063300 10053171
-4.076757 6.842279 1.560067 10053171
-6.991150 7.230983 0.323769 10053171
-5.488896 7.168402 0.044495 10053171
-3.516623 6.813725 0.735345 10053171
-6.074159 6.796605 0.885057 10053171
-3.548802 6.808341 2.848668 10053171
-3.563361 7.172542 0.918618 10053171
-5.216352 6.828557 2.961769 10053171
-6.963337 6.867875 2.319777 10053171
-4.328563 6.850051 0.589533 10053171
-4.590685 6.866660 0.874278 10053171
-3.491609 6.828002 0.298590 10053171
-6.432550 6.991825 1.143620 10053171
-5.304752 7.240282 1.666271 10053171
-4.225614 7.182415 1.745618 10053171
-5.762084 7.148280 0.938903 10053171
-4.654957 6.962761 2.955263 10053171
-5.835111 7.018902 1.035867 10053171
-5.176591 7.122663 0.303274 10053171
-4.789909 6.861409 2.731413 10053171
-3.342764 7.000992 0.789389 10053171
-3.905552 7.022903 1.811995 10053171
-5.795307 6.994859 1.295403 10053171
-3.316834 6.980585 1.658614 10053171
-2.992024 7.225697 0.806166 10053171
-3.206815 7.220980 2.785762 10053171
-3.157769 7.170342 2.315916 10053171
-6.066886 6.933405 2.234003 10053171
-6.804374 7.043957 2.095227 10053171
-4.051029 6.796290 1.161159 10053171
-3.195263 7.218898 1.673963 10053171
-6.933932 7.154341 1.475857 10053171
-4.293593 6.901243 1.092987 10053171
-5.311229 7.028861 0.103237 10053171
-6.813518 7.155722 2.897222 10053171
-4.222499 6.825075 2.458674 10053171
-3.458534 7.033727 2.651361 10053171
-3.056982 6.763997 1.150600 10053171
-3.479429 7.212912 0.567838 10053171
-3.465736 6.951932 2.301490 10053171
-4.102989 7.071613 2.703301 10053171
-3.754481 7.070723 2.913382 10053171
-5.757470 6.928657 0.469680 10053171
-4.745893 7.106197 1.554088 10053171
5.890986 -5.981992 1.156508 8342706
6.119194 -5.733325 1.798890 8342706
5.445135 -6.087447 3.619976 8342706
6.173771 -6.477573 0.560432 8342706
5.443977 -6.216136 3.023573 8342706
6.185508 -6.453333 4.094478 8342706
6.359139 -6.056093 4.903160 8342706
6.193100 -5.638945 0.313865 8342706
5.995740 -6.171606 3.997504 8342706
6.160258 -5.987144 0.488572 8342706
5.566218 -5.663245 2.008800 8342706
6.171955 -6.434738 3.294671 8342706
6.546717 -5.782714 4.832971 8342706
6.045691 -5.635314 2.411883 8342706
6.485265 -5.962234 1.313066 8342706
6.078245 -6.226375 2.938943 8342706
6.525497 -5.877157 0.315852 8342706
6.353348 -6.426381 2.967288 8342706
6.316027 -5.514427 2.235448 8342706
6.445592 -6.354857 2.662361 8342706
6.202322 -6.110242 2.951757 8342706
6.287003 -5.575125 2.060187 8342706
5.634541 -6.298686 3.529381 8342706
5.805660 -5.568892 0.191276 8342706
5.660639 -5.785342 0.538876 8342706
6.476722 -5.796794 1.426589 8342706
6.029521 -5.427665 0.759596 8342706
6.215127 -6.322107 1.499650 8342706
6.436297 -6.158375 1.599757 8342706
6.535189 -6.041240 3.479706 8342706
5.587038 -6.199394 3.366367 8342706
5.850914 -6.189450 4.709273 8342706
5.770019 -5.521358 2.038651 8342706
6.328538 -5.783686 2.904297 8342706
6.265025 -5.958549 3.541764 8342706
5.439205 -6.117375 0.539994 8342706
6.397371 -5.805982 1.993536 8342706
5.910217 -5.786574 1.731330 8342706
5.734557 -5.856313 3.148352 8342706
5.658920 -6.172884 1.849341 8342706
5.799305 -5.529776 0.801288 8342706
6.460058 -6.081021 0.400179 8342706
5.988429 -6.155005 4.286316 8342706
5.591926 -6.197249 4.558556 8342706
5.740031 -5.751441 4.160243 8342706
5.743379 -5.913891 3.113476 8342706
6.043077 -5.990913 1.439050 8342706
6.415952 -6.268727 2.008383 8342706
5.656218 -5.724720 3.085383 8342706
6.281713 -6.084380 3.907655 8342706
5.409125 -6.016404 4.580758 8342706
5.960876 -5.441943 4.508039 8342706
5.502404 -5.977266 3.226536 8342706
6.414685 -5.954172 1.951387 8342706
6.171163 -6.512927 4.277583 8342706
6.366882 -5.870920 1.204015 8342706
5.426081 -5.935858 2.347843 8342706
5.501424 -5.759420 4.314626 8342706
6.432913 -5.974521 2.973984 8342706
6.111584 -5.670278 4.850939 8342706
6.285725 -5.858837 2.118665 8342706
5.804575 -5.453304 2.077103 8342706
5.885570 -6.327260 3.556398 8342706
5.993373 -5.508671 3.520272 8342706
5.760082 -6.024113 4.514928 8342706
5.842659 -6.093476 1.757856 8342706
6.164352 -5.746082 1.996071 8342706
6.156895 -6.273569 1.963384 8342706
5.788264 -6.239449 1.533495 8342706
5.608062 -6.267433 1.061173 8342706
5.846305 -6.365820 1.255719 8342706
5.955175 -5.944787 3.019224 8342706
6.073711 -6.104974 4.760130 8342706
5.809410 -5.803364 0.615171 8342706
5.726027 -6.086543 2.495030 8342706
5.955348 -5.987947 3.150802 8342706
5.475463 -6.206989 1.928751 8342706
6.084964 -5.600479 0.162280 8342706
6.451358 -5.937333 1.213382 8342706
6.565916 -6.059620 3.866894 8342706
6.034788 -6.215886 3.297221 8342706
5.562693 -5.626168 1.975152 8342706
6.106635 -6.282844 4.444966 8342706
6.112612 -5.581670 4.648017 8342706
6.410428 -5.685199 0.222209 8342706
5.977777 -6.166599 2.687496 8342706
6.223613 -5.957987 2.454457 8342706
5.499090 -6.154691 3.678943 8342706
6.051682 -6.311090 2.018632 8342706
5.866580 -6.324561 1.017634 8342706
6.188473 -6.412806 4.425111 8342706
5.561901 -5.921995 3.865799 8342706
5.686346 -6.376558 2.529676 8342706
6.108049 -6.496014 1.400668 8342706
5.840022 -5.882242 4.536131 8342706
5.590242 -5.764798 2.337903 8342706
6.451351 -5.834369 2.620985 8342706
6.105401 -6.430121 0.607889 8342706
5.560060 -6.161649 1.867005 8342706
6.315014 -6.043028 1.885716 8342706
6.571884 -6.050719 3.637482 8342706
5.643300 -6.395347 0.599151 8342706
5.690226 -6.455450 0.769817 8342706
6.220748 -6.012222 2.561813 8342706
5.654412 -6.038156 3.295589 8342706
5.752191 -5.609713 4.715147 8342706
5.773848 -6.239995 4.023360 8342706
5.669196 -5.830512 1.229277 8342706
6.427629 -5.978842 4.436733 8342706
5.833934 -5.621240 3.510108 8342706
6.016135 -5.791947 0.950311 8342706
6.160246 -6.385351 1.765795 8342706
6.168728 -5.785565 1.588715 8342706
5.952626 -5.779617 4.080296 8342706
6.048471 -6.212471 4.587236 8342706
5.764122 -6.161892 0.209075 8342706
5.908378 -5.635549 1.663815 8342706
6.187264 -5.637388 3.872689 8342706
5.714698 -5.968581 3.112179 8342706
5.817608 -6.198066 2.597495 8342706
5.685969 -5.861254 2.898323 8342706
5.599854 -6.229820 3.710796 8342706
5.895305 -6.587961 1.061865 8342706
6.138576 -5.812107 1.679170 8342706
6.303803 -6.319041 0.558906 8342706
6.339989 -5.700658 2.317267 8342706
6.144054 -5.578982 3.074512 8342706
5.672967 -5.697460 1.203076 8342706
5.994702 -5.719231 3.698718 8342706
6.184208 -6.033062 4.398779 8342706
6.511400 -6.114727 2.701603 8342706
6.353971 -6.156028 3.349747 8342706
5.663182 -6.305406 4.700126 8342706
6.285395 -5.537996 4.649287 8342706
5.977537 -6.216189 3.557188 8342706
5.755343 -5.649275 2.605126 8342706
6.081223 -6.548948 4.488521 8342706
5.529340 -5.756427 4.291052 8342706
5.542967 -6.140591 2.891505 8342706
6.102784 -5.635003 2.479444 8342706
5.684993 -5.897334 4.030731 8342706
5.863152 -5.424438 3.049735 8342706
6.484727 -5.819330 0.108650 8342706
6.076333 -5.444147 0.410726 8342706
6.393925 -5.707522 0.045820 8342706
6.045635 -5.767362 0.517473 8342706
5.655884 -5.723026 3.068401 8342706
6.333048 -6.231526 1.531580 8342706
6.127851 -5.798409 2.476109 8342706
5.768043 -6.153076 1.590896 8342706
5.969162 -6.214402 0.148810 8342706
5.842764 -6.040742 3.741187 8342706
5.715159 -6.168181 3.405798 8342706
6.323991 -6.237327 4.575302 8342706
6.334252 -6.453449 3.371575 8342706
6.016186 -6.540475 4.166953 8342706
6.009440 -5.677511 4.211986 8342706
5.708683 -5.621276 4.205853 8342706
6.211027 -5.871695 1.889372 8342706
5.511021 -6.233266 4.656112 8342706
5.911827 -6.319253 4.701077 8342706
6.038887 -6.442751 1.325055 8342706
6.121944 -5.621906 2.036451 8342706
5.958889 -6.194275 1.718636 8342706
6.025525 -6.024252 4.535595 8342706
6.065255 -5.652281 1.142235 8342706
6.118713 -6.303449 1.571977 8342706
5.743562 -5.753510 0.107248 8342706
6.357717 -6.175434 3.034322 8342706
6.123627 -5.577805 2.653339 8342706
6.265044 -5.854475 1.007436 8342706
5.627883 -6.060106 1.913178 8342706
5.725275 -5.663445 2.235727 8342706
5.803226 -5.665531 2.585246 8342706
5.533006 -5.932079 3.595650 8342706
6.016421 -5.840959 1.871140 8342706
5.701749 -5.880328 1.467655 8342706
5.728302 -6.256604 2.824667 8342706
5.999466 -6.326339 4.895139 8342706
5.986602 -6.458357 4.828019 8342706
6.074646 -5.584832 3.831726 8342706
5.624160 -5.568479 1.997259 8342706
6.558258 -6.018301 4.245397 8342706
5.659075 -5.591485 1.938056 8342706
6.094484 -6.460788 1.669142 8342706
5.593066 -6.233627 1.865257 8342706
6.322945 -5.922979 3.506592 8342706
6.475286 -5.834817 3.820531 8342706
6.425732 -6.105520 3.874195 8342706
6.122505 -5.854483 3.373224 8342706
6.141365 -6.400873 1.022846 8342706
5.666226 -6.136616 3.347616 8342706
6.517263 -6.301446 0.113692 8342706
6.420950 -6.111399 4.938781 8342706
5.432225 -5.924627 3.775858 8342706
6.500942 -5.998521 0.230097 8342706
6.229137 -5.664084 3.698997 8342706
6.094313 -6.013203 2.472289 8342706
6.261335 -5.985724 0.675187 8342706
6.415642 -5.948378 2.421192 8342706
6.075989 -6.497083 2.768897 8342706
6.397902 -6.100449 1.411145 8342706
6.217894 -5.648614 1.091423 8342706
6.270977 -5.574822 4.338197 8342706
6.167922 -6.457675 0.743414 8342706
5.642995 -6.061003 3.175946 8342706
6.503479 -5.805963 1.096741 8342706
6.171052 -5.800537 2.583150 8342706
6.018029 -6.075852 2.540444 8342706
6.379238 -5.679721 1.829442 8342706
5.967293 -6.100467 3.844790 8342706
6.500484 -5.997842 1.582423 8342706
5.486227 -6.289115 0.736298 8342706
5.819587 -6.356506 5.006240 8342706
6.466110 -5.781064 3.994514 8342706
6.213066 -6.033824 0.135013 8342706
6.271548 -5.818225 3.576046 8342706
6.507598 -6.082836 4.571311 8342706
5.913077 -6.062876 3.139863 8342706
6.381130 -6.254481 1.790228 8342706
6.030551 -5.424123 1.968134 8342706
5.425086 -5.959759 4.259748 8342706
6.076431 -6.057148 2.984303 8342706
6.261616 -5.912752 3.242891 8342706
5.664617 -6.177860 3.346532 8342706
6.146422 -6.360063 4.410638 8342706
6.110403 -5.519603 4.112884 8342706
5.918656 -5.835712 2.942200 8342706
5.438999 -6.111133 2.053741 8342706
6.297844 -6.430729 4.873672 8342706
5.652167 -6.395564 2.922657 8342706
6.321706 -6.330121 2.368943 8342706
6.421221 -5.809910 1.041970 8342706
6.461924 -5.883562 2.260894 8342706
5.999473 -5.505273 2.083378 8342706
6.206352 -5.745953 0.478784 8342706
5.892118 -6.295197 1.585065 8342706
6.397845 -5.768301 2.461705 8342706
6.372003 -5.534018 4.106916 8342706
6.456771 -6.176558 1.489878 8342706
6.183281 -5.812581 3.269732 8342706
5.720540 -6.391758 3.081804 8342706
6.270543 -5.538893 4.467260 8342706
6.039647 -5.894106 0.789384 8342706
5.581127 -6.351340 4.393553 8342706
5.610264 -5.729079 4.266962 8342706
6.212125 -5.854245 1.384246 8342706
5.736140 -5.784545 1.083113 8342706
5.880452 -6.117589 0.619363 8342706
6.182802 -5.438714 1.163501 8342706
6.281724 -5.523032 1.169470 8342706
5.650627 -6.257559 4.279688 8342706
5.933683 -6.063576 4.922816 8342706
6.212075 -5.566386 3.785808 8342706
5.648375 -6.038590 4.275965 8342706
6.091773 -6.578651 4.278689 8342706
5.703217 -5.717334 3.979245 8342706
5.542992 -6.086957 3.775590 8342706
6.221913 -6.416332 1.051387 8342706
6.579107 -5.969211 0.492043 8342706
5.985856 -5.542098 2.921785 8342706
6.201759 -6.403961 1.676247 8342706
5.488850 -6.223073 3.919832 8342706
5.611356 -6.438333 2.805645 8342706
5.800068 -5.498384 2.247154 8342706
6.538285 -6.228505 2.078942 8342706
6.049279 -6.356321 0.544615 8342706
5.436479 -5.872750 2.594496 8342706
5.833167 -5.675996 2.545447 8342706
6.305001 -6.086504 0.228354 8342706
6.044031 -5.603486 4.381147 8342706
6.488249 -6.259728 4.429722 8342706
5.823276 -6.407077 4.414032 8342706
5.457321 -5.778784 4.321794 8342706
5.945396 -5.489245 1.509390 8342706
6.542275 -6.207557 4.016120 8342706
6.387516 -6.146168 1.432842 8342706
5.839246 -6.182609 3.738448 8342706
6.112061 -6.339866 1.916555 8342706
5.546438 -5.624704 3.390932 8342706
5.786396 -6.447226 3.530744 8342706
5.510629 -5.697412 3.915712 8342706
6.157435 -5.564094 0.032700 8342706
6.338478 -5.967637 2.650530 8342706
6.379574 -6.091483 1.739580 8342706
5.797592 -5.805181 3.219456 8342706
6.009157 -5.807398 3.155166 8342706
6.323093 -6.048817 2.025582 8342706
6.381877 -5.812997 2.220867 8342706
6.060873 -5.796666 0.104248 8342706
5.838150 -6.060718 0.086582 8342706
6.225399 -6.459116 0.875180 8342706
6.355003 -6.464862 0.734219 8342706
6.155273 -6.361139 4.239203 8342706
5.871214 -6.507608 1.805692 8342706
5.632760 -5.909763 0.971168 8342706
5.777715 -5.660247 2.690385 8342706
6.193264 -5.742538 0.424067 8342706
6.077568 -5.428615 2.085999 8342706
6.013043 -6.489757 1.079178 8342706
6.242167 -5.531575 1.304779 8342706
6.439180 -5.669618 3.606583 8342706
6.492240 -6.257019 0.299256 8342706
5.753305 -5.924721 4.018855 8342706
6.160343 -6.099612 1.737145 8342706
6.109672 -6.222440 3.229583 8342706
5.617541 -6.256392 3.697460 8342706
6.530954 -6.149410 1.848380 8342706
6.263970 -6.216834 1.694085 8342706
5.559617 -5.788548 2.471038 8342706
6.385273 -6.391684 2.012151 8342706
6.124823 -6.221682 3.564581 8342706
6.171437 -6.581087 4.298754 8342706
6.453362 -6.401406 3.682356 8342706
6.135778 -5.558859 2.015552 8342706
6.069268 -5.456717 0.882496 8342706
6.155892 -6.420382 1.166884 8342706
5.667632 -6.049680 0.113483 8342706
5.838589 -5.594520 2.617867 8342706
5.803736 -6.383896 2.637219 8342706
6.107426 -5.489181 3.473737 8342706
5.780030 -6.291564 3.370788 8342706
6.311769 -6.339880 1.081918 8342706
5.802562 -6.532372 4.771615 8342706
6.274809 -5.674614 4.913451 8342706
6.005446 -6.483119 1.863348 8342706
5.697342 -5.778895 0.299481 8342706
6.304247 -5.555659 4.309544 8342706
5.594996 -5.855133 4.355645 8342706
6.223188 -5.574610 0.484589 8342706
6.273146 -6.345541 4.008505 8342706
6.195011 -6.550726 0.555731 8342706
6.187680 -5.843976 1.026271 8342706
6.453774 -6.144127 2.768827 8342706
6.027736 -6.393822 3.727900 8342706
6.007390 -5.554939 2.050029 8342706
6.440050 -6.196465 3.309135 8342706
6.121455 -5.446425 0.237062 8342706
5.481081 -5.716564 4.400129 8342706
6.175879 -6.347424 1.647753 8342706
6.416610 -5.590705 1.864114 8342706
5.857868 -6.123020 0.911332 8342706
6.343261 -5.608473 3.685265 8342706
5.627328 -6.139178 3.766827 8342706
6.502284 -5.900001 1.169465 8342706
5.711987 -6.002029 2.442154 8342706
6.256439 -6.339459 2.943282 8342706
5.716858 -6.358693 4.091002 8342706
6.054465 -6.276334 3.915875 8342706
6.390360 -5.567626 4.918569 8342706
6.530211 -6.260754 4.664758 8342706
6.033698 -5.929469 3.877067 8342706
6.171661 -6.382027 4.339031 8342706
5.732598 -6.191491 1.998172 8342706
6.431178 -5.875094 2.111624 8342706
6.449162 -5.966279 2.207886 8342706
5.876507 -5.455034 1.056401 8342706
6.480474 -5.806503 0.291582 8342706
5.862670 -5.474601 1.403101 8342706
6.230656 -5.690065 4.837421 8342706
5.976379 -5.638779 1.251208 8342706
6.489709 -5.817272 2.247601 8342706
5.774124 -6.229183 3.679682 8342706
6.267272 -6.187757 1.527351 8342706
5.965899 -6.415769 3.949509 8342706
6.021281 -5.820398 2.287976 8342706
6.149329 -6.057553 4.108305 8342706
6.167273 -6.417212 4.348253 8342706
6.291856 -5.598117 4.751642 8342706
6.344905 -5.814015 3.599165 8342706
5.976204 -5.800488 3.165116 8342706
6.545671 -5.876803 3.069413 8342706
6.274094 -5.866317 2.851524 8342706
6.301493 -6.331359 1.994726 8342706
5.761046 -5.687222 3.605275 8342706
5.717272 -5.714814 3.070721 8342706
6.267691 -6.000185 1.468234 8342706
6.381460 -6.243942 1.104413 8342706
5.843572 -5.596920 2.978583 8342706
5.509537 -5.898439 0.110348 8342706
5.663035 -5.650682 0.434913 8342706
5.620726 -5.569297 2.865444 8342706
5.981205 -5.516944 2.106592 8342706
5.522198 -6.100199 1.879066 8342706
6.125066 -5.484324 3.471126 8342706
5.444611 -5.903085 4.580903 8342706
5.463305 -5.793868 2.925513 8342706
6.202559 -6.311147 1.848173 8342706
5.555097 -6.376885 0.865574 8342706
5.898614 -6.504224 1.611948 8342706
6.108955 -6.342306 3.427616 8342706
5.958192 -6.502642 4.608172 8342706
6.360043 -6.165278 0.790905 8342706
6.504490 -6.358787 1.430080 8342706
6.553322 -5.912111 3.387122 8342706
5.581962 -6.079275 1.107186 8342706
6.276055 -6.287385 1.949929 8342706
6.170155 -6.298177 2.922381 8342706
6.084402 -6.492881 4.971155 8342706
5.985628 -6.463332 0.617815 8342706
6.299170 -5.767453 1.749872 8342706
6.381406 -5.916411 1.301062 8342706
6.227896 -6.388745 0.496451 8342706
6.309997 -6.120567 2.893266 8342706
6.491395 -6.147863 0.067807 8342706
6.078289 -5.652854 1.221253 8342706
6.503246 -6.256116 4.282490 8342706
6.445601 -5.632741 4.831102 8342706
6.491157 -6.154161 3.619253 8342706
6.316899 -6.331732 1.589629 8342706
5.746034 -6.287148 0.427467 8342706
6.158086 -5.568200 2.700986 8342706
6.235405 -6.032938 3.834483 8342706
6.328510 -5.867080 0.390143 8342706
6.185115 -5.861666 3.951949 8342706
5.787201 -6.408894 3.290920 8342706
6.397122 -6.205556 -0.011679 8342706
6.355387 -5.765595 1.363443 8342706
6.287867 -5.997420 4.215139 8342706
6.338776 -6.083069 2.035277 8342706
5.765290 -5.587569 4.402608 8342706
5.832895 -6.021059 0.864677 8342706
6.046604 -5.743276 4.172214 8342706
5.500947 -5.708714 3.987811 8342706
6.442516 -6.139483 1.752393 8342706
6.295681 -6.459633 1.711141 8342706
6.281048 -6.226021 4.615488 8342706
5.523782 -6.326816 1.222577 8342706
6.003660 -6.229704 3.462306 8342706
6.224818 -5.556825 3.784518 8342706
6.027781 -6.578298 3.681154 8342706
5.929203 -6.013791 1.738400 8342706
5.799705 -5.642707 2.742939 8342706
6.175528 -6.307201 0.932664 8342706
6.181919 -5.988019 3.907012 8342706
6.126012 -6.307408 1.987510 8342706
5.761005 -6.134349 1.029149 8342706
6.582317 -6.010699 1.728953 8342706
5.735872 -6.127702 4.314978 8342706
6.453907 -5.754107 1.001496 8342706
5.530790 -5.866955 0.758632 8342706
6.296961 -6.018744 4.997422 8342706
6.174963 -6.559309 4.109963 8342706
6.093531 -6.406024 4.717141 8342706
6.020885 -5.827439 1.404193 8342706
6.517133 -6.155825 4.984146 8342706
6.141988 -6.072244 1.660479 8342706
5.832047 -5.975210 2.098945 8342706
5.746232 -5.958594 3.038698 8342706
6.516636 -6.240549 4.099809 8342706
5.504231 -5.877877 3.591367 8342706
6.172162 -6.086532 0.990856 8342706
5.868015 -6.250932 1.908686 8342706
5.947822 -5.643488 2.411975 8342706
6.314812 -6.274296 0.089167 8342706
5.812504 -5.573784 4.549538 8342706
5.984832 -5.478878 4.044820 8342706
5.765488 -5.451691 3.567316 8342706
6.408453 -6.351629 1.547624 8342706
5.500621 -6.013794 4.739282 8342706
6.046772 -6.522699 0.127006 8342706
6.531520 -5.945488 1.489492 8342706
6.354797 -5.556776 3.370129 8342706
5.775873 -5.895908 0.836400 8342706
6.024421 -6.002812 0.890054 8342706
5.619167 -5.912413 2.216076 8342706
5.700552 -5.634326 2.282261 8342706
5.778301 -6.104941 3.529476 8342706
6.320355 -5.514717 1.118716 8342706
5.641994 -5.774338 4.820346 8342706
5.878006 -5.791073 0.074902 8342706
5.641790 -6.478896 2.441486 8342706
5.898207 -6.474603 3.643579 8342706
6.029412 -6.592228 0.576841 8342706
6.054112 -5.710180 1.717603 8342706
6.101193 -5.918151 1.780147 8342706
6.157088 -5.760152 4.145156 8342706
5.488754 -6.266601 4.943460 8342706
6.551343 -5.844644 2.149918 8342706
6.229340 -6.464302 3.902650 8342706
6.220855 -5.703779 2.523324 8342706
6.238541 -6.374984 2.402548 8342706
6.059862 -5.631845 4.492252 8342706
5.632973 -6.310571 3.462054 8342706
5.974486 -6.438368 2.705891 8342706
6.579512 -6.094736 0.445878 8342706
5.717919 -5.666049 4.808611 8342706
6.302784 -5.770503 0.293682 8342706
5.958139 -5.748577 4.705927 8342706
6.070270 -5.557830 2.426683 8342706
6.364022 -5.936362 1.855550 8342706
5.843166 -6.334971 3.432068 8342706
6.088920 -5.700546 4.239037 8342706
6.462461 -5.856248 0.478318 8342706
6.385668 -5.774799 4.615673 8342706
6.237906 -6.051793 2.754944 8342706
6.326510 -6.249043 0.691758 8342706
5.429706 -5.998990 2.415666 8342706
5.680467 -5.938650 4.319929 8342706
6.277018 -5.908657 4.807066 8342706
6.303653 -5.570989 1.391098 8342706
5.815098 -6.259014 4.056519 8342706
6.442294 -5.692692 4.603661 8342706
5.864202 -5.511327 4.354130 8342706
5.662167 -5.858597 0.486506 8342706
6.407273 -5.811075 3.493121 8342706
6.368808 -5.761781 0.652340 8342706
5.686546 -6.105687 0.748389 8342706
