# .PCD v0.7 - Point Cloud Data file format
VERSION 0.7
FIELDS x y z rgb
SIZE 4 4 4 4
TYPE F F F U
COUNT 1 1 1 1
WIDTH 1287
HEIGHT 1
VIEWPOINT 0 0 0 1 0 0 0
POINTS 1287
DATA ascii
-10.444283 1.157502 1.622765 15014169
-10.559352 1.669920 0.617422 15014169
-10.872106 1.341134 0.617820 15014169
-10.315090 1.209439 1.345804 15014169
-10.631560 1.197060 1.363410 15014169
-10.872699 1.702965 1.633548 15014169
-10.271284 1.353320 0.341702 15014169
-10.235071 1.304696 1.294396 15014169
-10.655759 1.080634 1.491913 15014169
-10.456963 1.594790 1.088326 15014169
-10.290404 1.721587 0.324247 15014169
-10.845215 1.223077 0.484905 15014169
-10.425095 1.333132 1.537109 15014169
-10.773909 1.373887 0.339563 15014169
-10.425379 1.374681 0.468738 15014169
-10.287003 1.690287 0.399145 15014169
-10.886690 1.377370 1.144475 15014169
-10.666339 1.545658 0.584396 15014169
-10.552969 1.454462 0.911259 15014169
-10.811634 1.216499 0.490419 15014169
-10.692533 1.242778 1.045742 15014169
-10.506744 1.361149 0.758469 15014169
-10.529428 1.667222 1.494077 15014169
-10.825741 1.275787 0.896069 15014169
-10.437907 1.572119 0.927470 15014169
-10.619722 1.630059 1.049028 15014169
-10.263940 1.109217 0.791823 15014169
-10.242531 1.559411 1.564670 15014169
-10.737200 1.561169 0.583856 15014169
-10.544065 1.217727 0.914121 15014169
-10.353968 1.292662 1.170142 15014169
-10.593834 1.703201 1.207667 15014169
-10.450825 1.333047 1.037105 15014169
-10.889359 1.148466 1.613189 15014169
-10.845237 1.709364 1.308830 15014169
-10.495963 1.591953 0.503684 15014169
-10.357100 1.578398 1.066606 15014169
-10.569475 1.390220 0.935127 15014169
-10.342858 1.250641 0.373244 15014169
-10.241391 1.374379 1.368038 15014169
-10.433839 1.441561 0.490547 15014169
-10.737410 1.373441 1.068379 15014169
-10.337248 1.280914 0.843840 15014169
-10.294763 1.635014 0.437391 15014169
-10.799733 1.519195 1.104130 15014169
-10.219509 1.587374 1.422053 15014169
-10.753824 1.426115 1.182600 15014169
-10.904895 1.423644 0.940587 15014169
-10.689363 1.238983 1.577628 15014169
-10.888012 1.289345 0.713247 15014169
-10.238097 1.072088 0.931118 15014169
-10.662922 1.545664 1.262104 15014169
-10.421402 1.696271 1.627030 15014169
-10.861700 1.159972 0.366938 15014169
-10.271179 1.742950 0.812481 15014169
-10.861584 1.161417 1.536846 15014169
-10.583804 1.207346 1.192179 15014169
-10.359986 1.376792 0.354518 15014169
-10.627449 1.675825 0.445771 15014169
-10.812043 1.617512 0.500012 15014169
-10.812318 1.234158 0.724488 15014169
-10.672902 1.612280 0.642978 15014169
-10.843860 1.145294 0.805567 15014169
-10.739850 1.651320 1.138401 15014169
-10.696435 1.757394 0.898265 15014169
-10.281776 1.276038 0.738761 15014169
-10.230858 1.136043 1.528791 15014169
-10.205441 1.305590 1.594975 15014169
-10.285723 1.770643 0.460041 15014169
-10.504591 1.597288 1.316222 15014169
-10.348741 1.085407 1.630482 15014169
-10.800084 1.080894 1.675273 15014169
-10.771130 1.634510 0.322790 15014169
-10.900214 1.109724 1.185111 15014169
-10.747447 1.349796 1.656194 15014169
-10.771208 1.237214 0.977918 15014169
-10.733994 1.434442 0.919044 15014169
-10.669978 1.076193 1.353359 15014169
-10.282380 1.317185 0.945547 15014169
-10.883371 1.583942 0.636880 15014169
-10.825725 1.151948 0.590941 15014169
-10.406909 1.360117 1.280287 15014169
-10.810313 1.219036 1.460093 15014169
-10.902720 1.220971 1.473505 15014169
-10.431706 1.250799 1.454306 15014169
-10.782687 1.457255 1.114595 15014169
-10.226009 1.541170 0.777761 15014169
-10.544020 1.230936 1.678473 15014169
-10.631669 1.125881 1.655992 15014169
-10.283734 1.430508 0.330889 15014169
-10.335938 1.695503 1.180453 15014169
-10.703128 1.699216 0.332860 15014169
-10.692711 1.325454 1.492145 15014169
-10.913548 1.523307 1.083781 15014169
-10.658190 1.126992 0.511271 15014169
-10.457050 1.097776 0.408917 15014169
-10.588066 1.437703 0.327479 15014169
-10.525444 1.125377 0.469595 15014169
-10.417274 1.279197 1.399184 15014169
12.708094 -0.369605 0.463283 1645029
12.726124 -0.081607 1.215392 1645029
12.211761 -0.607269 1.054830 1645029
12.440397 -0.329252 1.002727 1645029
12.533184 -0.287789 1.194335 1645029
12.456163 -0.291213 1.465960 1645029
12.478884 -0.265878 0.618308 1645029
12.342755 -0.148000 1.271333 1645029
12.580167 -0.296911 0.964103 1645029
12.563181 -0.736643 0.623615 1645029
13.046724 -0.485440 1.085968 1645029
12.862302 -0.721669 1.285727 1645029
12.358224 -0.453544 0.627099 1645029
12.999786 -0.613997 1.239053 1645029
12.392503 -0.467068 0.827395 1645029
12.209347 -0.153666 1.143738 1645029
12.116903 -0.709760 0.962923 1645029
12.733903 -0.058154 1.134969 1645029
12.816884 -0.235431 1.267114 1645029
12.563313 -0.554464 0.896791 1645029
12.808620 -0.637836 1.168085 1645029
12.395439 -0.655966 1.339054 1645029
12.729125 -0.139842 1.258898 1645029
12.549149 -0.792803 0.694005 1645029
12.655908 -0.874458 0.766440 1645029
12.420138 -0.186688 1.136342 1645029
12.664661 -0.700584 0.856878 1645029
12.505201 -0.410746 0.933240 1645029
12.891694 -0.422486 1.026633 1645029
12.838656 -0.533768 1.109154 1645029
12.385350 -0.616122 0.867136 1645029
12.238695 -0.408776 0.656765 1645029
12.368944 -0.406103 1.332274 1645029
12.394257 -0.425721 0.897575 1645029
12.947116 -0.718195 0.931049 1645029
12.530899 -0.436164 1.053486 1645029
12.604636 -0.036160 1.076860 1645029
12.095254 -0.738498 1.076201 1645029
12.614495 -0.387248 1.174880 1645029
12.341434 -0.777956 1.085362 1645029
12.382349 -0.597698 0.510214 1645029
12.178059 -0.485141 0.853851 1645029
12.796360 -0.621751 1.128813 1645029
12.563375 -0.523169 1.199248 1645029
12.418209 -0.289337 0.701328 1645029
12.695496 -0.326119 0.647489 1645029
12.689328 -0.065042 0.995918 1645029
12.661040 -0.434889 0.861960 1645029
12.474148 -0.454788 0.676295 1645029
12.872826 -0.757883 0.802925 1645029
12.459462 -0.904985 0.976420 1645029
12.940838 -0.509644 0.963360 1645029
12.503746 -0.626108 0.821112 1645029
12.394437 -0.768018 1.355857 1645029
12.477804 -0.309115 0.521518 1645029
13.008107 -0.482047 1.266043 1645029
12.257619 -0.147968 0.731241 1645029
12.263322 -0.248495 0.670792 1645029
12.676428 -0.900456 0.903226 1645029
12.287598 -0.602031 0.884075 1645029
12.581718 -0.891987 0.925086 1645029
12.699802 -0.533606 0.969524 1645029
12.277563 -0.580960 1.013888 1645029
12.445020 -0.221389 0.903438 1645029
12.456761 0.048972 0.961555 1645029
12.338187 -0.550814 1.408427 1645029
12.438869 -0.607277 1.149502 1645029
12.670688 -0.306684 1.258777 1645029
12.931489 -0.351499 1.137651 1645029
13.021630 -0.369633 1.012307 1645029
12.265336 -0.797580 1.222557 1645029
12.825308 -0.122571 1.048177 1645029
12.949235 -0.478855 1.035082 1645029
12.303235 -0.263238 0.562015 1645029
12.463131 -0.169592 1.244037 1645029
12.583562 -0.049462 1.068141 1645029
12.755760 -0.280377 0.858339 1645029
12.573177 -0.259490 0.552909 1645029
12.888695 -0.459747 1.014237 1645029
12.899901 -0.221369 1.227041 1645029
-4.366537 7.172955 0.461975 10053171
-5.950459 7.089129 0.427461 10053171
-4.431204 6.963529 2.368335 10053171
-5.177448 7.170010 2.878070 10053171
-3.848472 6.997925 0.294876 10053171
-6.680446 6.766905 2.480046 10053171
-4.098221 7.144527 2.571270 10053171
-3.172010 6.975753 1.324433 10053171
-4.408795 6.993510 0.500247 10053171
-3.506704 7.190567 2.575516 10053171
-3.682946 7.199728 2.501592 10053171
-3.278411 6.958016 0.842421 10053171
-4.004381 7.055709 0.148612 10053171
-4.967360 6.805049 1.158280 10053171
-6.822769 6.995526 0.179397 10053171
-4.607206 7.114429 2.203937 10053171
-6.410522 6.974538 1.215353 10053171
-4.644676 6.939845 0.457980 10053171
-6.903390 6.767812 2.848097 10053171
-6.309708 7.206262 2.885525 10053171
-6.082621 7.070689 0.760313 10053171
-6.146588 6.812754 2.806418 10053171
-3.728160 6.865738 2.207352 10053171
-4.813913 7.045785 2.537366 10053171
-6.597573 6.996148 2.656923 10053171
-6.048476 7.136105 1.133801 10053171
-3.400097 7.151582 1.460732 10053171
-4.624151 6.959591 1.339390 10053171
-5.991572 7.200776 2.390598 10053171
-6.671212 7.036453 2.946061 10053171
-6.863915 7.076692 1.112140 10053171
-5.963288 6.753797 0.148115 10053171
-6.137674 7.023014 1.954418 10053171
-3.892655 6.959701 0.586299 10053171
-4.705882 7.153894 0.113682 10053171
-5.878164 7.164268 2.066830 10053171
-4.840333 6.952170 1.409140 10053171
-5.500472 7.244414 2.749070 10053171
-5.056332 6.764157 1.302422 10053171
-6.157309 6.984124 2.543085 10053171
-4.471193 6.924511 2.136524 10053171
-4.109586 7.103552 1.120439 10053171
-3.864268 6.757781 0.899568 10053171
-4.735235 6.933048 2.244978 10053171
-5.557706 6.974382 0.649055 10053171
-3.829900 7.073563 1.156379 10053171
-3.502765 7.069631 2.122317 10053171
-4.294246 7.179413 0.687645 10053171
-4.131446 7.249520 2.544953 10053171
-5.306041 6.960010 1.588202 10053171
-6.748645 7.067749 2.624348 10053171
-5.668158 6.969040 1.204780 10053171
-5.753242 6.850050 2.783664 10053171
-3.527740 6.852737 2.702471 10053171
-3.070632 6.892799 0.614930 10053171
-5.025889 7.035259 2.152405 10053171
-3.500322 7.043583 0.802516 10053171
-5.453207 7.042210 1.623309 10053171
-3.365466 7.081285 2.181734 10053171
-6.434517 7.191129 0.027072 10053171
-6.371887 6.755260 2.592991 10053171
-4.389623 6.939550 2.923544 10053171
-6.293220 6.933486 0.873058 10053171
-3.755135 7.172300 1.048271 10053171
-3.563248 7.062450 2.692891 10053171
-4.175021 6.917043 2.145693 10053171
-6.354345 6.806934 1.057427 10053171
-3.777214 7.025005 1.937039 10053171
-3.886065 7.064514 1.240202 10053171
-5.424126 7.206801 0.708343 10053171
-5.929787 6.935856 2.513139 10053171
-3.283646 6.926369 1.496133 10053171
-6.819332 6.743471 2.295911 10053171
-3.706237 6.984589 1.010597 10053171
-6.501544 7.198653 1.587691 10053171
-5.298986 6.964538 0.830627 10053171
-6.478505 6.873377 0.447093 10053171
-4.536542 7.083927 2.271861 10053171
-6.709019 7.163846 1.122666 10053171
-4.033333 6.895246 0.244490 10053171
-5.773003 7.215543 0.703675 10053171
-6.953885 7.069746 2.922201 10053171
-3.125821 7.076412 2.175895 10053171
-4.119195 7.096729 0.041449 10053171
-4.458716 7.164636 1.336071 10053171
-6.626926 7.241015 0.430169 10053171
-5.848681 6.842009 0.159051 10053171
-3.250362 6.886142 0.153522 10053171
-6.513368 6.911932 1.338328 10053171
-5.973662 6.853903 -0.008546 10053171
-5.448061 7.043155 1.777337 10053171
-6.389403 6.994694 2.973802 10053171
-6.067795 6.827829 2.948728 10053171
-4.254832 7.202431 1.405487 10053171
-4.285267 7.124136 2.196267 10053171
-3.905506 7.184467 2.384966 10053171
-5.675910 7.209354 0.380156 10053171
-5.352312 6.921332 0.459127 10053171
-3.337122 6.964732 0.981937 10053171
-6.862247 6.970423 0.253900 10053171
-4.498532 6.805298 1.759369 10053171
-6.226729 7.226874 1.533069 10053171
-3.846518 7.199910 0.862268 10053171
-3.796088 6.956125 2.079546 10053171
-4.828956 7.146968 1.241604 10053171
-5.635934 7.245513 1.586287 10053171
-4.228916 6.962977 0.417791 10053171
-5.522626 7.217742 0.315182 10053171
-3.267951 7.078301 0.149005 10053171
-5.117949 6.797753 1.804695 10053171
-5.619716 7.053324 2.656821 10053171
-5.440441 6.887926 2.364620 10053171
-4.466774 6.917499 0.691353 10053171
-4.776893 6.931637 2.324162 10053171
-6.475703 6.946931 1.175713 10053171
-5.739436 6.786910 1.385202 10053171
-4.574712 6.934470 1.775520 10053171
-4.071654 7.067154 2.556017 10053171
-3.310226 7.008740 0.187947 10053171
-4.635677 6.739613 1.414994 10053171
-3.819856 7.210156 0.842344 10053171
-5.161925 6.865334 0.261034 10053171
-6.446670 6.758382 0.310840 10053171
-5.583097 7.027655 0.800592 10053171
-3.139381 7.177020 1.537179 10053171
-5.373624 7.077725 2.712069 10053171
-5.328767 6.931098 2.696959 10053171
-4.390095 6.878517 0.775441 10053171
-6.981333 7.108318 2.662008 10053171
-4.283559 7.054195 2.888960 10053171
-4.864890 6.959238 0.232614 10053171
-6.471368 6.898151 2.255070 10053171
-5.367572 6.884831 1.720414 10053171
-5.250495 7.059932 1.625317 10053171
-4.639309 6.841753 0.828100 10053171
-3.273387 6.827631 0.434873 10053171
-4.014842 6.970568 1.215013 10053171
-3.738071 7.242267 0.778398 10053171
-5.133846 7.047715 2.761661 10053171
-4.748457 7.181227 1.109929 10053171
-5.635692 6.776935 2.559077 10053171
-5.411709 7.151721 2.290955 10053171
-6.046269 6.998055 2.969121 10053171
-3.712697 6.944357 1.067278 10053171
-4.236577 7.097294 2.719673 10053171
-5.925832 7.029366 0.659771 10053171
-4.947859 6.805123 2.300821 10053171
-3.932199 6.826359 1.360530 10053171
-6.016689 7.214861 1.736324 10053171
-3.619231 7.193529 0.388332 10053171
-5.885560 6.923966 2.266006 10053171
-6.559322 6.876141 1.760074 10053171
-4.781311 6.784389 2.787953 10053171
-6.489035 7.146681 1.231740 10053171
-3.564898 7.005563 1.084910 10053171
-6.260846 6.842136 1.525833 10053171
-3.019040 6.868997 1.549109 10053171
-6.405651 7.229438 0.938827 10053171
-4.778936 6.976409 1.236016 10053171
-6.420153 7.095034 0.928256 10053171
-6.894066 6.893510 2.258295 10053171
-3.722470 7.214515 1.818089 10053171
-4.239734 7.179347 0.814677 10053171
-6.321891 6.814690 2.933239 10053171
-3.047101 6.764576 2.260870 10053171
-6.426495 6.926826 1.489774 10053171
-6.300464 6.996669 1.008157 10053171
-5.152904 6.794178 1.208991 10053171
-3.962429 7.167385 0.917993 10053171
-6.436276 7.071736 0.862116 10053171
-6.235218 6.754684 2.100207 10053171
-3.516321 7.023735 0.949117 10053171
-5.315151 6.973706 2.327502 10053171
-4.492415 6.779827 0.615395 10053171
-5.552142 7.203835 0.160684 10053171
-3.607955 6.918836 1.835542 10053171
-6.998204 7.175119 2.090004 10053171
-6.174652 7.176068 1.959890 10053171
-4.701108 6.910844 0.457051 10053171
-5.551826 6.951181 1.737172 10053171
-6.754869 6.781010 1.277100 10053171
-5.558161 6.820039 1.491529 10053171
-6.419188 6.890651 2.013709 10053171
-5.976767 6.777351 1.060655 10053171
-5.783439 6.768282 2.058882 10053171
-5.539970 6.800043 1.580648 10053171
-3.381436 7.079151 2.623691 10053171
-5.046972 7.024935 0.366631 10053171
-4.179130 7.203293 0.566463 10053171
-5.062970 7.133888 0.838855 10053171
-6.380045 6.925502 2.848095 10053171
-6.873389 6.826427 2.535758 10053171
-6.721388 6.735722 0.420776 10053171
-3.248137 7.088924 1.596223 10053171
-6.023886 6.759675 2.612156 10053171
-4.072261 6.929146 1.564006 10053171
-6.722177 7.232648 0.611799 10053171
-6.895756 6.968621 2.978017 10053171
-4.490148 6.942769 1.935578 10053171
-4.901176 7.077300 2.548017 10053171
-3.982365 7.108756 0.780091 10053171
-4.123369 7.231092 0.509615 10053171
-3.926397 6.779472 1.136786 10053171
-3.469000 7.205345 2.467197 10053171
-3.383024 7.157828 0.191931 10053171
-3.153406 6.782530 0.457493 10053171
-4.779671 7.209071 1.084534 10053171
-6.907039 7.102523 0.586757 10053171
-6.263561 6.770544 1.872269 10053171
-6.640265 6.944458 0.613520 10053171
-6.363044 7.176503 1.723377 10053171
-6.403306 6.804514 1.117213 10053171
-4.982966 6.830313 0.280088 10053171
-5.309662 7.020882 1.138553 10053171
-5.995719 7.067314 1.263834 10053171
-3.178066 7.024607 2.072025 10053171
-4.507294 6.912159 0.148526 10053171
-6.061781 6.832464 0.162136 10053171
-3.630033 7.141006 0.316378 10053171
-3.335640 7.197163 2.595851 10053171
-4.011744 6.896647 2.676531 10053171
-4.139925 6.838199 2.989290 10053171
-5.542003 7.099859 1.915530 10053171
-4.330316 7.161904 0.746424 10053171
-4.252069 6.951601 0.586629 10053171
-3.622686 7.131638 0.597788 10053171
-3.736170 6.931637 0.909293 10053171
-4.648083 7.020280 0.629406 10053171
-4.176019 6.938932 0.218764 10053171
-6.547758 6.797796 2.370499 10053171
-4.729447 7.156283 0.495452 10053171
-5.165011 6.982577 1.463473 10053171
-6.460536 7.223866 1.315376 10053171
-6.985313 7.021452 2.099952 10053171
-6.591722 7.241086 1.473176 10053171
-5.048499 7.144136 2.873021 10053171
-4.708455 6.866222 0.722573 10053171
-4.290146 6.917408 1.321255 10053171
-5.436602 6.795641 2.034189 10053171
-4.019335 6.782312 2.795551 10053171
-5.966808 7.015161 1.401430 10053171
-6.743635 6.754989 0.259571 10053171
-3.290935 7.143616 2.698272 10053171
-5.100300 7.058457 1.728745 10053171
-5.869633 7.181879 0.500136 10053171
-6.229630 6.886871 1.077371 10053171
-6.953311 7.102371 1.620502 10053171
-5.753156 7.193535 2.554744 10053171
-6.226671 6.952114 2.040081 10053171
-3.794353 6.961237 1.362880 10053171
-5.715958 7.173820 0.876595 10053171
-3.116676 6.799543 0.972231 10053171
-3.914284 6.849428 1.109532 10053171
-5.332532 7.187729 1.652337 10053171
-3.509009 6.769197 0.855229 10053171
-4.694171 7.233479 1.569944 10053171
-3.663559 7.004551 2.203578 10053171
-4.580740 7.134697 2.666594 10053171
-4.904122 7.100567 2.094893 10053171
-6.912432 6.793350 2.377914 10053171
-3.417810 7.119793 0.862744 10053171
-5.528953 7.068717 2.929192 10053171
-4.817439 6.918531 0.686806 10053171
-4.592042 7.005268 2.165610 10053171
-6.934095 7.035315 2.205921 10053171
-3.660412 6.875974 1.235316 10053171
-4.320361 6.931711 0.823940 10053171
-6.435298 6.785868 2.061193 10053171
-6.028559 6.800045 2.069680 10053171
-4.846291 6.764866 0.955502 10053171
-3.713850 6.873038 0.012551 10053171
-4.870232 7.135626 2.472971 10053171
-3.738479 7.009615 2.464288 10053171
-5.179891 7.090331 1.525312 10053171
-6.237734 6.874914 1.582029 10053171
-6.695275 7.178176 2.923546 10053171
-3.923229 6.938247 0.964352 10053171
-6.248047 7.034807 0.936649 10053171
-4.901255 7.159313 1.527618 10053171
-3.286871 7.215713 0.932040 10053171
-6.368762 7.078036 1.836534 10053171
-5.679153 6.805556 1.314946 10053171
-3.574735 6.928194 0.420275 10053171
-5.636175 6.791429 2.105368 10053171
-4.300819 7.257374 0.440858 10053171
-3.192911 6.998770 1.425472 10053171
-3.103117 6.956249 1.829706 10053171
-4.069731 6.750478 0.912297 10053171
-4.276303 7.197838 1.325632 10053171
-3.090204 6.866213 0.313262 10053171
-4.010782 7.124109 1.431515 10053171
-5.448627 6.917808 1.073177 10053171
-3.999778 6.962097 0.341794 10053171
-3.785797 6.945005 0.161774 10053171
-5.726639 7.233949 1.860840 10053171
-5.683098 7.203163 1.789544 10053171
-6.055943 6.749649 2.373503 10053171
-3.601586 6.971122 0.807724 10053171
-5.215410 7.126469 1.199575 10053171
-5.119500 6.841007 2.457334 10053171
-4.293209 7.196036 0.633915 10053171
-6.971573 7.195936 0.065016 10053171
-4.014566 6.756565 1.111294 10053171
-4.063353 6.811646 1.843559 10053171
-5.405698 6.863904 2.743032 10053171
-3.262611 7.057978 1.522136 10053171
-3.301613 7.212559 -0.005550 10053171
-3.239256 6.841813 1.483350 10053171
-4.635393 6.962113 1.551295 10053171
-4.967546 6.854959 0.133909 10053171
-6.786878 6.838242 1.565381 10053171
-5.544499 6.920259 0.138531 10053171
-6.915789 6.884809 1.416792 10053171
-4.192784 6.739987 1.310710 10053171
-6.386146 6.917419 0.247495 10053171
-3.371069 6.766987 2.841716 10053171
-4.109628 6.808339 1.414366 10053171
-4.737261 6.830162 1.932800 10053171
-6.157174 6.781670 0.141574 10053171
-5.190954 7.135146 1.856014 10053171
-6.253968 7.107353 2.251775 10053171
-5.137562 7.068927 1.397747 10053171
-6.469613 6.941753 1.316890 10053171
-5.460938 7.059505 0.274264 10053171
-4.943669 7.183582 1.785814 10053171
-3.849615 6.988917 1.634591 10053171
-5.413264 7.095484 2.716266 10053171
-5.694370 7.038459 2.981491 10053171
-6.834688 7.138365 0.774742 10053171
-4.927045 7.169184 1.111929 10053171
-6.987640 6.945872 0.274738 10053171
-6.741667 6.961360 1.032748 10053171
-4.307956 6.811425 1.929972 10053171
-3.982798 7.170401 0.071672 10053171
-3.113012 7.053619 1.319802 10053171
-3.860982 7.044507 0.412609 10053171
-3.098583 6.759124 1.700803 10053171
-3.469346 6.876208 0.313895 10053171
-6.630904 7.085793 1.223751 10053171
-4.100016 7.116571 0.759059 10053171
-3.787974 6.986641 2.065840 10053171
-3.787245 7.019576 1.230125 10053171
-4.632377 7.161108 2.664375 10053171
-4.603698 7.226933 2.330772 10053171
-6.236412 7.120121 0.868527 10053171
-3.077398 6.917187 0.031821 10053171
-4.386108 6.745200 0.506320 10053171
-5.178099 7.022023 2.849212 10053171
-5.351800 7.000493 2.481589 10053171
-3.660755 7.211769 1.052821 10053171
-4.833523 6.770027 0.071713 10053171
-4.753692 7.107146 0.895599 10053171
-4.083732 6.858317 1.516260 10053171
-3.543142 6.960535 0.979993 10053171
-6.959416 7.123772 0.903090 10053171
-3.904426 6.935080 1.368957 10053171
-3.583961 6.937284 2.713785 10053171
-5.482002 6.821589 2.584239 10053171
-5.392292 6.777829 2.409084 10053171
-3.027022 6.793576 2.930928 10053171
-6.151293 6.832457 2.053264 10053171
-4.435256 7.153066 0.778743 10053171
-4.515170 7.023794 0.699651 10053171
-3.178715 7.225319 2.718620 10053171
-5.883252 7.197102 2.534124 10053171
-4.225410 6.905243 2.137033 10053171
-3.186271 6.920445 0.495726 10053171
-5.015682 6.836510 1.855232 10053171
-3.730852 6.968731 0.102795 10053171
-4.321277 7.198194 0.532740 10053171
-6.196795 6.889674 1.549972 10053171
-3.863406 7.200530 0.576340 10053171
-5.425475 6.785680 1.458989 10053171
-3.212883 6.810561 2.172476 10053171
-3.447240 6.953182 0.321530 10053171
-3.951559 7.254834 2.077580 10053171
-6.179646 7.200150 0.265719 10053171
-6.556686 6.884244 0.547455 10053171
-4.631172 6.879633 1.247981 10053171
-5.118299 6.782240 0.019415 10053171
-5.459448 6.800472 0.512255 10053171
-3.760844 6.769888 0.395005 10053171
-5.342575 7.203209 0.683096 10053171
-3.177717 7.193913 1.384633 10053171
-4.937965 6.767282 2.550062 10053171
-6.745937 7.137920 1.616799 10053171
-4.819135 6.787309 1.163094 10053171
-4.079152 7.041774 1.632834 10053171
-4.076358 7.023034 1.596879 10053171
-3.506835 6.930252 2.918124 10053171
-4.081847 7.168783 2.884246 10053171
-6.626446 6.924121 1.753564 10053171
-5.185644 7.052246 1.681995 10053171
-5.108328 7.143446 2.143875 10053171
-4.518426 6.847445 0.033333 10053171
-5.345731 6.744093 2.594370 10053171
-5.180504 6.750976 1.375609 10053171
-4.088820 6.897920 0.696597 10053171
-4.381474 7.056168 1.061500 10053171
-5.227012 7.120989 0.713751 10053171
-3.752733 6.783449 1.901583 10053171
-3.665263 7.255749 2.737779 10053171
-3.350347 7.155641 0.992392 10053171
-4.069963 7.200061 2.643213 10053171
-3.109186 7.171966 2.869223 10053171
-3.574228 7.044440 1.659673 10053171
-5.336149 7.120340 0.082330 10053171
-3.935912 6.932610 2.292250 10053171
-6.405934 7.057387 2.546269 10053171
-3.124036 7.100607 2.799581 10053171
-4.853982 7.173172 0.134786 10053171
-5.916413 6.880152 0.144559 10053171
-4.264479 7.040236 0.578798 10053171
-4.617465 7.144111 0.005832 10053171
-6.624623 7.207532 1.376824 10053171
-6.071624 6.953940 0.085077 10053171
-5.827127 6.754065 2.886714 10053171
-4.489349 7.032531 2.834896 10053171
-5.596778 7.189199 2.533440 10053171
-3.102705 6.954362 0.617791 10053171
-5.763368 6.941347 0.593297 10053171
-4.068676 7.093234 1.532559 10053171
-4.688200 6.763038 1.643999 10053171
-4.981175 7.140010 1.216058 10053171
-4.430662 6.960355 0.502854 10053171
-5.304866 7.248451 0.311499 10053171
-3.862783 6.959657 0.860306 10053171
-4.248372 6.931264 2.671170 10053171
-5.249132 7.112475 1.699144 10053171
-3.017192 6.977635 0.257424 10053171
-5.444703 6.862933 1.053622 10053171
-6.587356 7.065976 2.719062 10053171
-5.111556 6.810660 1.640980 10053171
-3.046351 6.926468 0.765362 10053171
-6.578368 6.968829 1.199968 10053171
-3.062371 6.994352 0.186955 10053171
-6.254339 7.219656 1.877250 10053171
-3.699585 6.919702 1.354786 10053171
-4.168557 7.121114 0.192774 10053171
-3.847778 7.156140 1.797856 10053171
-4.163043 7.006916 1.339281 10053171
-3.094372 6.802825 0.741771 10053171
-5.604065 7.225302 0.138082 10053171
-5.692926 7.016118 2.808990 10053171
-4.784680 6.949777 1.794093 10053171
-5.946857 7.158470 2.052235 10053171
-3.323404 7.097952 0.984580 10053171
-6.491982 6.807962 0.718515 10053171
-6.578720 7.072601 1.928472 10053171
-3.743079 6.846647 0.018615 10053171
-4.618947 7.150206 2.033088 10053171
-5.601046 6.755185 2.642799 10053171
-3.988346 7.089170 0.433132 10053171
-3.914889 6.782786 1.647623 10053171
-5.379806 7.011145 0.795860 10053171
-4.843579 6.840480 1.765069 10053171
-5.754662 6.934045 1.083770 10053171
-6.644078 6.869482 0.159473 10053171
-4.543028 6.971374 1.693526 10053171
-3.717629 7.119440 2.818953 10053171
-5.707812 6.861463 0.090119 10053171
-5.662359 7.062325 0.373209 10053171
-4.232862 6.850382 0.853251 10053171
-5.879975 6.853482 2.083080 10053171
-4.911896 6.818283 2.909346 10053171
-3.168638 6.985870 2.028301 10053171
-3.644384 6.914074 1.066524 10053171
-4.786030 7.142681 2.854468 10053171
-4.519265 7.153148 1.476263 10053171
-3.451774 7.074803 1.084639 10053171
-3.151677 7.168610 0.512023 10053171
-5.409767 7.103183 0.823985 10053171
-6.658330 6.984918 2.581618 10053171
-3.296277 6.905460 2.374403 10053171
-5.844908 7.144853 2.044779 10053171
-4.690551 6.920669 1.468558 10053171
-4.282181 6.841680 2.115076 10053171
-3.007448 6.767799 2.469265 10053171
-3.033791 6.997604 1.079398 10053171
-4.378178 7.203398 0.311578 10053171
-5.482475 7.238199 2.289986 10053171
-5.608184 7.107217 1.122904 10053171
-3.897613 6.913840 1.861125 10053171
-4.659681 7.100763 2.912756 10053171
-4.737722 7.173961 2.687906 10053171
-6.281077 7.042783 1.585016 10053171
-3.116144 7.195940 0.311522 10053171
-4.513559 6.878129 2.814238 10053171
-3.041842 6.943364 1.108197 10053171
-4.447955 7.249084 2.839546 10053171
-5.012037 6.911637 2.694715 10053171
-3.215945 6.979630 0.500385 10053171
-5.982942 6.812118 0.782204 10053171
-4.678913 7.155958 0.309230 10053171
-3.016566 7.058603 0.573610 10053171
-5.432239 6.898055 1.090612 10053171
-3.908649 6.820772 0.635879 10053171
-6.059023 6.978424 2.735800 10053171
-3.314783 6.920979 0.562755 10053171
-5.719011 6.770113 2.847371 10053171
-4.211605 6.849164 0.623188 10053171
-6.600286 6.998797 2.951037 10053171
-6.909281 7.226428 2.517113 10053171
-6.884276 7.212068 0.745918 10053171
-5.275329 6.991342 2.450573 10053171
-5.215154 6.968369 1.267606 10053171
-3.176134 7.153989 1.911685 10053171
-6.376695 6.954854 1.710521 10053171
-4.099057 6.850917 0.097991 10053171
-3.507257 6.874236 0.018541 10053171
-6.097624 6.874827 1.886846 10053171
-3.113037 7.088235 0.781727 10053171
-3.563397 7.032393 2.741166 10053171
-4.257680 7.054613 2.649861 10053171
-3.458959 6.886721 2.402547 10053171
-5.126717 6.894982 2.870065 10053171
-4.445313 7.130416 1.060128 10053171
-6.599700 6.826507 2.027126 10053171
-3.832762 6.893030 2.287654 10053171
-3.581420 6.991556 1.051338 10053171
-4.280948 6.770403 0.870798 10053171
-3.872415 7.026717 0.999076 10053171
-5.342903 6.976263 2.058984 10053171
-3.246535 6.822593 0.517000 10053171
-3.414922 7.257565 0.641645 10053171
-6.372430 6.768612 1.240610 10053171
-5.804243 7.231680 1.595277 10053171
-3.809670 6.890557 0.796860 10053171
-6.557178 6.880398 1.589944 10053171
-4.373453 6.801013 0.971067 10053171
-5.658008 6.919397 0.058053 10053171
-4.400264 7.036224 1.198264 10053171
-4.177330 6.900109 2.123562 10053171
-3.270330 7.139842 1.296311 10053171
-3.741546 7.230010 2.658324 10053171
-5.903813 6.823257 0.060982 10053171
-5.685750 6.812972 1.564880 10053171
-4.953184 6.957611 2.476603 10053171
-6.097588 7.073540 1.118877 10053171
-6.777246 7.233539 2.106959 10053171
-5.470294 6.863714 1.266791 10053171
-6.170830 6.921886 2.907470 10053171
-5.545033 6.777302 2.400091 10053171
-4.529540 7.187134 1.532723 10053171
-5.290713 6.890102 0.607186 10053171
-6.021322 7.236440 1.481434 10053171
-3.511394 6.843831 2.526104 10053171
-5.665313 6.915377 2.296971 10053171
-6.070717 6.964099 1.436796 10053171
-6.580165 6.864477 1.282203 10053171
-6.774013 7.079830 2.619991 10053171
-6.576275 6.866134 1.851645 10053171
-6.075114 6.994619 2.796042 10053171
-4.205825 7.166670 2.760883 10053171
-4.910522 7.062628 2.190055 10053171
-4.879642 7.164370 0.047428 10053171
-4.073089 6.858113 1.584717 10053171
-7.001686 7.254051 0.323922 10053171
-5.489481 7.183314 0.031311 10053171
-3.493439 6.804384 0.732949 10053171
-6.085902 6.783711 0.907288 10053171
-3.551100 6.820419 2.830529 10053171
-3.552489 7.159346 0.908402 10053171
-5.195481 6.830680 2.951893 10053171
-6.947060 6.875254 2.325359 10053171
-4.327700 6.847327 0.577972 10053171
-4.576971 6.859554 0.881136 10053171
-3.494807 6.821284 0.284821 10053171
-6.417678 7.007409 1.142869 10053171
-5.268714 7.246435 1.665407 10053171
-4.214597 7.192703 1.719939 10053171
-5.740953 7.123771 0.952684 10053171
-4.649777 6.953595 2.951596 10053171
-5.854721 7.037258 1.040761 10053171
-5.185124 7.129124 0.295625 10053171
-4.802609 6.857306 2.743320 10053171
-3.330328 7.003009 0.816820 10053171
-3.911149 7.027040 1.837571 10053171
-5.809604 7.013014 1.298834 10053171
-3.334680 6.946913 1.645012 10053171
-3.008706 7.219074 0.809277 10053171
-3.201116 7.207081 2.781449 10053171
-3.170461 7.199804 2.297126 10053171
-6.068221 6.931708 2.246211 10053171
-6.822667 7.070970 2.053150 10053171
-4.046052 6.772896 1.146119 10053171
-3.189881 7.222910 1.715449 10053171
-6.913185 7.152251 1.462734 10053171
-4.314144 6.900858 1.109400 10053171
-5.312626 7.052709 0.095022 10053171
-6.788228 7.144616 2.871665 10053171
-4.213467 6.829709 2.425534 10053171
-3.439753 7.027326 2.634940 10053171
-3.082098 6.767067 1.126601 10053171
-3.501457 7.219388 0.589983 10053171
-3.462010 6.943637 2.292534 10053171
-4.104762 7.098562 2.697709 10053171
-3.742534 7.062556 2.903581 10053171
-5.750660 6.927331 0.477449 10053171
-4.748108 7.112811 1.561246 10053171
5.896195 -5.988252 1.135206 8342706
6.123556 -5.722613 1.803655 8342706
5.444864 -6.100163 3.618623 8342706
6.176292 -6.476439 0.555999 8342706
5.444155 -6.204018 3.036175 8342706
6.183953 -6.469090 4.080280 8342706
6.347299 -6.046739 4.885988 8342706
6.195225 -5.618896 0.314332 8342706
5.999877 -6.147948 4.014505 8342706
6.178431 -5.982850 0.478197 8342706
5.580213 -5.666836 1.985556 8342706
6.167624 -6.439862 3.339962 8342706
6.533772 -5.782972 4.835987 8342706
6.052128 -5.600295 2.402169 8342706
6.471486 -5.958509 1.307244 8342706
6.068058 -6.216171 2.937830 8342706
6.523452 -5.884619 0.282232 8342706
6.354602 -6.439761 2.976799 8342706
6.307189 -5.515779 2.226421 8342706
6.464737 -6.360188 2.663789 8342706
6.198655 -6.089931 2.969818 8342706
6.280385 -5.597825 2.030063 8342706
5.628174 -6.283608 3.510145 8342706
5.814164 -5.573892 0.206952 8342706
5.654792 -5.768943 0.517381 8342706
6.501921 -5.790123 1.412943 8342706
6.054827 -5.430847 0.767480 8342706
6.228316 -6.320051 1.511237 8342706
6.423630 -6.137626 1.589422 8342706
6.542162 -6.030632 3.481793 8342706
5.621830 -6.184482 3.382099 8342706
5.819901 -6.192080 4.691341 8342706
5.789545 -5.517516 2.072490 8342706
6.327023 -5.783186 2.907926 8342706
6.255371 -5.936768 3.536772 8342706
5.427156 -6.115859 0.538527 8342706
6.417213 -5.830880 1.993603 8342706
5.913497 -5.784245 1.715966 8342706
5.762177 -5.898816 3.133988 8342706
5.669793 -6.181392 1.830071 8342706
5.789796 -5.513914 0.773673 8342706
6.438178 -6.077041 0.402939 8342706
5.985755 -6.141506 4.300827 8342706
5.612072 -6.188558 4.541610 8342706
5.762671 -5.780897 4.163693 8342706
5.752755 -5.924216 3.095602 8342706
6.047180 -5.971432 1.432728 8342706
6.410843 -6.295371 2.016040 8342706
5.659065 -5.732208 3.100964 8342706
6.272072 -6.080957 3.922949 8342706
5.403596 -5.978468 4.574086 8342706
5.957348 -5.466990 4.488524 8342706
5.508952 -5.978112 3.218488 8342706
6.418248 -5.928353 1.959089 8342706
6.160488 -6.483453 4.288773 8342706
6.377639 -5.896150 1.225446 8342706
5.405212 -5.959777 2.339801 8342706
5.499349 -5.764943 4.304338 8342706
6.444719 -5.987870 3.001739 8342706
6.098126 -5.650712 4.823730 8342706
6.251221 -5.873013 2.120544 8342706
5.813119 -5.481251 2.067238 8342706
5.859750 -6.349877 3.544898 8342706
6.002755 -5.510772 3.510790 8342706
5.767009 -6.036125 4.503513 8342706
5.852733 -6.085734 1.749062 8342706
6.172375 -5.739213 2.013726 8342706
6.164577 -6.286974 1.930486 8342706
5.781748 -6.221856 1.527362 8342706
5.587038 -6.246442 1.055405 8342706
5.864449 -6.361478 1.240186 8342706
5.971895 -5.957066 3.025119 8342706
6.060707 -6.113893 4.761300 8342706
5.806991 -5.818184 0.607057 8342706
5.737577 -6.086500 2.503651 8342706
5.936430 -5.991536 3.145194 8342706
5.481150 -6.186305 1.908432 8342706
6.093035 -5.611966 0.142742 8342706
6.448678 -5.953154 1.243130 8342706
6.563904 -6.075233 3.868391 8342706
6.025257 -6.213916 3.290835 8342706
5.579541 -5.669697 1.965297 8342706
6.124842 -6.291443 4.437996 8342706
6.119674 -5.581254 4.645985 8342706
6.420953 -5.674815 0.231852 8342706
5.983374 -6.156630 2.697871 8342706
6.235001 -5.983751 2.442553 8342706
5.506771 -6.182113 3.673818 8342706
6.056994 -6.314240 1.986458 8342706
5.874026 -6.345388 1.017185 8342706
6.180613 -6.416335 4.433176 8342706
5.535685 -5.922317 3.874868 8342706
5.698267 -6.371454 2.532455 8342706
6.120020 -6.484272 1.388482 8342706
5.841777 -5.886092 4.550433 8342706
5.599286 -5.770469 2.347222 8342706
6.452719 -5.852178 2.620833 8342706
6.118292 -6.420523 0.584111 8342706
5.546583 -6.139701 1.879155 8342706
6.304564 -6.044838 1.891166 8342706
6.554729 -6.055957 3.654135 8342706
5.653603 -6.361884 0.625633 8342706
5.672064 -6.450255 0.779170 8342706
6.204416 -6.003793 2.542322 8342706
5.638657 -6.048125 3.316479 8342706
5.766583 -5.590916 4.688310 8342706
5.767444 -6.242555 4.023133 8342706
5.638828 -5.840162 1.234555 8342706
6.408124 -5.958027 4.450674 8342706
5.825479 -5.614648 3.506973 8342706
6.023978 -5.794492 0.945344 8342706
6.163986 -6.348586 1.778235 8342706
6.133512 -5.802636 1.593243 8342706
5.960887 -5.776097 4.103823 8342706
6.042149 -6.198826 4.591491 8342706
5.780894 -6.139871 0.230311 8342706
5.901502 -5.650017 1.689953 8342706
6.194147 -5.617198 3.872450 8342706
5.708190 -5.970041 3.106577 8342706
5.813871 -6.187928 2.593937 8342706
5.679223 -5.843101 2.893141 8342706
5.611540 -6.245646 3.728390 8342706
5.915744 -6.583917 1.069224 8342706
6.115969 -5.807617 1.656739 8342706
6.301060 -6.336530 0.558342 8342706
6.346860 -5.701074 2.312236 8342706
6.132936 -5.581926 3.090117 8342706
5.658228 -5.679383 1.230785 8342706
6.000410 -5.716003 3.693244 8342706
6.205287 -6.031338 4.398971 8342706
6.506986 -6.109206 2.687561 8342706
6.336566 -6.134573 3.352329 8342706
5.694228 -6.315233 4.699755 8342706
6.291943 -5.533473 4.646201 8342706
5.989547 -6.219108 3.550644 8342706
5.750128 -5.641908 2.591151 8342706
6.086944 -6.547697 4.501058 8342706
5.539176 -5.773135 4.271646 8342706
5.542120 -6.143460 2.903231 8342706
6.111060 -5.626608 2.478272 8342706
5.691224 -5.890409 4.036743 8342706
5.876466 -5.434420 3.061873 8342706
6.511016 -5.811235 0.110320 8342706
6.070346 -5.434409 0.404393 8342706
6.384277 -5.722604 0.047126 8342706
6.048931 -5.750217 0.514119 8342706
5.645143 -5.730214 3.085115 8342706
6.327016 -6.224680 1.521817 8342706
6.124022 -5.800858 2.470875 8342706
5.775546 -6.143102 1.609742 8342706
5.978673 -6.210049 0.129391 8342706
5.856656 -6.048939 3.740448 8342706
5.718518 -6.145856 3.378970 8342706
6.306554 -6.241604 4.587998 8342706
6.310889 -6.471824 3.373944 8342706
6.010181 -6.542180 4.175942 8342706
6.006693 -5.676429 4.215930 8342706
5.701362 -5.617690 4.223196 8342706
6.192354 -5.869370 1.883735 8342706
5.509408 -6.236506 4.648690 8342706
5.904997 -6.340727 4.713540 8342706
6.047022 -6.440867 1.304231 8342706
6.123549 -5.629125 2.042369 8342706
5.952049 -6.231959 1.721201 8342706
6.028405 -6.033777 4.534454 8342706
6.090415 -5.639667 1.142651 8342706
6.136483 -6.306467 1.566016 8342706
5.732582 -5.737723 0.111789 8342706
6.337277 -6.186775 3.037883 8342706
6.106701 -5.565597 2.633755 8342706
6.264458 -5.850523 1.018780 8342706
5.606939 -6.087652 1.908463 8342706
5.716271 -5.675834 2.238406 8342706
5.805140 -5.646551 2.589549 8342706
5.525943 -5.929636 3.587368 8342706
6.017574 -5.831745 1.884745 8342706
5.719012 -5.888780 1.454627 8342706
5.741804 -6.248116 2.817268 8342706
6.013344 -6.305382 4.905578 8342706
5.975965 -6.442896 4.838466 8342706
6.097287 -5.588627 3.831918 8342706
5.639657 -5.569654 1.997998 8342706
6.538762 -6.039369 4.243007 8342706
5.662973 -5.589694 1.927122 8342706
6.101620 -6.455410 1.688340 8342706
5.609741 -6.233789 1.842797 8342706
6.326097 -5.911423 3.494205 8342706
6.474887 -5.816094 3.811442 8342706
6.431873 -6.115434 3.869155 8342706
6.124039 -5.858495 3.380888 8342706
6.153412 -6.394984 1.021358 8342706
5.667982 -6.138948 3.341090 8342706
6.529530 -6.312112 0.122761 8342706
6.382334 -6.079632 4.938371 8342706
5.403202 -5.905416 3.793504 8342706
6.499356 -6.033438 0.231269 8342706
6.249258 -5.652037 3.742893 8342706
6.083032 -6.001372 2.463455 8342706
6.266748 -5.991349 0.678920 8342706
6.408067 -5.948981 2.428171 8342706
6.086329 -6.513472 2.782956 8342706
6.393764 -6.093993 1.389351 8342706
6.193600 -5.635479 1.082502 8342706
6.261072 -5.602025 4.305170 8342706
6.155684 -6.465026 0.748377 8342706
5.648735 -6.049513 3.184829 8342706
6.532055 -5.819032 1.099392 8342706
6.167601 -5.762321 2.597805 8342706
6.011807 -6.079117 2.523165 8342706
6.380202 -5.679941 1.820694 8342706
5.951636 -6.123614 3.858171 8342706
6.497557 -6.008161 1.597381 8342706
5.499115 -6.285113 0.731698 8342706
5.819161 -6.351207 4.996693 8342706
6.478830 -5.742218 3.964378 8342706
6.208629 -6.040276 0.122181 8342706
6.270173 -5.820707 3.551312 8342706
6.482803 -6.074214 4.583776 8342706
5.919584 -6.054031 3.125679 8342706
6.394416 -6.221267 1.770186 8342706
6.021970 -5.421352 1.966384 8342706
5.416856 -5.951954 4.248850 8342706
6.091748 -6.072188 2.975116 8342706
6.261275 -5.933568 3.249987 8342706
5.631539 -6.161119 3.349407 8342706
6.143373 -6.362127 4.411421 8342706
6.095564 -5.526546 4.111482 8342706
5.926976 -5.851907 2.927606 8342706
5.426428 -6.119009 2.084501 8342706
6.309632 -6.426230 4.889396 8342706
5.634773 -6.393463 2.921754 8342706
6.313821 -6.333249 2.368430 8342706
6.441374 -5.815703 1.062295 8342706
6.457825 -5.877821 2.279062 8342706
5.990092 -5.499611 2.046345 8342706
6.210365 -5.746702 0.486124 8342706
5.898332 -6.268325 1.568814 8342706
6.406205 -5.764615 2.460098 8342706
6.385773 -5.527688 4.095356 8342706
6.467928 -6.174202 1.494785 8342706
6.163659 -5.807647 3.248003 8342706
5.722870 -6.385032 3.102214 8342706
6.265762 -5.527709 4.460913 8342706
6.019072 -5.885046 0.768134 8342706
5.592787 -6.376795 4.392744 8342706
5.611090 -5.745253 4.250823 8342706
6.206363 -5.841578 1.362483 8342706
5.752095 -5.797249 1.050039 8342706
5.869814 -6.102463 0.635247 8342706
6.186799 -5.462191 1.190931 8342706
6.303003 -5.546485 1.180094 8342706
5.641923 -6.267445 4.284180 8342706
5.934094 -6.042961 4.938062 8342706
6.214373 -5.564669 3.773539 8342706
5.677361 -6.034879 4.262395 8342706
6.108346 -6.557106 4.271588 8342706
5.690256 -5.716000 3.986291 8342706
5.539408 -6.088149 3.773678 8342706
6.225918 -6.390189 1.044853 8342706
6.569185 -5.965672 0.495810 8342706
5.996582 -5.554206 2.921165 8342706
6.185436 -6.413017 1.652144 8342706
5.501789 -6.226870 3.940314 8342706
5.597458 -6.448647 2.811481 8342706
5.827260 -5.497757 2.263196 8342706
6.524371 -6.231622 2.081097 8342706
6.066857 -6.367604 0.544277 8342706
5.440661 -5.862324 2.585231 8342706
5.825931 -5.669729 2.554372 8342706
6.292586 -6.069521 0.219017 8342706
6.031003 -5.612769 4.327297 8342706
6.503489 -6.293006 4.425467 8342706
5.822620 -6.393424 4.432403 8342706
5.468453 -5.764818 4.344944 8342706
5.957135 -5.508228 1.515334 8342706
6.518610 -6.197744 4.024773 8342706
6.405197 -6.151165 1.426294 8342706
5.829237 -6.169465 3.751149 8342706
6.112331 -6.327858 1.920514 8342706
5.540017 -5.616044 3.375868 8342706
5.793226 -6.473627 3.535458 8342706
5.497445 -5.685984 3.925234 8342706
6.182321 -5.560120 0.037657 8342706
6.353179 -5.929110 2.655677 8342706
6.394868 -6.075315 1.728614 8342706
5.793039 -5.774530 3.211082 8342706
6.010047 -5.803963 3.165534 8342706
6.303682 -6.047655 2.043165 8342706
6.359555 -5.806624 2.213323 8342706
6.067174 -5.795014 0.093476 8342706
5.833745 -6.063204 0.091949 8342706
6.226642 -6.445675 0.874769 8342706
6.341572 -6.454529 0.731694 8342706
6.145704 -6.349843 4.216213 8342706
5.879071 -6.523659 1.821638 8342706
5.646185 -5.905158 0.982624 8342706
5.766288 -5.666025 2.695955 8342706
6.188763 -5.742670 0.396555 8342706
6.074963 -5.418995 2.080887 8342706
6.008196 -6.489753 1.069430 8342706
6.255538 -5.553357 1.302229 8342706
6.459223 -5.672581 3.596349 8342706
6.489234 -6.269233 0.319464 8342706
5.780196 -5.925662 4.023665 8342706
6.162203 -6.119378 1.734016 8342706
6.096311 -6.221133 3.253927 8342706
5.602719 -6.263355 3.697597 8342706
6.519769 -6.154846 1.833055 8342706
6.263328 -6.222650 1.692161 8342706
5.569436 -5.808660 2.480929 8342706
6.395323 -6.412370 2.035688 8342706
6.117912 -6.213687 3.565936 8342706
6.146660 -6.561429 4.298434 8342706
6.446848 -6.393136 3.694289 8342706
6.124826 -5.546237 2.024045 8342706
6.086048 -5.461073 0.875191 8342706
6.145110 -6.433298 1.144844 8342706
5.685130 -6.071637 0.138627 8342706
5.851527 -5.592803 2.624202 8342706
5.787237 -6.378731 2.637338 8342706
6.101511 -5.478545 3.492119 8342706
5.751673 -6.302893 3.372112 8342706
6.313995 -6.330089 1.085357 8342706
5.817381 -6.553949 4.778480 8342706
6.256699 -5.674208 4.896518 8342706
6.007228 -6.480473 1.887121 8342706
5.687477 -5.776296 0.302799 8342706
6.295444 -5.530437 4.297013 8342706
5.603057 -5.845284 4.352538 8342706
6.215787 -5.597429 0.472822 8342706
6.281542 -6.360373 4.023571 8342706
6.196768 -6.532549 0.585807 8342706
6.193918 -5.836287 1.020771 8342706
6.434103 -6.156408 2.783753 8342706
6.047589 -6.381674 3.738284 8342706
5.973142 -5.558343 2.034349 8342706
6.465882 -6.202454 3.307933 8342706
6.120267 -5.429337 0.225595 8342706
5.466741 -5.695313 4.407334 8342706
6.178007 -6.375267 1.661217 8342706
6.423041 -5.600052 1.837997 8342706
5.874424 -6.115860 0.911808 8342706
6.370389 -5.606270 3.694265 8342706
5.644446 -6.144877 3.746345 8342706
6.515981 -5.898947 1.178199 8342706
5.720258 -6.000320 2.448792 8342706
6.251510 -6.336248 2.949415 8342706
5.722186 -6.383711 4.095951 8342706
6.066600 -6.273869 3.891361 8342706
6.399057 -5.554187 4.952916 8342706
6.513540 -6.264415 4.652658 8342706
6.009989 -5.907543 3.883630 8342706
6.173506 -6.378556 4.334798 8342706
5.719864 -6.207342 1.988147 8342706
6.439307 -5.857985 2.108232 8342706
6.440166 -6.001935 2.213553 8342706
5.887025 -5.429178 1.055740 8342706
6.459641 -5.808141 0.279157 8342706
5.847649 -5.448781 1.380393 8342706
6.239044 -5.695483 4.832824 8342706
5.980437 -5.642527 1.236692 8342706
6.486783 -5.795245 2.238575 8342706
5.768386 -6.225594 3.676612 8342706
6.271972 -6.224785 1.519613 8342706
5.979704 -6.401194 3.985690 8342706
6.013328 -5.814614 2.291285 8342706
6.173925 -6.054233 4.102572 8342706
6.155993 -6.411147 4.345732 8342706
6.294340 -5.603493 4.748611 8342706
6.339221 -5.824619 3.615977 8342706
5.996778 -5.773761 3.163605 8342706
6.534943 -5.873884 3.040884 8342706
6.284922 -5.888878 2.843850 8342706
6.287659 -6.331929 1.981529 8342706
5.768799 -5.701316 3.604968 8342706
5.704340 -5.724716 3.061764 8342706
6.271919 -5.983021 1.465893 8342706
6.399703 -6.242229 1.101562 8342706
5.818466 -5.615430 2.967424 8342706
5.520847 -5.888474 0.125273 8342706
5.639688 -5.654187 0.465167 8342706
5.626514 -5.579959 2.869915 8342706
6.006558 -5.506759 2.122605 8342706
5.504481 -6.119694 1.881138 8342706
6.116637 -5.499664 3.476685 8342706
5.436394 -5.920415 4.592059 8342706
5.443697 -5.802536 2.917827 8342706
6.194817 -6.319487 1.848858 8342706
5.556752 -6.424687 0.835049 8342706
5.870477 -6.529776 1.630199 8342706
6.093978 -6.322153 3.419434 8342706
5.948927 -6.481538 4.615309 8342706
6.355595 -6.162529 0.800144 8342706
6.492914 -6.339707 1.461035 8342706
6.574468 -5.908328 3.410317 8342706
5.562582 -6.083774 1.103704 8342706
6.280244 -6.275208 1.944928 8342706
6.157888 -6.294506 2.959612 8342706
6.060263 -6.526558 4.970976 8342706
5.972961 -6.462182 0.599074 8342706
6.292078 -5.770454 1.731977 8342706
6.395753 -5.937910 1.310097 8342706
6.224045 -6.401232 0.475133 8342706
6.308253 -6.110346 2.900440 8342706
6.485101 -6.132424 0.091055 8342706
6.091768 -5.654109 1.232864 8342706
6.495979 -6.280807 4.282459 8342706
6.459177 -5.654044 4.787182 8342706
6.507042 -6.172482 3.627336 8342706
6.301211 -6.329036 1.573465 8342706
5.749986 -6.285053 0.414566 8342706
6.160675 -5.591664 2.699240 8342706
6.232719 -6.048894 3.881896 8342706
6.316574 -5.843760 0.387591 8342706
6.183466 -5.872055 3.955534 8342706
5.784723 -6.413126 3.273650 8342706
6.423711 -6.197779 0.014747 8342706
6.352219 -5.777198 1.364825 8342706
6.273701 -6.021801 4.219716 8342706
6.326865 -6.074300 2.032097 8342706
5.773682 -5.585232 4.379145 8342706
5.822564 -6.015877 0.860761 8342706
6.048541 -5.759562 4.192402 8342706
5.529868 -5.744825 3.987230 8342706
6.457523 -6.098064 1.758374 8342706
6.263302 -6.438026 1.723972 8342706
6.289594 -6.215834 4.623060 8342706
5.537103 -6.325521 1.224131 8342706
6.010012 -6.232676 3.454199 8342706
6.225503 -5.564495 3.765973 8342706
6.034814 -6.561693 3.668480 8342706
5.933978 -6.013381 1.732178 8342706
5.800159 -5.639789 2.757683 8342706
6.151596 -6.319526 0.919553 8342706
6.187690 -5.978990 3.886090 8342706
6.119774 -6.302645 1.987046 8342706
5.768933 -6.148038 1.047292 8342706
6.557328 -6.016112 1.762592 8342706
5.740913 -6.105744 4.309981 8342706
6.471021 -5.782091 1.015943 8342706
5.561990 -5.878687 0.794178 8342706
6.307906 -5.999881 4.998811 8342706
6.177467 -6.558475 4.114450 8342706
6.088531 -6.398988 4.711880 8342706
5.989534 -5.827405 1.406756 8342706
6.512517 -6.160151 4.994509 8342706
6.156173 -6.062353 1.641245 8342706
5.820874 -5.988567 2.065412 8342706
5.722907 -5.970019 3.044358 8342706
6.499730 -6.247041 4.089559 8342706
5.483337 -5.892071 3.598848 8342706
6.182285 -6.095155 0.988110 8342706
5.876785 -6.266719 1.890963 8342706
5.958110 -5.642935 2.384985 8342706
6.322938 -6.270932 0.072063 8342706
5.826705 -5.572714 4.559953 8342706
5.976923 -5.455842 4.068569 8342706
5.787033 -5.445117 3.552638 8342706
6.408649 -6.349616 1.548370 8342706
5.507564 -6.009789 4.732718 8342706
6.045750 -6.517169 0.115051 8342706
6.537597 -5.961201 1.496606 8342706
6.371339 -5.563887 3.375375 8342706
5.798233 -5.879374 0.832604 8342706
6.011769 -6.004411 0.877033 8342706
5.630407 -5.911865 2.249064 8342706
5.729300 -5.634095 2.289181 8342706
5.774349 -6.119246 3.529375 8342706
6.344208 -5.507384 1.141821 8342706
5.647871 -5.794788 4.818577 8342706
5.876873 -5.810913 0.081124 8342706
5.636917 -6.458750 2.432605 8342706
5.889412 -6.458810 3.635112 8342706
6.026073 -6.589369 0.568528 8342706
6.041452 -5.724220 1.734772 8342706
6.111157 -5.904047 1.779218 8342706
6.163606 -5.776803 4.159429 8342706
5.472191 -6.279017 4.964212 8342706
6.549817 -5.829906 2.151671 8342706
6.234911 -6.447580 3.900829 8342706
6.242422 -5.718122 2.516907 8342706
6.231751 -6.348589 2.404689 8342706
6.075556 -5.624330 4.512665 8342706
5.635414 -6.301046 3.467343 8342706
6.000568 -6.442282 2.717933 8342706
6.581887 -6.074370 0.455879 8342706
5.723929 -5.653050 4.813815 8342706
6.298220 -5.796147 0.276021 8342706
5.971060 -5.732164 4.679767 8342706
6.066684 -5.548110 2.434108 8342706
6.374693 -5.957919 1.882373 8342706
5.856875 -6.316539 3.427563 8342706
6.107372 -5.710299 4.234696 8342706
6.467957 -5.822119 0.470780 8342706
6.387215 -5.777691 4.627270 8342706
6.244899 -6.047299 2.769905 8342706
6.311227 -6.240569 0.715332 8342706
5.439052 -6.010689 2.408665 8342706
5.690501 -5.910655 4.307475 8342706
6.265240 -5.912908 4.818439 8342706
6.291917 -5.567997 1.366459 8342706
5.822029 -6.237351 4.058078 8342706
6.425530 -5.672416 4.597659 8342706
5.856915 -5.504529 4.351020 8342706
5.680997 -5.836315 0.453725 8342706
6.415997 -5.819729 3.471248 8342706
6.369727 -5.740244 0.649589 8342706
5.648084 -6.099030 0.732586 8342706
