# .PCD v0.7 - Point Cloud Data file format
VERSION 0.7
FIELDS x y z rgb
SIZE 4 4 4 4
TYPE F F F U
COUNT 1 1 1 1
WIDTH 1310
HEIGHT 1
VIEWPOINT 0 0 0 1 0 0 0
POINTS 1310
DATA ascii
-2.516907 9.171708 1.620774 15014169
-2.916597 8.613607 0.353620 15014169
-2.349706 9.238295 0.835511 15014169
-2.954745 8.621867 1.528338 15014169
-2.673236 8.689769 1.181919 15014169
-2.453097 8.880510 0.354094 15014169
-2.742266 9.147103 0.427292 15014169
-2.912014 9.082061 0.482704 15014169
-2.894439 8.697668 0.704064 15014169
-2.764782 9.102949 0.631258 15014169
-2.921916 8.607237 0.811402 15014169
-2.822099 9.129345 1.159536 15014169
-2.781562 9.241133 0.870807 15014169
-2.379137 8.748778 0.742852 15014169
-2.293695 8.597221 1.523115 15014169
-2.309656 8.789506 1.572423 15014169
-2.393694 9.234568 0.462392 15014169
-2.561483 9.081796 1.307680 15014169
-2.420662 8.544620 1.635962 15014169
-2.886637 8.577921 1.663065 15014169
-2.871415 9.128296 0.331919 15014169
-2.964185 8.580285 1.191678 15014169
-2.821971 8.844443 1.663436 15014169
-2.858121 8.710350 0.979148 15014169
-2.773745 8.902340 0.919868 15014169
-2.745000 8.538073 1.368028 15014169
-2.370317 8.794984 0.960305 15014169
-2.937018 9.056793 0.633527 15014169
-2.876369 8.623910 0.579463 15014169
-2.474575 8.855857 1.268878 15014169
-2.873465 8.698139 1.461574 15014169
-2.971322 8.715406 1.482085 15014169
-2.509962 8.713327 1.436913 15014169
-2.868988 8.922043 1.124980 15014169
-2.296638 9.018003 0.780964 15014169
-2.633316 8.693108 1.674185 15014169
-2.705398 8.597489 1.676476 15014169
-2.363108 8.910160 0.353040 15014169
-2.410518 9.170131 1.193380 15014169
-2.787227 9.191738 0.313491 15014169
-2.781971 8.790792 1.493457 15014169
-2.971709 8.977949 1.075531 15014169
-2.760364 8.609252 0.488799 15014169
-2.529614 8.580458 0.379898 15014169
-2.673936 8.893247 0.320284 15014169
-2.607738 8.621648 0.447513 15014169
-2.502261 8.768142 1.411010 15014169
4.795216 -6.380553 0.464626 1645029
4.797493 -6.054955 1.219160 1645029
4.290263 -6.575457 1.050254 1645029
4.503594 -6.330462 1.012250 1645029
4.613949 -6.259237 1.197964 1645029
4.530771 -6.278837 1.490480 1645029
4.555014 -6.235755 0.600222 1645029
4.423891 -6.108837 1.271516 1645029
4.689044 -6.289026 0.936978 1645029
4.629087 -6.733157 0.615579 1645029
5.129724 -6.460916 1.096054 1645029
4.943936 -6.727547 1.271518 1645029
4.428916 -6.457054 0.628679 1645029
5.089672 -6.608629 1.232263 1645029
4.473100 -6.438931 0.824810 1645029
4.274909 -6.173118 1.145256 1645029
4.185710 -6.702943 0.972967 1645029
4.828539 -6.053257 1.122391 1645029
4.900727 -6.246089 1.306129 1645029
4.634264 -6.535183 0.904416 1645029
4.862194 -6.635724 1.169443 1645029
4.462464 -6.647563 1.330730 1645029
4.788472 -6.149192 1.260959 1645029
4.653486 -6.765532 0.679959 1645029
4.760450 -6.881094 0.770189 1645029
4.517943 -6.198690 1.126550 1645029
4.739057 -6.694413 0.859994 1645029
4.569629 -6.403780 0.918832 1645029
4.999226 -6.394772 1.048849 1645029
4.898186 -6.539451 1.139700 1645029
4.447267 -6.590737 0.848834 1645029
4.301018 -6.403458 0.640454 1645029
4.451721 -6.398438 1.337073 1645029
4.457447 -6.416233 0.886679 1645029
5.023098 -6.723545 0.929563 1645029
4.622405 -6.411957 1.054982 1645029
4.684671 -6.020395 1.052770 1645029
4.171208 -6.727869 1.068473 1645029
4.690773 -6.384025 1.161288 1645029
4.416384 -6.763066 1.098849 1645029
4.461354 -6.589528 0.529131 1645029
4.252176 -6.483423 0.873915 1645029
4.873871 -6.598153 1.128221 1645029
4.648688 -6.486235 1.209370 1645029
4.501866 -6.312234 0.673984 1645029
4.764196 -6.318298 0.696490 1645029
4.772826 -6.051279 1.009650 1645029
4.769363 -6.425663 0.880300 1645029
4.551116 -6.462868 0.667435 1645029
4.926628 -6.730588 0.815996 1645029
4.532815 -6.877572 0.939859 1645029
5.012804 -6.520297 0.977077 1645029
4.597246 -6.614873 0.826178 1645029
4.501950 -6.754934 1.337293 1645029
4.551166 -6.311844 0.514966 1645029
5.074333 -6.475657 1.271819 1645029
4.331768 -6.114470 0.730148 1645029
4.336214 -6.225269 0.657415 1645029
4.755688 -6.919256 0.897744 1645029
4.389886 -6.604822 0.868087 1645029
4.651464 -6.883722 0.956431 1645029
4.768098 -6.521892 0.966602 1645029
4.359345 -6.578125 1.004846 1645029
4.520122 -6.191523 0.908269 1645029
4.521918 -5.955217 0.959345 1645029
4.426627 -6.521791 1.393246 1645029
4.536549 -6.579088 1.148756 1645029
4.747335 -6.271906 1.231925 1645029
4.971708 -6.336156 1.162004 1645029
5.116042 -6.345229 1.021774 1645029
4.338943 -6.786700 1.239865 1645029
4.916876 -6.124135 1.034825 1645029
5.026649 -6.449078 1.033975 1645029
4.397862 -6.231148 0.581429 1645029
4.545259 -6.132815 1.239983 1645029
4.675830 -6.033000 1.061851 1645029
4.825843 -6.249415 0.856137 1645029
4.658137 -6.280201 0.537188 1645029
4.959591 -6.450984 1.000905 1645029
4.987516 -6.211297 1.218566 1645029
4.695291 -7.918193 0.602974 1690649
4.401662 -8.356241 0.776218 1690649
4.632972 -8.316478 0.704645 1690649
4.071507 -8.349614 1.332032 1690649
4.736172 -8.181950 0.503043 1690649
4.428258 -8.126824 0.590762 1690649
4.671609 -8.217049 1.023005 1690649
4.421656 -8.287445 1.092256 1690649
4.936045 -8.287176 1.301162 1690649
4.245847 -8.244807 0.928119 1690649
4.867644 -8.126441 0.530507 1690649
4.561699 -8.349926 1.758663 1690649
4.481724 -8.614771 0.195580 1690649
4.169890 -8.027761 1.047678 1690649
4.567855 -7.909712 1.041245 1690649
4.708205 -8.568174 1.160602 1690649
4.888132 -8.326984 1.014426 1690649
4.328081 -8.390248 0.569898 1690649
4.640362 -8.095349 1.411934 1690649
4.572314 -8.274251 1.127710 1690649
4.573989 -7.841757 1.717989 1690649
4.550322 -8.615940 1.167288 1690649
4.087102 -8.396809 0.855367 1690649
4.082280 -8.378401 0.889966 1690649
4.206973 -7.849984 1.521371 1690649
4.637242 -8.337637 1.854969 1690649
4.143871 -8.331849 1.399409 1690649
4.663085 -7.921741 1.838333 1690649
4.498860 -8.550643 0.627724 1690649
4.723166 -7.972116 1.238768 1690649
4.319068 -7.891698 1.429150 1690649
4.335673 -8.082471 1.590326 1690649
4.838967 -8.423013 0.996634 1690649
4.309636 -8.123096 0.759073 1690649
4.498640 -8.347027 1.067108 1690649
4.785616 -7.867777 1.090787 1690649
4.068548 -8.187487 0.544389 1690649
4.551400 -7.998551 0.590896 1690649
4.184191 -8.347343 1.275693 1690649
4.512654 -7.968332 1.868290 1690649
4.648875 -8.068425 1.079860 1690649
4.338959 -8.532463 0.353320 1690649
4.633946 -8.072167 1.899285 1690649
4.479272 -8.482391 0.998220 1690649
4.210624 -7.891089 1.893174 1690649
4.699905 -8.390483 1.146797 1690649
4.520553 -8.517443 1.435379 1690649
4.457902 -8.055534 0.997970 1690649
4.312700 -7.812688 1.031662 1690649
4.464371 -7.857869 1.381054 1690649
4.293158 -8.061414 1.228164 1690649
4.660082 -7.816255 0.403247 1690649
4.865552 -8.080545 1.498870 1690649
4.273266 -8.010005 1.021020 1690649
4.094363 -8.377650 1.853890 1690649
4.435242 -8.548954 1.700917 1690649
4.302127 -8.295294 0.812271 1690649
4.323989 -8.056764 0.593840 1690649
4.839929 -8.437589 0.929560 1690649
4.463104 -8.237164 1.461644 1690649
4.139941 -8.239299 0.929102 1690649
4.634326 -8.196760 0.130699 1690649
4.255302 -8.079518 0.217773 1690649
4.501592 -8.592812 0.192333 1690649
4.469590 -7.965999 0.961363 1690649
4.605485 -8.432143 1.747475 1690649
4.297769 -8.498570 1.671152 1690649
4.526972 -8.642723 1.769733 1690649
4.278277 -8.035945 0.231826 1690649
4.164202 -8.364383 0.339093 1690649
4.270391 -8.103211 1.329108 1690649
4.621043 -8.357221 0.636931 1690649
4.311939 -8.456873 1.637511 1690649
4.856047 -8.263654 1.123296 1690649
4.615538 -8.232513 0.088789 1690649
4.427950 -7.864484 1.211606 1690649
4.518588 -8.054480 0.215166 1690649
4.454908 -8.545234 1.112333 1690649
4.785316 -8.236259 0.715239 1690649
4.646100 -7.938323 1.197926 1690649
4.427187 -7.792935 0.224581 1690649
4.477463 -8.410909 0.464063 1690649
4.560911 -8.036560 0.904122 1690649
4.327483 -8.165383 1.785596 1690649
4.125733 -8.111186 0.690651 1690649
4.582901 -8.558780 0.216986 1690649
4.448607 -8.581444 1.468891 1690649
4.297083 -8.497172 0.143434 1690649
4.714998 -8.045388 1.486977 1690649
4.781542 -8.409855 1.267880 1690649
4.512962 -7.913360 1.697081 1690649
4.417491 -7.874026 1.100819 1690649
4.677946 -7.920493 0.772808 1690649
4.271268 -8.297464 0.178019 1690649
4.260159 -7.884930 1.253960 1690649
4.760286 -8.484145 0.581048 1690649
4.274776 -8.079736 1.660960 1690649
4.391935 -8.176257 1.889479 1690649
4.777962 -8.051238 0.495044 1690649
4.342724 -8.417488 1.639368 1690649
4.122722 -8.421709 0.955643 1690649
4.380200 -7.904633 1.729031 1690649
4.324124 -8.470496 1.481233 1690649
4.164508 -7.955580 0.624702 1690649
4.262715 -7.985147 0.153303 1690649
4.176282 -8.519717 1.120179 1690649
4.241982 -7.973386 0.606578 1690649
4.295529 -7.990469 1.074847 1690649
4.129563 -8.411365 0.801803 1690649
4.270644 -8.339141 1.260344 1690649
4.816085 -8.489923 0.149452 1690649
4.498571 -7.798368 1.895732 1690649
4.892320 -8.118105 0.960144 1690649
4.683858 -8.586718 1.827122 1690649
4.853547 -8.129682 1.445176 1690649
4.611727 -8.468416 1.056503 1690649
4.722506 -8.025290 1.370463 1690649
4.492901 -8.544346 1.119641 1690649
4.433217 -7.850764 0.796190 1690649
4.539961 -8.616356 0.149734 1690649
4.116866 -8.237033 0.966968 1690649
4.175881 -7.947529 0.326346 1690649
4.768090 -8.092513 1.318952 1690649
4.726651 -8.494393 0.105685 1690649
4.259416 -8.206552 1.076301 1690649
4.542510 -8.423847 0.250637 1690649
4.134615 -8.261589 0.955249 1690649
4.461747 -8.488194 0.477873 1690649
4.846361 -8.020675 0.684894 1690649
4.183820 -8.120025 1.853232 1690649
4.372333 -8.098107 0.247969 1690649
4.591507 -8.220274 0.466598 1690649
4.791940 -8.508401 0.915739 1690649
4.067522 -8.042772 1.427008 1690649
4.259802 -8.106602 1.524429 1690649
4.302539 -8.218129 0.328475 1690649
4.650834 -8.491342 1.460995 1690649
4.399268 -8.241135 0.487219 1690649
4.702735 -8.349695 1.356270 1690649
4.629284 -8.010689 0.191835 1690649
4.094546 -8.236307 0.650500 1690649
4.901774 -8.340837 0.769006 1690649
4.793182 -8.086681 1.328242 1690649
4.366502 -8.129563 0.894390 1690649
4.174631 -8.200563 0.631241 1690649
4.897820 -8.032776 1.215958 1690649
4.539249 -8.355082 1.324882 1690649
4.312366 -8.103358 1.669224 1690649
4.516661 -7.799423 1.194746 1690649
4.894257 -8.178280 1.280528 1690649
4.694588 -8.406913 0.495511 1690649
4.256331 -8.206573 1.013448 1690649
4.559959 -8.200783 1.224908 1690649
4.655756 -8.321928 0.692634 1690649
-4.363989 7.158506 0.453533 10053171
-5.966414 7.098333 0.423355 10053171
-4.442371 6.975725 2.364533 10053171
-5.170184 7.177689 2.882468 10053171
-3.855830 6.988423 0.287349 10053171
-6.675500 6.771262 2.495079 10053171
-4.096705 7.176527 2.535967 10053171
-3.165206 6.957034 1.344012 10053171
-4.376306 6.994604 0.501973 10053171
-3.490722 7.199101 2.572367 10053171
-3.653421 7.187860 2.492705 10053171
-3.265722 6.973496 0.843196 10053171
-4.010395 7.076292 0.164128 10053171
-4.971420 6.819769 1.158613 10053171
-6.828989 6.976364 0.183491 10053171
-4.606634 7.121247 2.208600 10053171
-6.411433 6.989034 1.201383 10053171
-4.626875 6.965821 0.428070 10053171
-6.905626 6.760019 2.823034 10053171
-6.291584 7.216880 2.883882 10053171
-6.048113 7.064463 0.739977 10053171
-6.144225 6.811598 2.812365 10053171
-3.747474 6.889485 2.214800 10053171
-4.817595 7.068079 2.519240 10053171
-6.576390 7.011629 2.646376 10053171
-6.055627 7.143709 1.115145 10053171
-3.417481 7.144684 1.451529 10053171
-4.607755 6.986198 1.348873 10053171
-5.997818 7.252226 2.395072 10053171
-6.667643 7.032239 2.947386 10053171
-6.868529 7.058193 1.110681 10053171
-5.966672 6.757696 0.125502 10053171
-6.128527 7.033571 1.955874 10053171
-3.885367 6.972753 0.565226 10053171
-4.721927 7.147236 0.102926 10053171
-5.870415 7.156338 2.066504 10053171
-4.825105 6.957175 1.399653 10053171
-5.490097 7.231512 2.732770 10053171
-5.056725 6.756400 1.318203 10053171
-6.149952 6.973019 2.541176 10053171
-4.467479 6.914876 2.127872 10053171
-4.076978 7.123222 1.111968 10053171
-3.872659 6.752623 0.888871 10053171
-4.710284 6.929379 2.244621 10053171
-5.570267 6.962945 0.636284 10053171
-3.800654 7.045840 1.156682 10053171
-3.480206 7.070365 2.134621 10053171
-4.291979 7.190101 0.696970 10053171
-4.097473 7.240228 2.559052 10053171
-5.290896 6.976962 1.608961 10053171
-6.752388 7.063272 2.603771 10053171
-5.677259 6.967043 1.208561 10053171
-5.771039 6.859219 2.781099 10053171
-3.540765 6.860607 2.720004 10053171
-3.084436 6.888499 0.617107 10053171
-5.036606 7.026541 2.171139 10053171
-3.507411 7.051969 0.823459 10053171
-5.443894 7.045108 1.611086 10053171
-3.326415 7.070573 2.158668 10053171
-6.469228 7.185893 0.018695 10053171
-6.364407 6.744704 2.595680 10053171
-4.385401 6.963282 2.935655 10053171
-6.316992 6.929173 0.865509 10053171
-3.767151 7.179109 1.018948 10053171
-3.558430 7.086700 2.686210 10053171
-4.174428 6.922719 2.146159 10053171
-6.347051 6.801523 1.068013 10053171
-3.773522 7.021799 1.922701 10053171
-3.889741 7.059915 1.242758 10053171
-5.454158 7.191939 0.705556 10053171
-5.938107 6.936109 2.515360 10053171
-3.289132 6.924287 1.489270 10053171
-6.791050 6.762776 2.288810 10053171
-3.709260 6.997653 1.000752 10053171
-6.510714 7.211961 1.584341 10053171
-5.309334 6.973742 0.857674 10053171
-6.504713 6.871274 0.436592 10053171
-4.528636 7.080256 2.270211 10053171
-6.736738 7.169404 1.147357 10053171
-4.035071 6.900444 0.241798 10053171
-5.780324 7.217751 0.695634 10053171
-6.966342 7.062054 2.911913 10053171
-3.129310 7.078567 2.161673 10053171
-4.120247 7.101453 0.045685 10053171
-4.458025 7.166899 1.342000 10053171
-6.615980 7.207473 0.418563 10053171
-5.822540 6.862301 0.161438 10053171
-3.259220 6.872342 0.159105 10053171
-6.531337 6.921437 1.341351 10053171
-5.985809 6.834489 0.006434 10053171
-5.462326 7.027645 1.776830 10053171
-6.400850 6.991757 2.970056 10053171
-6.085104 6.834743 2.953043 10053171
-4.226950 7.224271 1.416728 10053171
-4.300951 7.112651 2.191835 10053171
-3.922987 7.199086 2.375978 10053171
-5.659220 7.237185 0.397791 10053171
-5.343689 6.906820 0.464886 10053171
-3.343622 6.956347 0.985513 10053171
-6.879920 6.947880 0.252987 10053171
-4.484938 6.800092 1.773480 10053171
-6.243048 7.223953 1.526139 10053171
-3.836563 7.197157 0.875851 10053171
-3.784934 6.977428 2.102699 10053171
-4.815370 7.134357 1.241088 10053171
-5.617339 7.261004 1.585092 10053171
-4.249425 6.973174 0.422152 10053171
-5.507119 7.196693 0.324014 10053171
-3.272097 7.085533 0.126449 10053171
-5.122166 6.773844 1.778882 10053171
-5.632623 7.060070 2.652171 10053171
-5.439525 6.886023 2.371608 10053171
-4.478678 6.920833 0.686742 10053171
-4.774195 6.947992 2.328113 10053171
-6.491775 6.967675 1.172438 10053171
-5.737182 6.785365 1.367075 10053171
-4.577857 6.912253 1.786003 10053171
-4.057498 7.063276 2.565528 10053171
-3.309250 7.043843 0.191221 10053171
-4.628985 6.762654 1.390137 10053171
-3.808874 7.202538 0.865030 10053171
-5.178601 6.858126 0.234191 10053171
-6.421192 6.762239 0.294176 10053171
-5.578374 7.017837 0.820144 10053171
-3.145573 7.178246 1.553240 10053171
-5.391218 7.072684 2.725538 10053171
-5.305967 6.937009 2.714864 10053171
-4.398980 6.894472 0.773310 10053171
-6.979043 7.127499 2.669115 10053171
-4.272347 7.052172 2.906022 10053171
-4.886899 6.952041 0.247675 10053171
-6.487398 6.895021 2.238041 10053171
-5.352365 6.917879 1.749159 10053171
-5.253151 7.060812 1.614041 10053171
-4.643751 6.835227 0.825511 10053171
-3.260372 6.825831 0.411393 10053171
-4.017886 6.952916 1.233933 10053171
-3.751104 7.261515 0.776378 10053171
-5.105232 7.063029 2.749100 10053171
-4.744761 7.164017 1.089302 10053171
-5.647414 6.793659 2.552235 10053171
-5.408382 7.177869 2.278226 10053171
-6.043022 7.000886 2.978384 10053171
-3.730694 6.933956 1.085505 10053171
-4.250457 7.090193 2.728766 10053171
-5.940097 7.062613 0.651375 10053171
-4.981686 6.809052 2.317813 10053171
-3.931715 6.824308 1.364948 10053171
-6.012115 7.191088 1.711906 10053171
-3.612696 7.213136 0.410264 10053171
-5.869243 6.930868 2.256320 10053171
-6.564674 6.887761 1.755908 10053171
-4.779776 6.801393 2.801104 10053171
-6.472640 7.144161 1.217719 10053171
-3.567372 7.000289 1.065836 10053171
-6.271667 6.844853 1.543475 10053171
-3.029216 6.873014 1.547094 10053171
-6.387259 7.230074 0.945242 10053171
-4.804003 6.995636 1.222613 10053171
-6.396294 7.103529 0.935368 10053171
-6.888343 6.879440 2.251490 10053171
-3.717070 7.208106 1.815260 10053171
-4.217456 7.181859 0.812285 10053171
-6.305924 6.799033 2.927987 10053171
-3.038582 6.768111 2.279541 10053171
-6.424464 6.909804 1.506005 10053171
-6.313004 6.988053 1.001688 10053171
-5.154918 6.790092 1.230633 10053171
-3.945322 7.167584 0.929641 10053171
-6.411320 7.102370 0.860840 10053171
-6.238216 6.752334 2.105752 10053171
-3.524295 7.029090 0.940885 10053171
-5.320355 6.958339 2.316905 10053171
-4.503011 6.758182 0.629035 10053171
-5.576900 7.202456 0.157569 10053171
-3.622264 6.906071 1.831725 10053171
-6.979474 7.169850 2.100823 10053171
-6.176751 7.167614 1.949050 10053171
-4.695852 6.898941 0.443655 10053171
-5.542521 6.963192 1.732991 10053171
-6.739869 6.789982 1.269207 10053171
-5.548796 6.820763 1.501448 10053171
-6.409829 6.874540 2.048039 10053171
-5.978110 6.789100 1.058216 10053171
-5.772985 6.744007 2.078128 10053171
-5.533552 6.787277 1.560281 10053171
-3.368544 7.065321 2.643377 10053171
-5.047918 7.040429 0.358201 10053171
-4.168332 7.185508 0.554297 10053171
-5.043883 7.129929 0.817309 10053171
-6.406400 6.915289 2.851338 10053171
-6.862713 6.819562 2.551262 10053171
-6.704738 6.744102 0.403994 10053171
-3.250864 7.100061 1.584753 10053171
-6.021922 6.747725 2.608365 10053171
-4.072385 6.915480 1.531677 10053171
-6.721884 7.220488 0.591158 10053171
-6.907804 6.956794 2.981059 10053171
-4.480039 6.926105 1.952062 10053171
-4.899736 7.067827 2.551719 10053171
-3.991852 7.106453 0.780922 10053171
-4.108891 7.238889 0.498989 10053171
-3.906983 6.757579 1.137628 10053171
-3.469272 7.223071 2.472235 10053171
-3.389078 7.194168 0.195814 10053171
-3.152912 6.787432 0.443223 10053171
-4.789886 7.225061 1.087002 10053171
-6.896742 7.118068 0.589795 10053171
-6.244522 6.752752 1.880279 10053171
-6.641892 6.947412 0.636788 10053171
-6.353386 7.166517 1.715891 10053171
-6.413747 6.828036 1.123349 10053171
-4.972943 6.810476 0.287711 10053171
-5.299472 7.024184 1.113645 10053171
-5.997957 7.072129 1.251248 10053171
-3.184656 7.016653 2.064512 10053171
-4.528114 6.928254 0.173871 10053171
-6.040180 6.839344 0.188539 10053171
-3.640931 7.154227 0.342883 10053171
-3.323830 7.184766 2.588634 10053171
-4.009926 6.912898 2.674749 10053171
-4.114497 6.861485 2.978176 10053171
-5.515413 7.080897 1.929296 10053171
-4.347096 7.162277 0.732584 10053171
-4.229178 6.938997 0.592457 10053171
-3.612709 7.156068 0.614889 10053171
-3.715143 6.933821 0.910813 10053171
-4.619889 7.029151 0.615927 10053171
-4.179342 6.936533 0.207825 10053171
-6.552630 6.797920 2.363781 10053171
-4.740539 7.149920 0.513070 10053171
-5.161923 6.978179 1.460133 10053171
-6.444302 7.244399 1.319775 10053171
-6.969135 7.017059 2.097478 10053171
-6.595930 7.235686 1.486838 10053171
-5.021198 7.125875 2.893134 10053171
-4.726346 6.835984 0.721967 10053171
-4.296994 6.928622 1.321904 10053171
-5.422357 6.812650 2.053519 10053171
-3.993014 6.765666 2.814932 10053171
-5.941656 7.021405 1.383572 10053171
-6.752965 6.771347 0.264456 10053171
-3.283733 7.139296 2.697111 10053171
-5.115102 7.065405 1.731699 10053171
-5.837610 7.190653 0.508793 10053171
-6.239504 6.878548 1.078390 10053171
-6.943525 7.070908 1.622074 10053171
-5.750949 7.219457 2.540576 10053171
-6.217523 6.932267 2.028990 10053171
-3.795771 6.934319 1.343366 10053171
-5.724175 7.169426 0.864455 10053171
-3.124552 6.803837 0.956553 10053171
-3.917200 6.837502 1.115996 10053171
-5.356917 7.163788 1.638139 10053171
-3.499015 6.769816 0.840237 10053171
-4.693171 7.245687 1.560347 10053171
-3.645220 6.996640 2.199224 10053171
-4.568571 7.128536 2.710494 10053171
-4.893175 7.086752 2.096874 10053171
-6.907827 6.805576 2.407971 10053171
-3.447104 7.095966 0.850169 10053171
-5.540023 7.061472 2.931168 10053171
-4.825350 6.932905 0.675283 10053171
-4.591351 7.005052 2.178758 10053171
-6.922122 7.034405 2.195943 10053171
-3.657032 6.838758 1.224139 10053171
-4.344056 6.918677 0.811132 10053171
-6.410151 6.779891 2.079479 10053171
-6.030093 6.794560 2.076936 10053171
-4.828971 6.777940 0.955822 10053171
-3.714986 6.864885 -0.000187 10053171
-4.871127 7.117882 2.475885 10053171
-3.759053 7.005184 2.476818 10053171
-5.184569 7.103139 1.511021 10053171
-6.251664 6.847389 1.607779 10053171
-6.686015 7.178777 2.921361 10053171
-3.960553 6.926283 0.970425 10053171
-6.246273 7.038300 0.940000 10053171
-4.898967 7.148319 1.536684 10053171
-3.282840 7.238335 0.924809 10053171
-6.354326 7.080527 1.863816 10053171
-5.696751 6.804608 1.316287 10053171
-3.549850 6.909552 0.409485 10053171
-5.639399 6.778169 2.120812 10053171
-4.302809 7.231441 0.438597 10053171
-3.208853 7.012668 1.447696 10053171
-3.116822 6.952221 1.824686 10053171
-4.080080 6.757491 0.919252 10053171
-4.274698 7.198378 1.312575 10053171
-3.095428 6.861430 0.316622 10053171
-4.017726 7.126868 1.433029 10053171
-5.440404 6.912543 1.044781 10053171
-3.981313 6.969601 0.359490 10053171
-3.798242 6.946853 0.170254 10053171
-5.731629 7.238587 1.861976 10053171
-5.683385 7.200249 1.798609 10053171
-6.056792 6.764593 2.383352 10053171
-3.582404 6.975101 0.807595 10053171
-5.203663 7.124827 1.204995 10053171
-5.116337 6.826897 2.486803 10053171
-4.296249 7.197780 0.631607 10053171
-6.981133 7.202803 0.052782 10053171
-4.014789 6.777151 1.122534 10053171
-4.054641 6.782617 1.830075 10053171
-5.410696 6.877217 2.726817 10053171
-3.282604 7.044328 1.516046 10053171
-3.326883 7.207027 0.020055 10053171
-3.235568 6.818114 1.493453 10053171
-4.635887 6.972668 1.547602 10053171
-4.967988 6.850590 0.146501 10053171
-6.810236 6.834427 1.567863 10053171
-5.549097 6.915627 0.152618 10053171
-6.926461 6.916357 1.408056 10053171
-4.205014 6.768403 1.323007 10053171
-6.377196 6.936432 0.229884 10053171
-3.364474 6.773025 2.825894 10053171
-4.111900 6.787406 1.430411 10053171
-4.736132 6.837003 1.935729 10053171
-6.175454 6.779741 0.134663 10053171
-5.207815 7.144624 1.847484 10053171
-6.272043 7.141709 2.257951 10053171
-5.146545 7.077797 1.387387 10053171
-6.452905 6.942921 1.316314 10053171
-5.476951 7.081169 0.282880 10053171
-4.949369 7.192225 1.777593 10053171
-3.855914 7.007345 1.642620 10053171
-5.427047 7.074777 2.728908 10053171
-5.684049 7.060131 2.970761 10053171
-6.825931 7.161189 0.807311 10053171
-4.915984 7.156279 1.114631 10053171
-6.977197 6.937555 0.268629 10053171
-6.728689 6.986554 1.036109 10053171
-4.307731 6.798975 1.929974 10053171
-3.988109 7.179675 0.072401 10053171
-3.118829 7.016015 1.313624 10053171
-3.848134 7.021566 0.414058 10053171
-3.118296 6.751880 1.722812 10053171
-3.468051 6.877844 0.327689 10053171
-6.618235 7.084052 1.223541 10053171
-4.097758 7.133325 0.746908 10053171
-3.808147 7.017761 2.058691 10053171
-3.779023 7.023911 1.236500 10053171
-4.609786 7.142790 2.673888 10053171
-4.620570 7.229400 2.355031 10053171
-6.245015 7.133754 0.889184 10053171
-3.096367 6.883458 0.013423 10053171
-4.399227 6.750588 0.523374 10053171
-5.192860 7.027264 2.851130 10053171
-5.332264 6.986989 2.481355 10053171
-3.667307 7.248328 1.089028 10053171
-4.833750 6.773068 0.074772 10053171
-4.750892 7.114034 0.890396 10053171
-4.101840 6.850915 1.513723 10053171
-3.536744 6.974601 0.967403 10053171
-6.962155 7.108350 0.892278 10053171
-3.888032 6.925210 1.356223 10053171
-3.608699 6.944699 2.713962 10053171
-5.504890 6.838540 2.607494 10053171
-5.391499 6.773545 2.398239 10053171
-3.041123 6.802276 2.946066 10053171
-6.165222 6.832948 2.039677 10053171
-4.431250 7.118897 0.789739 10053171
-4.522145 7.031842 0.710368 10053171
-3.192559 7.233467 2.714633 10053171
-5.884192 7.200660 2.528698 10053171
-4.204166 6.896035 2.159377 10053171
-3.192872 6.940741 0.501753 10053171
-4.992036 6.830853 1.828680 10053171
-3.719695 6.968089 0.097688 10053171
-4.305732 7.237282 0.539980 10053171
-6.187451 6.871598 1.560783 10053171
-3.851349 7.187661 0.591398 10053171
-5.445712 6.765198 1.446136 10053171
-3.213031 6.816298 2.189281 10053171
-3.464135 6.953678 0.319108 10053171
-3.933538 7.259726 2.059328 10053171
-6.186517 7.196897 0.276949 10053171
-6.568815 6.902448 0.547098 10053171
-4.619727 6.904114 1.234299 10053171
-5.150146 6.797692 0.016366 10053171
-5.450872 6.802500 0.508784 10053171
-3.772673 6.793826 0.400312 10053171
-5.335909 7.228845 0.674093 10053171
-3.180923 7.195457 1.369401 10053171
-4.945796 6.752794 2.568699 10053171
-6.734685 7.142686 1.626519 10053171
-4.807099 6.777089 1.159652 10053171
-4.079537 7.033929 1.632130 10053171
-4.069003 7.025378 1.605237 10053171
-3.489482 6.929839 2.929363 10053171
-4.070767 7.138331 2.890779 10053171
-6.619548 6.923956 1.738033 10053171
-5.181573 7.037141 1.686930 10053171
-5.115535 7.170636 2.158437 10053171
-4.504459 6.867902 0.038389 10053171
-5.352321 6.748912 2.581455 10053171
-5.163728 6.766169 1.364824 10053171
-4.072933 6.892232 0.696816 10053171
-4.363392 7.050691 1.033719 10053171
-5.222561 7.121431 0.702879 10053171
-3.749057 6.805357 1.896290 10053171
-3.652875 7.232853 2.747455 10053171
-3.350253 7.143001 1.010957 10053171
-4.053545 7.188128 2.638204 10053171
-3.094788 7.161369 2.870817 10053171
-3.578505 7.025269 1.660117 10053171
-5.296429 7.125210 0.098842 10053171
-3.918750 6.932542 2.292856 10053171
-6.409839 7.055398 2.530561 10053171
-3.120928 7.092203 2.782923 10053171
-4.849441 7.160151 0.103765 10053171
-5.893175 6.892745 0.131766 10053171
-4.266923 7.052207 0.573066 10053171
-4.624825 7.122768 -0.003255 10053171
-6.622775 7.231528 1.381950 10053171
-6.055968 6.937480 0.102696 10053171
-5.837224 6.768374 2.915930 10053171
-4.478205 7.056413 2.835875 10053171
-5.616916 7.190870 2.548458 10053171
-3.119625 6.956004 0.607492 10053171
-5.744142 6.925533 0.616401 10053171
-4.097864 7.115182 1.554336 10053171
-4.695933 6.782407 1.648075 10053171
-4.978837 7.140679 1.215079 10053171
-4.443330 6.976543 0.504805 10053171
-5.296658 7.223666 0.318737 10053171
-3.872394 6.953151 0.826859 10053171
-4.222331 6.938445 2.672852 10053171
-5.228840 7.095261 1.719740 10053171
-3.018051 6.980850 0.258377 10053171
-5.437680 6.873533 1.045377 10053171
-6.591942 7.080100 2.691370 10053171
-5.113523 6.808502 1.648157 10053171
-3.036622 6.906119 0.767144 10053171
-6.587241 6.979525 1.173482 10053171
-3.064692 7.007949 0.191268 10053171
-6.263267 7.229554 1.907520 10053171
-3.678605 6.932974 1.366451 10053171
-4.165162 7.122311 0.203216 10053171
-3.857082 7.141823 1.804213 10053171
-4.187088 7.025824 1.331100 10053171
-3.078319 6.813118 0.721432 10053171
-5.596638 7.230669 0.118826 10053171
-5.654504 7.029594 2.796041 10053171
-4.797550 6.945104 1.797238 10053171
-5.950029 7.155419 2.035621 10053171
-3.316907 7.109529 0.990689 10053171
-6.483817 6.805745 0.761242 10053171
-6.585707 7.089944 1.924399 10053171
-3.743467 6.859195 0.028548 10053171
-4.628606 7.113145 2.031412 10053171
-5.596009 6.761423 2.659775 10053171
-3.961365 7.104128 0.442783 10053171
-3.908414 6.770998 1.647858 10053171
-5.390598 7.011986 0.795732 10053171
-4.821084 6.819567 1.751080 10053171
-5.791713 6.938895 1.065488 10053171
-6.624745 6.859944 0.169193 10053171
-4.510459 6.947336 1.701686 10053171
-3.726087 7.113484 2.802744 10053171
-5.700329 6.853944 0.078824 10053171
-5.660793 7.038563 0.382278 10053171
-4.258940 6.844758 0.865171 10053171
-5.888470 6.850850 2.051418 10053171
-4.907151 6.827259 2.907248 10053171
-3.215636 6.991428 2.026169 10053171
-3.607786 6.909562 1.086577 10053171
-4.785701 7.147287 2.857512 10053171
-4.499470 7.151559 1.492771 10053171
-3.441445 7.101183 1.061841 10053171
-3.157349 7.177524 0.488024 10053171
-5.430079 7.102007 0.828937 10053171
-6.632470 6.973019 2.578161 10053171
-3.284808 6.908848 2.380579 10053171
-5.845170 7.156906 2.063028 10053171
-4.665936 6.924389 1.483016 10053171
-4.301340 6.839680 2.125756 10053171
-3.010035 6.760526 2.453247 10053171
-3.037072 6.977326 1.080094 10053171
-4.391846 7.204318 0.284345 10053171
-5.503896 7.235031 2.286383 10053171
-5.613426 7.125692 1.120997 10053171
-3.869835 6.885676 1.870224 10053171
-4.660408 7.099818 2.948800 10053171
-4.732921 7.170352 2.695735 10053171
-6.284112 7.051158 1.611074 10053171
-3.117356 7.209238 0.313268 10053171
-4.512838 6.880986 2.818200 10053171
-3.044535 6.912841 1.091931 10053171
-4.445277 7.232345 2.832585 10053171
-5.026202 6.922408 2.693593 10053171
-3.211545 6.980888 0.508483 10053171
-6.005376 6.822895 0.800609 10053171
-4.701597 7.152205 0.298773 10053171
-3.014026 7.051532 0.544514 10053171
-5.420897 6.884689 1.096698 10053171
-3.921590 6.826016 0.624461 10053171
-6.064097 7.001262 2.703394 10053171
-3.295920 6.920332 0.555605 10053171
-5.732037 6.758245 2.828172 10053171
-4.192564 6.844814 0.622906 10053171
-6.605345 6.970444 2.959786 10053171
-6.914881 7.248527 2.507794 10053171
-6.905501 7.205264 0.731183 10053171
-5.274195 6.999900 2.447303 10053171
-5.229066 6.962804 1.281924 10053171
-3.178918 7.155009 1.892004 10053171
-6.392544 6.943689 1.716955 10053171
-4.064202 6.856165 0.135755 10053171
-3.509486 6.896963 0.015586 10053171
-6.122940 6.890824 1.893251 10053171
-3.136289 7.081857 0.779732 10053171
-3.574543 7.022836 2.729519 10053171
-4.245118 7.039787 2.626836 10053171
-3.434929 6.894298 2.442192 10053171
-5.098155 6.888482 2.884738 10053171
-4.455665 7.095218 1.047041 10053171
-6.622575 6.850214 2.041406 10053171
-3.844516 6.871571 2.276014 10053171
-3.555307 6.981069 1.039148 10053171
-4.283634 6.757129 0.870277 10053171
-3.864838 7.019279 1.017698 10053171
-5.352190 6.962327 2.064590 10053171
-3.242018 6.841200 0.494426 10053171
-3.400545 7.254514 0.636396 10053171
-6.366840 6.746270 1.247375 10053171
-5.804041 7.224276 1.570665 10053171
-3.785233 6.897730 0.812185 10053171
-6.578174 6.871489 1.577671 10053171
-4.370290 6.802114 0.981731 10053171
-5.648488 6.932030 0.068356 10053171
-4.412656 6.997679 1.191126 10053171
-4.173876 6.908580 2.120181 10053171
-3.263131 7.164236 1.300208 10053171
-3.742661 7.224931 2.644268 10053171
-5.886467 6.805230 0.027249 10053171
-5.684987 6.791899 1.550655 10053171
-4.954415 6.962573 2.469893 10053171
-6.076856 7.066419 1.123773 10053171
-6.776342 7.257339 2.106510 10053171
-5.455410 6.863242 1.258548 10053171
-6.165579 6.919714 2.921087 10053171
-5.561272 6.787510 2.427439 10053171
-4.518785 7.173630 1.527412 10053171
-5.322504 6.862306 0.626415 10053171
-6.038459 7.237308 1.507601 10053171
-3.509991 6.852233 2.512857 10053171
-5.684564 6.923869 2.295849 10053171
-6.056398 6.974061 1.447051 10053171
-6.596339 6.873710 1.254786 10053171
-6.755216 7.071872 2.603963 10053171
-6.589694 6.870559 1.836484 10053171
-6.072025 6.984157 2.787469 10053171
-4.234822 7.197385 2.774804 10053171
-4.891457 7.083223 2.184815 10053171
-4.866474 7.156781 0.040807 10053171
-4.075562 6.836957 1.563713 10053171
-6.980308 7.216905 0.309187 10053171
-5.485010 7.160148 0.018758 10053171
-3.513628 6.819441 0.738553 10053171
-6.082646 6.799856 0.894230 10053171
-3.545074 6.818186 2.847022 10053171
-3.547493 7.186126 0.895849 10053171
-5.196849 6.819806 2.958900 10053171
-6.945722 6.850885 2.335537 10053171
-4.329041 6.844227 0.583180 10053171
-4.571694 6.858858 0.878125 10053171
-3.486680 6.835259 0.290722 10053171
-6.433133 6.992457 1.149130 10053171
-5.296452 7.225358 1.671921 10053171
-4.212168 7.196045 1.732250 10053171
-5.753780 7.143763 0.936304 10053171
-4.641287 6.965487 2.946306 10053171
-5.839879 7.040359 1.026116 10053171
-5.204353 7.142978 0.288500 10053171
-4.794185 6.840959 2.743782 10053171
-3.335235 6.998836 0.809088 10053171
-3.912852 7.033036 1.806698 10053171
-5.797042 7.008059 1.293659 10053171
-3.325124 6.971320 1.626794 10053171
-2.998122 7.220675 0.819516 10053171
-3.197495 7.217970 2.784873 10053171
-3.154247 7.183955 2.307480 10053171
-6.070181 6.924625 2.245292 10053171
-6.822100 7.040266 2.061799 10053171
-4.066038 6.769441 1.189832 10053171
-3.201710 7.213747 1.694903 10053171
-6.930776 7.166498 1.489884 10053171
-4.289458 6.897108 1.109258 10053171
-5.307219 7.045539 0.093843 10053171
-6.787721 7.157025 2.858520 10053171
-4.211652 6.827716 2.429589 10053171
-3.447704 7.041711 2.645676 10053171
-3.085206 6.779933 1.145743 10053171
-3.489085 7.214384 0.582022 10053171
-3.465373 6.939948 2.300028 10053171
-4.096452 7.073312 2.702927 10053171
-3.759084 7.064130 2.893673 10053171
-5.765578 6.933959 0.474372 10053171
-4.740440 7.115402 1.551377 10053171
5.882013 -5.985566 1.139032 8342706
6.147008 -5.730578 1.800770 8342706
5.442178 -6.083448 3.631955 8342706
6.184363 -6.457803 0.554323 8342706
5.467999 -6.203599 3.043998 8342706
6.173952 -6.435433 4.092827 8342706
6.353164 -6.044887 4.901205 8342706
6.197924 -5.630351 0.315621 8342706
6.011876 -6.171427 3.998255 8342706
6.187235 -5.998043 0.487400 8342706
5.566937 -5.659702 2.005292 8342706
6.152724 -6.430178 3.315209 8342706
6.522922 -5.796468 4.817111 8342706
6.041732 -5.617889 2.383684 8342706
6.466269 -5.976771 1.313276 8342706
6.094426 -6.237259 2.946511 8342706
6.535499 -5.879523 0.309198 8342706
6.343674 -6.429523 2.980220 8342706
6.302085 -5.496495 2.226526 8342706
6.454331 -6.378289 2.659666 8342706
6.187827 -6.101015 2.963697 8342706
6.279479 -5.564637 2.039338 8342706
5.610598 -6.286200 3.520309 8342706
5.817598 -5.562223 0.190884 8342706
5.636374 -5.751272 0.510151 8342706
6.493776 -5.784465 1.416675 8342706
6.012328 -5.419913 0.779795 8342706
6.202664 -6.326695 1.493055 8342706
6.437724 -6.157655 1.602325 8342706
6.526789 -6.052566 3.490899 8342706
5.624238 -6.193917 3.382604 8342706
5.833069 -6.175846 4.720876 8342706
5.778602 -5.539472 2.036114 8342706
6.347370 -5.790191 2.907469 8342706
6.252012 -5.924312 3.531685 8342706
5.447037 -6.103444 0.548493 8342706
6.383636 -5.802146 1.993824 8342706
5.923951 -5.790977 1.725178 8342706
5.734453 -5.885696 3.153560 8342706
5.669466 -6.184016 1.849528 8342706
5.797660 -5.510963 0.764049 8342706
6.465203 -6.083102 0.387200 8342706
6.004144 -6.130412 4.286067 8342706
5.590931 -6.175845 4.559495 8342706
5.722896 -5.752713 4.168668 8342706
5.752936 -5.912415 3.116328 8342706
6.052612 -5.991905 1.436494 8342706
6.405929 -6.295651 2.020202 8342706
5.645119 -5.711961 3.082687 8342706
6.290774 -6.075364 3.899662 8342706
5.424842 -5.993238 4.578457 8342706
5.958559 -5.457437 4.480422 8342706
5.491267 -5.953699 3.244188 8342706
6.409516 -5.924273 1.943762 8342706
6.164876 -6.478723 4.299309 8342706
6.383471 -5.881038 1.201363 8342706
5.415759 -5.956119 2.341480 8342706
5.502813 -5.741096 4.323703 8342706
6.424724 -5.996117 3.006489 8342706
6.111642 -5.662384 4.847986 8342706
6.280269 -5.856217 2.132587 8342706
5.798165 -5.485092 2.081089 8342706
5.884237 -6.334505 3.522493 8342706
5.989908 -5.487351 3.502341 8342706
5.761209 -6.018605 4.501264 8342706
5.853628 -6.095114 1.742663 8342706
6.170928 -5.742410 2.010427 8342706
6.158350 -6.282750 1.943509 8342706
5.780092 -6.230698 1.524749 8342706
5.609635 -6.225454 1.040024 8342706
5.846302 -6.394004 1.246265 8342706
5.946554 -5.951898 3.017157 8342706
6.076872 -6.129280 4.766972 8342706
5.787584 -5.815235 0.614543 8342706
5.725377 -6.084606 2.504312 8342706
5.952585 -6.004060 3.153848 8342706
5.473248 -6.194074 1.917490 8342706
6.085204 -5.590477 0.158972 8342706
6.434749 -5.919291 1.238215 8342706
6.553284 -6.064630 3.878575 8342706
6.048408 -6.209744 3.277766 8342706
5.560509 -5.659886 1.957353 8342706
6.106795 -6.280216 4.459888 8342706
6.094363 -5.583861 4.658942 8342706
6.434804 -5.694947 0.220208 8342706
5.984389 -6.162224 2.703167 8342706
6.225284 -5.980624 2.436126 8342706
5.496409 -6.159589 3.699154 8342706
6.049395 -6.311153 2.010769 8342706
5.879552 -6.346450 1.005315 8342706
6.190372 -6.421489 4.435280 8342706
5.555177 -5.950754 3.864868 8342706
5.700181 -6.383222 2.510814 8342706
6.118690 -6.488254 1.402707 8342706
5.838594 -5.900667 4.556471 8342706
5.597793 -5.763988 2.356198 8342706
6.452415 -5.862606 2.599883 8342706
6.111175 -6.421511 0.598973 8342706
5.564344 -6.140294 1.864937 8342706
6.337985 -6.048321 1.868037 8342706
6.581624 -6.040538 3.646061 8342706
5.659050 -6.369626 0.630517 8342706
5.679625 -6.447355 0.747931 8342706
6.212264 -6.019713 2.566540 8342706
5.637033 -5.992595 3.280874 8342706
5.762743 -5.599479 4.723891 8342706
5.769348 -6.246702 4.010927 8342706
5.646749 -5.854759 1.204057 8342706
6.419809 -5.977573 4.441179 8342706
5.831787 -5.639527 3.505066 8342706
6.014767 -5.822288 0.934869 8342706
6.152165 -6.340636 1.752319 8342706
6.125188 -5.804450 1.585740 8342706
5.956002 -5.775459 4.099239 8342706
6.043581 -6.206830 4.603808 8342706
5.771563 -6.152012 0.224084 8342706
5.908364 -5.641012 1.672657 8342706
6.190031 -5.615321 3.874839 8342706
5.696343 -5.959887 3.134171 8342706
5.789759 -6.189024 2.587013 8342706
5.687547 -5.855968 2.911515 8342706
5.624910 -6.236017 3.722477 8342706
5.896098 -6.593038 1.081916 8342706
6.119678 -5.811264 1.655728 8342706
6.296314 -6.311991 0.557940 8342706
6.361970 -5.689148 2.302214 8342706
6.157769 -5.558974 3.087346 8342706
5.691486 -5.691281 1.213703 8342706
6.001034 -5.731255 3.689602 8342706
6.227298 -6.025384 4.401150 8342706
6.493894 -6.101717 2.705287 8342706
6.343758 -6.147606 3.370800 8342706
5.679773 -6.303738 4.706890 8342706
6.300003 -5.531100 4.635413 8342706
5.991842 -6.228617 3.545843 8342706
5.770503 -5.654561 2.611030 8342706
6.089292 -6.557725 4.499915 8342706
5.534933 -5.770097 4.263072 8342706
5.533043 -6.125866 2.881229 8342706
6.108967 -5.626714 2.472773 8342706
5.683411 -5.878104 4.036881 8342706
5.869575 -5.417185 3.038593 8342706
6.501620 -5.823840 0.121532 8342706
6.054987 -5.449743 0.399976 8342706
6.385244 -5.727999 0.059727 8342706
6.069342 -5.752306 0.513565 8342706
5.660833 -5.729497 3.080794 8342706
6.338976 -6.225046 1.516023 8342706
6.136611 -5.802986 2.481979 8342706
5.760983 -6.168155 1.591554 8342706
5.985668 -6.207651 0.131834 8342706
5.845888 -6.052844 3.760875 8342706
5.736422 -6.156477 3.380104 8342706
6.294374 -6.275321 4.586814 8342706
6.306427 -6.445922 3.376447 8342706
6.014230 -6.544815 4.171845 8342706
6.002939 -5.681954 4.218971 8342706
5.692954 -5.626303 4.235690 8342706
6.180746 -5.877100 1.874093 8342706
5.514298 -6.224481 4.649234 8342706
5.901550 -6.320141 4.720655 8342706
6.063033 -6.444490 1.333371 8342706
6.111963 -5.627155 2.051580 8342706
5.959496 -6.212320 1.704556 8342706
6.038882 -6.023005 4.543895 8342706
6.080943 -5.629810 1.134791 8342706
6.127039 -6.289602 1.575388 8342706
5.722576 -5.745026 0.115754 8342706
6.332314 -6.201127 3.045003 8342706
6.104969 -5.581761 2.622036 8342706
6.273834 -5.819093 1.000142 8342706
5.612474 -6.089135 1.898389 8342706
5.720067 -5.668962 2.254129 8342706
5.789737 -5.655996 2.594804 8342706
5.529012 -5.926877 3.586827 8342706
6.012596 -5.812570 1.872180 8342706
5.711328 -5.876191 1.457448 8342706
5.743296 -6.266099 2.849475 8342706
6.018713 -6.334037 4.894234 8342706
5.977398 -6.435267 4.809185 8342706
6.076717 -5.630004 3.837847 8342706
5.626891 -5.570546 2.014208 8342706
6.546275 -6.044130 4.227870 8342706
5.670463 -5.574975 1.940927 8342706
6.095309 -6.462878 1.703882 8342706
5.599006 -6.240728 1.877241 8342706
6.306277 -5.907503 3.510697 8342706
6.475537 -5.809391 3.823277 8342706
6.438837 -6.117415 3.857991 8342706
6.126014 -5.832647 3.362594 8342706
6.134408 -6.419834 1.032543 8342706
5.667694 -6.153116 3.331133 8342706
6.504135 -6.310068 0.115124 8342706
6.392340 -6.095180 4.931775 8342706
5.442788 -5.923148 3.779417 8342706
6.480808 -6.028852 0.230847 8342706
6.267234 -5.658152 3.731811 8342706
6.099281 -6.004484 2.469719 8342706
6.255566 -5.993785 0.675586 8342706
6.427804 -5.966631 2.422468 8342706
6.105280 -6.517958 2.776791 8342706
6.401051 -6.091159 1.385027 8342706
6.200539 -5.647113 1.092030 8342706
6.266431 -5.593352 4.332237 8342706
6.165461 -6.450809 0.731298 8342706
5.641852 -6.052182 3.179144 8342706
6.516621 -5.792496 1.094227 8342706
6.165442 -5.784073 2.584983 8342706
5.990709 -6.064457 2.551873 8342706
6.396048 -5.700043 1.828912 8342706
5.977678 -6.116833 3.844584 8342706
6.482328 -5.995156 1.576042 8342706
5.525696 -6.257987 0.718668 8342706
5.806236 -6.365003 5.004516 8342706
6.464430 -5.764087 3.971519 8342706
6.236373 -6.020718 0.125867 8342706
6.273153 -5.825642 3.567600 8342706
6.496458 -6.091045 4.588361 8342706
5.921810 -6.048862 3.126780 8342706
6.391176 -6.268442 1.758060 8342706
6.038435 -5.440986 1.966954 8342706
5.425973 -5.948081 4.249748 8342706
6.090267 -6.070158 2.972760 8342706
6.253201 -5.935662 3.235486 8342706
5.642997 -6.169755 3.367908 8342706
6.123903 -6.377099 4.414930 8342706
6.094057 -5.518034 4.127838 8342706
5.927743 -5.865684 2.910656 8342706
5.428765 -6.116971 2.064822 8342706
6.319332 -6.412265 4.875926 8342706
5.638608 -6.375759 2.934030 8342706
6.324963 -6.336386 2.373604 8342706
6.421950 -5.816737 1.057951 8342706
6.449818 -5.871237 2.276748 8342706
5.985215 -5.542362 2.063857 8342706
6.223281 -5.762919 0.471572 8342706
5.886592 -6.282542 1.591166 8342706
6.395144 -5.767223 2.455907 8342706
6.374146 -5.551618 4.079301 8342706
6.454230 -6.172993 1.489729 8342706
6.189337 -5.797252 3.246725 8342706
5.713913 -6.398032 3.089062 8342706
6.264922 -5.563069 4.477831 8342706
6.045728 -5.909978 0.776940 8342706
5.594045 -6.371654 4.396112 8342706
5.601755 -5.759491 4.281302 8342706
6.212024 -5.840511 1.363300 8342706
5.742476 -5.804245 1.063745 8342706
5.871959 -6.103771 0.618881 8342706
6.204042 -5.455929 1.182940 8342706
6.300218 -5.519307 1.174191 8342706
5.644848 -6.261959 4.282474 8342706
5.932247 -6.055317 4.931888 8342706
6.196398 -5.570436 3.784583 8342706
5.661493 -6.028278 4.262631 8342706
6.087361 -6.581400 4.282566 8342706
5.704971 -5.744093 3.965980 8342706
5.555605 -6.079171 3.775610 8342706
6.220775 -6.410782 1.035766 8342706
6.558289 -5.958380 0.494943 8342706
5.994757 -5.554549 2.906638 8342706
6.213677 -6.393029 1.650414 8342706
5.502741 -6.219915 3.922360 8342706
5.614936 -6.442900 2.812865 8342706
5.816013 -5.477891 2.259755 8342706
6.531566 -6.220052 2.075733 8342706
6.058925 -6.364584 0.521289 8342706
5.454370 -5.872819 2.577437 8342706
5.830890 -5.670959 2.546840 8342706
6.289000 -6.085625 0.219522 8342706
6.066635 -5.595191 4.343239 8342706
6.528528 -6.277303 4.436020 8342706
5.799809 -6.394466 4.430729 8342706
5.457307 -5.774245 4.336394 8342706
5.961402 -5.479663 1.504745 8342706
6.541934 -6.209083 4.012022 8342706
6.382654 -6.162324 1.436314 8342706
5.830317 -6.176908 3.764004 8342706
6.118048 -6.327634 1.919763 8342706
5.559626 -5.639172 3.386239 8342706
5.795300 -6.450157 3.526955 8342706
5.505728 -5.703059 3.906359 8342706
6.163101 -5.559477 0.047349 8342706
6.347901 -5.952641 2.632912 8342706
6.381681 -6.078375 1.757485 8342706
5.790854 -5.788758 3.226945 8342706
6.011675 -5.822586 3.187053 8342706
6.324139 -6.052590 2.028390 8342706
6.359166 -5.809554 2.194001 8342706
6.056290 -5.781429 0.104693 8342706
5.818762 -6.039227 0.102942 8342706
6.227743 -6.460508 0.880509 8342706
6.336462 -6.476783 0.749736 8342706
6.144201 -6.352801 4.225839 8342706
5.849618 -6.512404 1.824115 8342706
5.648952 -5.925704 0.978805 8342706
5.782415 -5.663961 2.702225 8342706
6.187788 -5.730157 0.419199 8342706
6.075889 -5.425423 2.096210 8342706
6.006190 -6.498855 1.062189 8342706
6.246731 -5.545379 1.270951 8342706
6.439196 -5.677062 3.639591 8342706
6.472833 -6.251305 0.310688 8342706
5.774250 -5.904640 3.999236 8342706
6.171721 -6.107755 1.734942 8342706
6.097748 -6.224838 3.242488 8342706
5.617343 -6.239441 3.680226 8342706
6.538547 -6.159748 1.832690 8342706
6.273077 -6.226160 1.702753 8342706
5.565511 -5.803483 2.471554 8342706
6.378018 -6.420519 2.031678 8342706
6.123738 -6.217136 3.589922 8342706
6.162752 -6.571619 4.298956 8342706
6.438321 -6.387568 3.686430 8342706
6.128144 -5.549785 2.031293 8342706
6.094893 -5.458832 0.891192 8342706
6.165783 -6.440721 1.173445 8342706
5.685623 -6.068244 0.119683 8342706
5.832786 -5.610585 2.628066 8342706
5.787371 -6.386063 2.628230 8342706
6.108875 -5.473208 3.480747 8342706
5.775131 -6.291040 3.370268 8342706
6.315344 -6.345855 1.101747 8342706
5.789218 -6.523288 4.748358 8342706
6.246459 -5.665398 4.903839 8342706
5.993605 -6.472059 1.863294 8342706
5.677822 -5.787284 0.307560 8342706
6.309644 -5.537454 4.314961 8342706
5.595661 -5.848050 4.368463 8342706
6.221739 -5.587453 0.485122 8342706
6.290035 -6.354317 4.009067 8342706
6.185022 -6.539526 0.584286 8342706
6.191231 -5.853117 1.017578 8342706
6.430863 -6.152322 2.768991 8342706
6.039680 -6.382375 3.711394 8342706
6.007840 -5.546169 2.055891 8342706
6.468067 -6.186335 3.279151 8342706
6.125138 -5.464158 0.244876 8342706
5.496111 -5.700971 4.408675 8342706
6.174937 -6.347646 1.668592 8342706
6.427615 -5.599913 1.859510 8342706
5.866552 -6.113933 0.925757 8342706
6.363735 -5.597662 3.702167 8342706
5.623632 -6.130732 3.751736 8342706
6.513521 -5.929505 1.172468 8342706
5.720608 -6.011617 2.431441 8342706
6.258429 -6.319717 2.957133 8342706
5.721187 -6.402077 4.074119 8342706
6.032826 -6.292377 3.915759 8342706
6.395035 -5.551037 4.926804 8342706
6.517989 -6.285245 4.655962 8342706
6.028440 -5.929770 3.876540 8342706
6.172612 -6.394319 4.332154 8342706
5.739739 -6.200567 1.983597 8342706
6.458154 -5.875175 2.100313 8342706
6.438775 -5.982889 2.203185 8342706
5.850405 -5.438221 1.061681 8342706
6.484013 -5.797824 0.281864 8342706
5.856497 -5.476805 1.386167 8342706
6.248940 -5.699888 4.829057 8342706
5.965559 -5.646660 1.238196 8342706
6.491581 -5.808681 2.273890 8342706
5.815805 -6.241478 3.673369 8342706
6.262435 -6.190362 1.516855 8342706
5.977773 -6.395347 3.969062 8342706
6.000477 -5.831793 2.281528 8342706
6.174470 -6.041552 4.107266 8342706
6.177925 -6.392964 4.350513 8342706
6.280288 -5.596756 4.753740 8342706
6.352915 -5.820563 3.618419 8342706
5.988569 -5.782410 3.166967 8342706
6.551883 -5.889231 3.033490 8342706
6.261961 -5.865273 2.834762 8342706
6.283807 -6.341717 1.997642 8342706
5.774437 -5.685549 3.597175 8342706
5.717773 -5.716915 3.080292 8342706
6.263996 -5.966602 1.460250 8342706
6.379482 -6.220979 1.084652 8342706
5.839437 -5.579448 2.963341 8342706
5.506712 -5.895263 0.127635 8342706
5.633480 -5.655441 0.450263 8342706
5.614971 -5.582922 2.872116 8342706
6.001974 -5.527689 2.143882 8342706
5.518579 -6.108237 1.882381 8342706
6.118548 -5.487082 3.472471 8342706
5.444315 -5.904647 4.598319 8342706
5.481452 -5.778243 2.933152 8342706
6.185145 -6.310336 1.874291 8342706
5.538476 -6.385846 0.854180 8342706
5.889356 -6.485878 1.614893 8342706
6.083663 -6.349608 3.422283 8342706
5.947263 -6.497483 4.591857 8342706
6.339425 -6.171870 0.792236 8342706
6.494423 -6.322568 1.444347 8342706
6.551968 -5.903345 3.387473 8342706
5.572239 -6.088712 1.111405 8342706
6.283110 -6.284163 1.948622 8342706
6.156005 -6.290109 2.942573 8342706
6.048616 -6.518066 4.963805 8342706
5.973270 -6.450614 0.609599 8342706
6.277429 -5.757538 1.734998 8342706
6.384714 -5.950580 1.289554 8342706
6.217496 -6.421227 0.460977 8342706
6.299839 -6.133638 2.896430 8342706
6.479437 -6.139619 0.093850 8342706
6.098042 -5.653788 1.215322 8342706
6.484018 -6.277308 4.290181 8342706
6.458903 -5.647142 4.798546 8342706
6.491071 -6.171801 3.644026 8342706
6.322597 -6.338744 1.603875 8342706
5.736720 -6.298703 0.437184 8342706
6.156303 -5.582170 2.702092 8342706
6.232381 -6.054265 3.843889 8342706
6.306337 -5.825787 0.388457 8342706
6.195745 -5.873904 3.938852 8342706
5.767336 -6.417777 3.282357 8342706
6.408017 -6.202926 -0.005944 8342706
6.351051 -5.760411 1.345341 8342706
6.266220 -6.002031 4.219467 8342706
6.354658 -6.096682 2.040076 8342706
5.765501 -5.570329 4.384672 8342706
5.859059 -6.024670 0.848504 8342706
6.019385 -5.743002 4.174386 8342706
5.501084 -5.730144 3.993239 8342706
6.466078 -6.125979 1.758019 8342706
6.271385 -6.465049 1.703171 8342706
6.260680 -6.189725 4.616277 8342706
5.537719 -6.329288 1.215322 8342706
6.009874 -6.233888 3.455631 8342706
