# .PCD v0.7 - Point Cloud Data file format
VERSION 0.7
FIELDS x y z rgb
SIZE 4 4 4 4
TYPE F F F U
COUNT 1 1 1 1
WIDTH 1309
HEIGHT 1
VIEWPOINT 0 0 0 1 0 0 0
POINTS 1309
DATA ascii
-5.271944 6.384093 1.312915 15014169
-4.867480 6.274733 0.504723 15014169
-4.757214 6.250096 1.055625 15014169
-4.978960 6.082334 0.918680 15014169
-4.733515 5.943364 0.392477 15014169
-4.644804 6.072336 1.369271 15014169
-4.826270 6.113297 0.498567 15014169
-5.124521 6.051969 1.088561 15014169
-4.747167 5.978969 0.862080 15014169
-4.695437 6.325502 0.454721 15014169
-5.188596 6.178948 1.088032 15014169
-4.623190 6.270019 1.408137 15014169
-5.128687 6.096589 1.187065 15014169
-5.316206 6.100855 0.935192 15014169
-5.063929 5.922398 1.544981 15014169
-5.275535 5.979291 0.732793 15014169
-4.617131 5.740325 0.938819 15014169
-5.065430 6.231069 1.269251 15014169
-4.840747 6.387250 1.611879 15014169
-5.256339 5.828104 0.370657 15014169
-4.672376 6.429772 0.821700 15014169
-5.268149 5.830666 1.522604 15014169
-4.977603 5.873524 1.185564 15014169
-4.769035 6.053938 0.333425 15014169
-5.050906 6.354586 0.465437 15014169
-5.227640 6.297013 0.480928 15014169
-5.203079 5.902260 0.711948 15014169
-5.084002 6.284941 0.631778 15014169
-5.246165 5.812033 0.798524 15014169
-5.153710 6.326317 1.142465 15014169
-5.120644 6.452456 0.877015 15014169
-4.671701 5.919192 0.738514 15014169
-4.633362 5.807750 1.533162 15014169
-4.628230 5.988710 1.590134 15014169
-4.697773 6.437897 0.449826 15014169
-4.894989 6.286477 1.330505 15014169
-4.733501 5.749284 1.625638 15014169
-5.203416 5.748955 1.657944 15014169
-5.185177 6.311608 0.319274 15014169
-5.268125 5.812194 1.192780 15014169
-5.143920 6.060437 1.659550 15014169
-5.166876 5.906258 0.997524 15014169
-5.103488 6.115723 0.918948 15014169
-5.085441 5.739591 1.376156 15014169
-4.696544 6.001004 0.961155 15014169
-5.260779 6.269351 0.628441 15014169
-5.234187 5.835630 0.584282 15014169
-4.827482 6.035065 1.279103 15014169
-5.215486 5.897759 1.451314 15014169
-5.307940 5.914892 1.471668 15014169
-4.828750 5.928564 1.458912 15014169
-5.177932 6.109701 1.135238 15014169
-4.624111 6.206558 0.790983 15014169
-4.940867 5.926681 1.697883 15014169
-5.021903 5.810468 1.665838 15014169
-4.679653 6.105706 0.351271 15014169
-4.724387 6.360093 1.177224 15014169
-5.116816 6.404784 0.320245 15014169
-5.095207 5.994943 1.487119 15014169
-5.308205 6.200137 1.074097 15014169
-5.058467 5.790790 0.516993 15014169
-4.835427 5.775168 0.381537 15014169
-4.994716 6.121689 0.307192 15014169
-4.927141 5.829523 0.458595 15014169
-4.849072 5.961388 1.364988 15014169
2.312100 -9.334058 0.609889 1690649
2.042918 -9.767795 0.781027 1690649
2.265217 -9.722830 0.708864 1690649
1.687797 -9.789063 1.316385 1690649
2.345405 -9.591590 0.478294 1690649
2.056514 -9.544129 0.613500 1690649
2.292432 -9.631024 1.018188 1690649
2.042896 -9.719867 1.075593 1690649
2.543811 -9.718769 1.307871 1690649
1.888096 -9.666028 0.935889 1690649
2.489538 -9.561227 0.548649 1690649
2.172311 -9.766721 1.755696 1690649
2.098269 -10.008208 0.186022 1690649
1.810484 -9.436936 1.074781 1690649
2.193122 -9.347526 1.042226 1690649
2.322895 -9.976369 1.158615 1690649
2.506763 -9.762936 1.016417 1690649
1.945287 -9.783479 0.580756 1690649
2.269232 -9.526320 1.394115 1690649
2.195850 -9.691350 1.124808 1690649
2.211921 -9.282158 1.729665 1690649
2.201758 -10.037683 1.165537 1690649
1.717473 -9.800176 0.871315 1690649
1.692970 -9.812841 0.898042 1690649
1.847076 -9.268576 1.520594 1690649
2.272757 -9.752124 1.854031 1690649
1.787388 -9.735152 1.416744 1690649
2.285698 -9.353788 1.827053 1690649
2.112365 -9.956316 0.632363 1690649
2.346964 -9.402040 1.236878 1690649
1.933403 -9.309018 1.416496 1690649
1.941852 -9.501389 1.607393 1690649
2.479120 -9.830069 0.968529 1690649
1.915484 -9.539012 0.758051 1690649
2.111135 -9.755256 1.061902 1690649
2.392692 -9.267465 1.106055 1690649
1.707137 -9.604095 0.537864 1690649
2.174191 -9.420413 0.611179 1690649
1.806003 -9.758821 1.293370 1690649
2.160694 -9.398260 1.867208 1690649
2.281128 -9.501723 1.071335 1690649
1.952326 -9.948057 0.358129 1690649
2.249692 -9.484059 1.892944 1690649
2.097387 -9.923788 1.014048 1690649
1.837733 -9.317563 1.895529 1690649
2.309151 -9.786433 1.120798 1690649
2.145968 -9.966027 1.427788 1690649
2.072245 -9.457153 0.995808 1690649
1.954012 -9.224208 1.033778 1690649
2.069620 -9.287319 1.363003 1690649
1.917944 -9.488331 1.208732 1690649
2.260979 -9.211711 0.407911 1690649
2.503269 -9.530057 1.517694 1690649
1.875032 -9.428082 1.029642 1690649
1.705316 -9.807910 1.850521 1690649
2.036995 -9.977594 1.692578 1690649
1.920336 -9.731124 0.796229 1690649
1.943786 -9.485275 0.596138 1690649
2.434682 -9.888515 0.936653 1690649
2.070230 -9.654387 1.470054 1690649
1.759507 -9.645701 0.928305 1690649
2.260723 -9.629566 0.120210 1690649
1.895844 -9.491686 0.202334 1690649
2.141522 -10.010418 0.181476 1690649
2.091145 -9.369476 0.959664 1690649
2.207904 -9.838376 1.743194 1690649
1.914828 -9.922866 1.661620 1690649
2.154743 -10.075584 1.756005 1690649
1.883106 -9.484270 0.235473 1690649
1.785903 -9.754658 0.356930 1690649
1.900943 -9.518902 1.337778 1690649
2.232618 -9.766777 0.642703 1690649
1.936669 -9.874272 1.649888 1690649
2.478185 -9.685457 1.152814 1690649
2.252555 -9.656270 0.098431 1690649
2.077340 -9.279493 1.243411 1690649
2.156512 -9.452766 0.229781 1690649
2.092365 -9.979734 1.112919 1690649
2.409303 -9.668109 0.730530 1690649
2.278639 -9.349429 1.183522 1690649
2.027802 -9.217727 0.216694 1690649
2.088114 -9.830829 0.477625 1690649
2.197001 -9.457886 0.917520 1690649
1.947629 -9.578623 1.772244 1690649
1.765986 -9.530056 0.701449 1690649
2.215556 -9.984907 0.186136 1690649
2.042571 -9.989351 1.464277 1690649
1.948040 -9.906221 0.128582 1690649
2.335312 -9.472159 1.507476 1690649
2.408610 -9.834578 1.278823 1690649
2.124871 -9.338013 1.676731 1690649
2.044034 -9.296569 1.108662 1690649
2.325796 -9.332227 0.756067 1690649
1.897148 -9.708109 0.180539 1690649
1.894217 -9.286875 1.248555 1690649
2.382268 -9.913424 0.589922 1690649
1.916379 -9.501843 1.659043 1690649
2.034695 -9.603235 1.908503 1690649
2.392836 -9.456252 0.488467 1690649
1.968128 -9.859022 1.605687 1690649
1.768792 -9.843680 0.967948 1690649
1.982733 -9.339760 1.734142 1690649
1.943135 -9.893794 1.460514 1690649
1.800065 -9.402432 0.631272 1690649
1.900598 -9.406748 0.134212 1690649
1.797838 -9.946207 1.135527 1690649
1.845501 -9.393589 0.623110 1690649
1.906183 -9.421839 1.074425 1690649
1.775264 -9.833285 0.777823 1690649
1.901645 -9.750546 1.256104 1690649
2.463637 -9.908524 0.146721 1690649
2.127016 -9.217175 1.894099 1690649
2.526906 -9.520329 0.975946 1690649
2.315597 -10.001009 1.820591 1690649
2.480773 -9.553548 1.440953 1690649
2.224349 -9.892401 1.044948 1690649
2.367343 -9.448144 1.354457 1690649
2.135649 -9.964510 1.141500 1690649
2.042553 -9.285131 0.759902 1690649
2.158538 -10.025889 0.145741 1690649
1.726105 -9.669765 0.962716 1690649
1.806126 -9.389476 0.301053 1690649
2.416450 -9.509538 1.328647 1690649
2.328853 -9.912802 0.093111 1690649
1.878278 -9.635759 1.055459 1690649
2.148019 -9.838726 0.257423 1690649
1.736487 -9.683601 0.947536 1690649
2.093731 -9.925697 0.487771 1690649
2.473511 -9.468339 0.688542 1690649
1.800574 -9.545512 1.849435 1690649
1.998089 -9.512620 0.236727 1690649
2.219632 -9.651978 0.469176 1690649
2.424829 -9.927157 0.890578 1690649
1.694601 -9.471214 1.408547 1690649
1.855811 -9.535159 1.540395 1690649
1.916941 -9.622799 0.313094 1690649
2.305873 -9.931564 1.438925 1690649
2.040672 -9.666620 0.510577 1690649
2.315701 -9.766968 1.365052 1690649
2.228697 -9.424320 0.216703 1690649
1.732331 -9.668656 0.666472 1690649
2.514056 -9.745259 0.756996 1690649
2.391196 -9.522775 1.308830 1690649
1.976411 -9.554750 0.893811 1690649
1.811407 -9.637195 0.631921 1690649
2.534341 -9.475565 1.197804 1690649
2.160933 -9.775541 1.274886 1690649
1.941835 -9.551970 1.697633 1690649
2.131037 -9.233318 1.197611 1690649
2.509225 -9.639098 1.270046 1690649
2.313560 -9.816061 0.524409 1690649
1.878843 -9.630960 1.015657 1690649
2.197614 -9.615360 1.206054 1690649
2.268308 -9.733024 0.708297 1690649
-4.379381 7.169532 0.474574 10053171
-5.961811 7.071202 0.431169 10053171
-4.454263 6.975193 2.341685 10053171
-5.164866 7.164335 2.887923 10053171
-3.842042 6.986483 0.284445 10053171
-6.685606 6.759384 2.494558 10053171
-4.110266 7.139518 2.549620 10053171
-3.175875 6.963788 1.366162 10053171
-4.392457 6.976584 0.509226 10053171
-3.516513 7.195914 2.566304 10053171
-3.675272 7.198318 2.490945 10053171
-3.270141 6.980834 0.855505 10053171
-3.983581 7.061466 0.163371 10053171
-4.972116 6.817241 1.162578 10053171
-6.817353 6.991723 0.179417 10053171
-4.610705 7.108726 2.212202 10053171
-6.423555 6.988335 1.221380 10053171
-4.653862 6.962684 0.444310 10053171
-6.912309 6.751378 2.836650 10053171
-6.303238 7.230600 2.887861 10053171
-6.067301 7.070885 0.752795 10053171
-6.120915 6.791679 2.803034 10053171
-3.719384 6.852695 2.240074 10053171
-4.825810 7.062006 2.509276 10053171
-6.582226 6.985772 2.649754 10053171
-6.061834 7.161860 1.098684 10053171
-3.409524 7.140893 1.459585 10053171
-4.610157 6.971768 1.355200 10053171
-6.006047 7.253414 2.388574 10053171
-6.667948 7.019232 2.949844 10053171
-6.876002 7.075655 1.117391 10053171
-5.988125 6.762833 0.136331 10053171
-6.127512 7.026330 1.959480 10053171
-3.869685 6.968573 0.583403 10053171
-4.725364 7.154316 0.121685 10053171
-5.878352 7.174320 2.071340 10053171
-4.833478 6.954471 1.398620 10053171
-5.485700 7.248299 2.754097 10053171
-5.037659 6.761153 1.313713 10053171
-6.184628 6.979638 2.536628 10053171
-4.469582 6.926954 2.125703 10053171
-4.104020 7.112659 1.115796 10053171
-3.853917 6.773821 0.898378 10053171
-4.735347 6.932407 2.236249 10053171
-5.551012 6.971717 0.650112 10053171
-3.801727 7.059514 1.182153 10053171
-3.495374 7.066827 2.121006 10053171
-4.291070 7.199875 0.706101 10053171
-4.118698 7.259758 2.549730 10053171
-5.299530 6.969749 1.597899 10053171
-6.766593 7.067816 2.613310 10053171
-5.696701 6.975051 1.219483 10053171
-5.769050 6.859250 2.785994 10053171
-3.551856 6.871110 2.704262 10053171
-3.075011 6.885025 0.612955 10053171
-5.031378 7.037503 2.184090 10053171
-3.525704 7.064212 0.816291 10053171
-5.443599 7.045464 1.612822 10053171
-3.323159 7.074810 2.196427 10053171
-6.453588 7.193821 0.044157 10053171
-6.373764 6.749296 2.589760 10053171
-4.398791 6.951071 2.929756 10053171
-6.318585 6.942043 0.876607 10053171
-3.756787 7.165327 1.037207 10053171
-3.555595 7.084413 2.690785 10053171
-4.171939 6.932676 2.138807 10053171
-6.360559 6.789405 1.047524 10053171
-3.780125 7.017135 1.936774 10053171
-3.868495 7.061659 1.242490 10053171
-5.452192 7.211635 0.704732 10053171
-5.949496 6.924307 2.536460 10053171
-3.275108 6.904807 1.502317 10053171
-6.803197 6.757370 2.263866 10053171
-3.710163 6.989493 0.992841 10053171
-6.508196 7.211483 1.589156 10053171
-5.309231 6.987755 0.840962 10053171
-6.476435 6.885643 0.453731 10053171
-4.534445 7.084213 2.282109 10053171
-6.736284 7.163609 1.143477 10053171
-4.036469 6.891398 0.255494 10053171
-5.772185 7.225031 0.700882 10053171
-6.968047 7.054632 2.917702 10053171
-3.128099 7.071931 2.174243 10053171
-4.128319 7.102375 0.065533 10053171
-4.442744 7.165138 1.347324 10053171
-6.608824 7.229362 0.424738 10053171
-5.834030 6.860988 0.151809 10053171
-3.252612 6.889143 0.148695 10053171
-6.523752 6.945393 1.322754 10053171
-5.959777 6.850034 0.005385 10053171
-5.457962 7.050229 1.778012 10053171
-6.390996 7.015279 2.963533 10053171
-6.082879 6.839523 2.951451 10053171
-4.243499 7.211232 1.431378 10053171
-4.297889 7.102743 2.217358 10053171
-3.903297 7.196101 2.401121 10053171
-5.661487 7.217538 0.402462 10053171
-5.354581 6.910341 0.444593 10053171
-3.332971 6.953154 0.992348 10053171
-6.873148 6.953223 0.234555 10053171
-4.490875 6.820357 1.769682 10053171
-6.246263 7.228645 1.525283 10053171
-3.852893 7.195224 0.866841 10053171
-3.769861 6.943293 2.103181 10053171
-4.823040 7.141779 1.245693 10053171
-5.641448 7.253146 1.585102 10053171
-4.240374 6.971066 0.415223 10053171
-5.513998 7.192113 0.330119 10053171
-3.266411 7.077954 0.125980 10053171
-5.110316 6.772106 1.799562 10053171
-5.623762 7.063754 2.633420 10053171
-5.443803 6.873002 2.386359 10053171
-4.474022 6.923673 0.694683 10053171
-4.782380 6.940787 2.330401 10053171
-6.502530 6.958489 1.164023 10053171
-5.729556 6.787687 1.389452 10053171
-4.586614 6.917354 1.790654 10053171
-4.049312 7.085278 2.545551 10053171
-3.308184 7.037713 0.195222 10053171
-4.639217 6.752668 1.403555 10053171
-3.802612 7.207592 0.824063 10053171
-5.174742 6.864729 0.234880 10053171
-6.440833 6.778074 0.303947 10053171
-5.593310 7.028525 0.826117 10053171
-3.149489 7.173012 1.559209 10053171
-5.385800 7.084075 2.718317 10053171
-5.323328 6.930717 2.709215 10053171
-4.374645 6.886926 0.766880 10053171
-6.954935 7.121815 2.666014 10053171
-4.284567 7.046683 2.878001 10053171
-4.876287 6.990192 0.255542 10053171
-6.469307 6.914646 2.235232 10053171
-5.373940 6.901155 1.750505 10053171
-5.250711 7.059685 1.644987 10053171
-4.651784 6.829131 0.809981 10053171
-3.264756 6.837884 0.439819 10053171
-4.001785 6.935577 1.227934 10053171
-3.745908 7.236944 0.790176 10053171
-5.121922 7.034295 2.764896 10053171
-4.747786 7.169580 1.095996 10053171
-5.642977 6.791102 2.537660 10053171
-5.412912 7.157974 2.285287 10053171
-6.039376 7.013662 2.988847 10053171
-3.701921 6.935085 1.056973 10053171
-4.221710 7.087304 2.735580 10053171
-5.925827 7.055482 0.644686 10053171
-4.960754 6.817761 2.323713 10053171
-3.936409 6.810986 1.357706 10053171
-6.010434 7.202801 1.722350 10053171
-3.614632 7.198043 0.387547 10053171
-5.863979 6.923984 2.273026 10053171
-6.548416 6.868806 1.758200 10053171
-4.780766 6.796455 2.813372 10053171
-6.482438 7.170759 1.223332 10053171
-3.580276 7.002903 1.077338 10053171
-6.272308 6.839271 1.545767 10053171
-2.997569 6.876954 1.557725 10053171
-6.392747 7.243831 0.940512 10053171
-4.795737 6.992020 1.224955 10053171
-6.385222 7.087092 0.920460 10053171
-6.902152 6.882501 2.255476 10053171
-3.711461 7.229389 1.818850 10053171
-4.228745 7.205453 0.816649 10053171
-6.318786 6.803449 2.934359 10053171
-3.023870 6.774211 2.257990 10053171
-6.421412 6.939177 1.479345 10053171
-6.307495 6.997788 0.995224 10053171
-5.161659 6.781176 1.227444 10053171
-3.959746 7.173395 0.970531 10053171
-6.412774 7.073769 0.862920 10053171
-6.245029 6.753811 2.118587 10053171
-3.520126 7.050677 0.942310 10053171
-5.322987 6.971120 2.319379 10053171
-4.490788 6.758232 0.632361 10053171
-5.566677 7.214430 0.162357 10053171
-3.634267 6.931970 1.833113 10053171
-6.982698 7.171692 2.097878 10053171
-6.183764 7.165132 1.937768 10053171
-4.713590 6.892860 0.459952 10053171
-5.556117 6.949804 1.764196 10053171
-6.752927 6.778569 1.260363 10053171
-5.571488 6.809655 1.495562 10053171
-6.422568 6.887973 2.021835 10053171
-5.991374 6.764335 1.063265 10053171
-5.781358 6.748052 2.066460 10053171
-5.551649 6.802297 1.562470 10053171
-3.356404 7.046440 2.630704 10053171
-5.049343 7.037766 0.372409 10053171
-4.185176 7.188919 0.549996 10053171
-5.069288 7.143655 0.824345 10053171
-6.383247 6.916317 2.847295 10053171
-6.871450 6.812394 2.549906 10053171
-6.722065 6.757461 0.419919 10053171
-3.245981 7.095739 1.592442 10053171
-6.029610 6.762492 2.622706 10053171
-4.061890 6.934557 1.547121 10053171
-6.716477 7.218426 0.599593 10053171
-6.902501 6.940978 2.987235 10053171
-4.476993 6.924832 1.938817 10053171
-4.899274 7.094268 2.538809 10053171
-3.976933 7.101454 0.800746 10053171
-4.133074 7.248414 0.507228 10053171
-3.914893 6.774573 1.153244 10053171
-3.471745 7.209278 2.485714 10053171
-3.376726 7.157224 0.195677 10053171
-3.160304 6.775188 0.465154 10053171
-4.793229 7.222963 1.096521 10053171
-6.895731 7.084918 0.578156 10053171
-6.268822 6.755228 1.883045 10053171
-6.637076 6.932636 0.617268 10053171
-6.366333 7.173534 1.726125 10053171
-6.403677 6.818622 1.129345 10053171
-4.983267 6.820011 0.297142 10053171
-5.311744 7.047105 1.142156 10053171
-5.999262 7.079509 1.246401 10053171
-3.170682 7.010804 2.079846 10053171
-4.530414 6.919359 0.152944 10053171
-6.049489 6.834435 0.162563 10053171
-3.623729 7.154816 0.309951 10053171
-3.342727 7.188978 2.596783 10053171
-4.024338 6.926156 2.655311 10053171
-4.105428 6.832693 2.992007 10053171
-5.519324 7.093807 1.932104 10053171
-4.317696 7.146590 0.727640 10053171
-4.257987 6.950145 0.562273 10053171
-3.620257 7.147727 0.612478 10053171
-3.737110 6.953125 0.916849 10053171
-4.661942 7.024970 0.609233 10053171
-4.176423 6.942525 0.210780 10053171
-6.543858 6.792868 2.347937 10053171
-4.732719 7.149660 0.517764 10053171
-5.165190 6.981030 1.441218 10053171
-6.461048 7.250373 1.327845 10053171
-6.985947 7.018873 2.090703 10053171
-6.582376 7.252391 1.480025 10053171
-5.022502 7.134210 2.904614 10053171
-4.718030 6.833433 0.735495 10053171
-4.293301 6.911005 1.322897 10053171
-5.444568 6.812621 2.060545 10053171
-4.015461 6.775067 2.807851 10053171
-5.952240 7.009449 1.395139 10053171
-6.738360 6.766558 0.263629 10053171
-3.271226 7.149359 2.710130 10053171
-5.114622 7.058697 1.750994 10053171
-5.853602 7.180675 0.525783 10053171
-6.244193 6.896543 1.067766 10053171
-6.942469 7.080107 1.609400 10053171
-5.744954 7.207719 2.542707 10053171
-6.215184 6.935349 2.030533 10053171
-3.795245 6.957221 1.355568 10053171
-5.683500 7.159430 0.868467 10053171
-3.110094 6.811776 0.965389 10053171
-3.917714 6.844788 1.112059 10053171
-5.336561 7.182751 1.614835 10053171
-3.503572 6.759238 0.840423 10053171
-4.684359 7.232399 1.566313 10053171
-3.660676 6.990672 2.194904 10053171
-4.571955 7.130171 2.689093 10053171
-4.915203 7.078887 2.101100 10053171
-6.908556 6.790087 2.406255 10053171
-3.402103 7.114279 0.866587 10053171
-5.518674 7.065708 2.920913 10053171
-4.827230 6.925764 0.689207 10053171
-4.583654 6.999560 2.183440 10053171
-6.926886 7.032882 2.210965 10053171
-3.655032 6.863513 1.226017 10053171
-4.315850 6.912089 0.834761 10053171
-6.441413 6.783062 2.068737 10053171
-6.043127 6.793588 2.065307 10053171
-4.833483 6.770610 0.960911 10053171
-3.726027 6.858649 0.014861 10053171
-4.863345 7.120770 2.490856 10053171
-3.743157 6.994597 2.491399 10053171
-5.179050 7.103615 1.512205 10053171
-6.247020 6.848145 1.575705 10053171
-6.696948 7.177243 2.943700 10053171
-3.954336 6.931299 0.945226 10053171
-6.239335 7.026271 0.955917 10053171
-4.885181 7.161991 1.510653 10053171
-3.283854 7.231175 0.913791 10053171
-6.356889 7.068297 1.843887 10053171
-5.685202 6.825800 1.327319 10053171
-3.570638 6.896171 0.423013 10053171
-5.654057 6.788692 2.082959 10053171
-4.300109 7.240480 0.461120 10053171
-3.208632 7.021596 1.426642 10053171
-3.119818 6.940864 1.823080 10053171
-4.078165 6.755235 0.892093 10053171
-4.282569 7.218175 1.321344 10053171
-3.071200 6.851470 0.304184 10053171
-4.019914 7.115311 1.437547 10053171
-5.426627 6.920424 1.047462 10053171
-3.968513 6.955041 0.368294 10053171
-3.787936 6.961348 0.162724 10053171
-5.729109 7.253153 1.847185 10053171
-5.695092 7.209250 1.779209 10053171
-6.030104 6.746993 2.372576 10053171
-3.602696 6.964100 0.801387 10053171
-5.230465 7.122079 1.186135 10053171
-5.124335 6.853346 2.464443 10053171
-4.303903 7.184148 0.634216 10053171
-6.956000 7.217707 0.056383 10053171
-4.022162 6.776453 1.118994 10053171
-4.042648 6.796170 1.837293 10053171
-5.412131 6.848357 2.727322 10053171
-3.295913 7.050533 1.512409 10053171
-3.315418 7.218952 0.001890 10053171
-3.237760 6.797398 1.491387 10053171
-4.639647 6.956825 1.565861 10053171
-4.949572 6.852068 0.146088 10053171
-6.806782 6.824584 1.573657 10053171
-5.556305 6.945346 0.136413 10053171
-6.929528 6.925284 1.410020 10053171
-4.202863 6.756342 1.311108 10053171
-6.362934 6.911247 0.224004 10053171
-3.352501 6.749874 2.838893 10053171
-4.101259 6.811657 1.392865 10053171
-4.760602 6.836808 1.911404 10053171
-6.171443 6.799572 0.117509 10053171
-5.201284 7.144436 1.848722 10053171
-6.247154 7.103750 2.255752 10053171
-5.148075 7.074146 1.376236 10053171
-6.471763 6.941134 1.293267 10053171
-5.484173 7.083518 0.260013 10053171
-4.933372 7.165364 1.803323 10053171
-3.840432 6.990893 1.641847 10053171
-5.415224 7.084508 2.729608 10053171
-5.693467 7.035501 2.984277 10053171
-6.826926 7.149853 0.761371 10053171
-4.905801 7.163898 1.118497 10053171
-6.975006 6.926543 0.243753 10053171
-6.747021 6.976932 1.042723 10053171
-4.311054 6.791414 1.955109 10053171
-3.994324 7.156644 0.077983 10053171
-3.119624 7.039287 1.334479 10053171
-3.874396 7.022350 0.406486 10053171
-3.118038 6.755571 1.714359 10053171
-3.454384 6.871944 0.327338 10053171
-6.616256 7.093086 1.195480 10053171
-4.088248 7.131103 0.739473 10053171
-3.781585 7.008126 2.076353 10053171
-3.788012 7.012402 1.233940 10053171
-4.629796 7.141133 2.679264 10053171
-4.612657 7.221368 2.340256 10053171
-6.251413 7.159800 0.862918 10053171
-3.111683 6.903878 0.014239 10053171
-4.388235 6.766752 0.508201 10053171
-5.177896 7.003285 2.872804 10053171
-5.346014 7.006548 2.494325 10053171
-3.692234 7.240823 1.061776 10053171
-4.831486 6.774050 0.064366 10053171
-4.733367 7.126890 0.920074 10053171
-4.068101 6.866922 1.518308 10053171
-3.546218 6.978815 0.993150 10053171
-6.939030 7.113001 0.869043 10053171
-3.896737 6.938763 1.361983 10053171
-3.595528 6.950745 2.727564 10053171
-5.496557 6.827038 2.581467 10053171
-5.409195 6.779373 2.399385 10053171
-3.032281 6.816364 2.937276 10053171
-6.151583 6.843678 2.040094 10053171
-4.437150 7.136051 0.774219 10053171
-4.521282 7.048971 0.689830 10053171
-3.178204 7.229870 2.735619 10053171
-5.869604 7.204795 2.535141 10053171
-4.224911 6.900888 2.143306 10053171
-3.185807 6.951310 0.503135 10053171
-5.006254 6.840492 1.830329 10053171
-3.748790 6.982705 0.098479 10053171
-4.331251 7.241441 0.511067 10053171
-6.184144 6.901325 1.539956 10053171
-3.867537 7.208125 0.600431 10053171
-5.441171 6.755180 1.461479 10053171
-3.217361 6.816168 2.192134 10053171
-3.447275 6.964133 0.328194 10053171
-3.950540 7.242147 2.066665 10053171
-6.186018 7.192707 0.268583 10053171
-6.583782 6.924440 0.525420 10053171
-4.604711 6.888689 1.238751 10053171
-5.132064 6.785311 0.011375 10053171
-5.455969 6.823411 0.525517 10053171
-3.766517 6.787735 0.405393 10053171
-5.342625 7.203147 0.699625 10053171
-3.185181 7.171072 1.354197 10053171
-4.929410 6.755136 2.547260 10053171
-6.749152 7.142645 1.621059 10053171
-4.824914 6.798673 1.170832 10053171
-4.084065 7.056255 1.631161 10053171
-4.063868 7.015340 1.592176 10053171
-3.503210 6.914198 2.937603 10053171
-4.084240 7.140911 2.920563 10053171
-6.576963 6.907557 1.742208 10053171
-5.174683 7.053210 1.694906 10053171
-5.108798 7.182517 2.149327 10053171
-4.490121 6.851530 0.018472 10053171
-5.326227 6.758931 2.593682 10053171
-5.170843 6.772303 1.389458 10053171
-4.065082 6.882498 0.733305 10053171
-4.400603 7.038071 1.023369 10053171
-5.228920 7.140960 0.688948 10053171
-3.754221 6.796323 1.905735 10053171
-3.662922 7.246556 2.738104 10053171
-3.372845 7.127321 1.015349 10053171
-4.062803 7.196480 2.662844 10053171
-3.085557 7.168750 2.855014 10053171
-3.584002 7.050973 1.667079 10053171
-5.342811 7.119139 0.091943 10053171
-3.943828 6.933255 2.295328 10053171
-6.401473 7.037815 2.525782 10053171
-3.104287 7.080125 2.785182 10053171
-4.855971 7.179790 0.130997 10053171
-5.910535 6.869102 0.142327 10053171
-4.269547 7.034578 0.580549 10053171
-4.616778 7.132730 0.003770 10053171
-6.606307 7.215293 1.376935 10053171
-6.061697 6.923084 0.089676 10053171
-5.832931 6.758801 2.914033 10053171
-4.505784 7.049587 2.840698 10053171
-5.613333 7.207767 2.542071 10053171
-3.125705 6.965155 0.607573 10053171
-5.753256 6.964683 0.599990 10053171
-4.088054 7.112954 1.550743 10053171
-4.692693 6.749003 1.664209 10053171
-4.980317 7.135652 1.215101 10053171
-4.445948 6.973263 0.495251 10053171
-5.298359 7.233235 0.333586 10053171
-3.876137 6.954791 0.826905 10053171
-4.243402 6.948187 2.677130 10053171
-5.242349 7.100973 1.718454 10053171
-3.012136 6.977142 0.257941 10053171
-5.444489 6.856509 1.063298 10053171
-6.583069 7.087981 2.727760 10053171
-5.113387 6.812906 1.652525 10053171
-3.042212 6.921129 0.744335 10053171
-6.558788 6.982567 1.167557 10053171
-3.073138 6.995527 0.200317 10053171
-6.269075 7.224005 1.900579 10053171
-3.682793 6.938381 1.343265 10053171
-4.187018 7.100820 0.206214 10053171
-3.852102 7.149928 1.810900 10053171
-4.192063 7.033367 1.343441 10053171
-3.091429 6.811148 0.727028 10053171
-5.613365 7.235771 0.119117 10053171
-5.692301 7.014849 2.809899 10053171
-4.795587 6.953318 1.808193 10053171
-5.935491 7.166726 2.058881 10053171
-3.322339 7.111070 0.986818 10053171
-6.508296 6.804113 0.731519 10053171
-6.603794 7.085227 1.905533 10053171
-3.736776 6.852403 0.034664 10053171
-4.620797 7.123093 2.025962 10053171
-5.598024 6.761821 2.668310 10053171
-3.958420 7.078609 0.444315 10053171
-3.921987 6.782808 1.652644 10053171
-5.384000 7.022532 0.790677 10053171
-4.826665 6.843461 1.755427 10053171
-5.774950 6.942408 1.072587 10053171
-6.620185 6.852487 0.162866 10053171
-4.520601 6.971611 1.704929 10053171
-3.714705 7.120008 2.802232 10053171
-5.686984 6.857668 0.077589 10053171
-5.642114 7.040462 0.393502 10053171
-4.238531 6.843900 0.844587 10053171
-5.874215 6.872676 2.062851 10053171
-4.899608 6.824009 2.926570 10053171
-3.169600 6.980318 2.036149 10053171
-3.613633 6.911554 1.094475 10053171
-4.812795 7.135993 2.839325 10053171
-4.505883 7.153255 1.485756 10053171
-3.450912 7.091876 1.080345 10053171
-3.150768 7.164769 0.521266 10053171
-5.432188 7.109939 0.821177 10053171
-6.653465 6.981202 2.586816 10053171
-3.286483 6.906423 2.373922 10053171
-5.854969 7.143582 2.070215 10053171
-4.687308 6.934074 1.478514 10053171
-4.308810 6.830551 2.105932 10053171
-2.986900 6.754486 2.476068 10053171
-3.048186 6.989039 1.079404 10053171
-4.385126 7.207613 0.295197 10053171
-5.486838 7.216929 2.304959 10053171
-5.595336 7.129570 1.121511 10053171
-3.874146 6.888514 1.842351 10053171
-4.676019 7.080660 2.926455 10053171
-4.742435 7.162061 2.675107 10053171
-6.281525 7.034065 1.577090 10053171
-3.110244 7.195021 0.322475 10053171
-4.496950 6.878477 2.788034 10053171
-3.050311 6.932931 1.102977 10053171
-4.441995 7.254701 2.817875 10053171
-5.007428 6.913698 2.687219 10053171
-3.222753 6.988984 0.508388 10053171
-5.970671 6.833358 0.801212 10053171
-4.683482 7.162208 0.331688 10053171
-3.007416 7.063809 0.546773 10053171
-5.441175 6.896371 1.086652 10053171
-3.926829 6.814617 0.638293 10053171
-6.063210 6.969877 2.709667 10053171
-3.312919 6.917778 0.538503 10053171
-5.741157 6.760290 2.828834 10053171
-4.193521 6.837033 0.625569 10053171
-6.593404 6.999040 2.952952 10053171
-6.909449 7.225631 2.542065 10053171
-6.903007 7.211583 0.745920 10053171
-5.281713 7.005448 2.448534 10053171
-5.212303 6.962161 1.284134 10053171
-3.180144 7.149426 1.923231 10053171
-6.398937 6.965978 1.729144 10053171
-4.080272 6.857806 0.118379 10053171
-3.493268 6.887985 0.030739 10053171
-6.099842 6.878218 1.884211 10053171
-3.135974 7.079750 0.780914 10053171
-3.566596 7.025289 2.745842 10053171
-4.246076 7.032822 2.650824 10053171
-3.446729 6.874736 2.414169 10053171
-5.116671 6.899057 2.884137 10053171
-4.451879 7.115266 1.066467 10053171
-6.581975 6.847840 2.038248 10053171
-3.848106 6.871744 2.290884 10053171
-3.576711 6.986125 1.030431 10053171
-4.269084 6.766972 0.861034 10053171
-3.878150 7.021341 1.002174 10053171
-5.366234 6.963142 2.103397 10053171
-3.232414 6.831921 0.482012 10053171
-3.387532 7.245943 0.637627 10053171
-6.359839 6.765547 1.225574 10053171
-5.801347 7.228713 1.577190 10053171
-3.819458 6.879447 0.807257 10053171
-6.551506 6.866002 1.586613 10053171
-4.369146 6.802959 0.971621 10053171
-5.653783 6.941019 0.045062 10053171
-4.412868 7.026020 1.184255 10053171
-4.173625 6.904604 2.123542 10053171
-3.258089 7.173446 1.287789 10053171
-3.749147 7.226401 2.659964 10053171
-5.890372 6.828774 0.044463 10053171
-5.682866 6.799215 1.563891 10053171
-4.925598 6.945551 2.469447 10053171
-6.091581 7.056269 1.113946 10053171
-6.769453 7.232213 2.110146 10053171
-5.464265 6.874916 1.224187 10053171
-6.169688 6.905557 2.898322 10053171
-5.543756 6.783039 2.431631 10053171
-4.512942 7.196148 1.528522 10053171
-5.306338 6.871801 0.626389 10053171
-6.001342 7.218771 1.476943 10053171
-3.528929 6.857956 2.526198 10053171
-5.691945 6.920056 2.293891 10053171
-6.068379 6.943996 1.460430 10053171
-6.564767 6.878951 1.229777 10053171
-6.786072 7.072650 2.619150 10053171
-6.579080 6.867963 1.838964 10053171
-6.078874 6.997770 2.775946 10053171
-4.215088 7.189682 2.788736 10053171
-4.905403 7.063490 2.192662 10053171
-4.860103 7.137667 0.065351 10053171
-4.077759 6.835721 1.553437 10053171
-6.979637 7.245577 0.319983 10053171
-5.484383 7.159667 0.042515 10053171
-3.503459 6.808122 0.719848 10053171
-6.070862 6.787530 0.884651 10053171
-3.531284 6.813877 2.840324 10053171
-3.563158 7.184668 0.905366 10053171
-5.212681 6.825871 2.958364 10053171
-6.939794 6.860082 2.312833 10053171
-4.337599 6.846280 0.569571 10053171
-4.583571 6.870308 0.872802 10053171
-3.508804 6.849170 0.288922 10053171
-6.438622 7.004695 1.141525 10053171
-5.295892 7.236271 1.668095 10053171
-4.227019 7.182002 1.718053 10053171
-5.742067 7.129381 0.939343 10053171
-4.632112 6.955956 2.952262 10053171
-5.838142 7.033675 1.036263 10053171
-5.180531 7.140002 0.288897 10053171
-4.825174 6.859473 2.726847 10053171
-3.307855 6.990090 0.782023 10053171
-3.924024 7.038830 1.826790 10053171
-5.805917 7.004984 1.295112 10053171
-3.335113 6.975870 1.643039 10053171
-3.001824 7.219690 0.806487 10053171
-3.209667 7.211792 2.792763 10053171
-3.173014 7.156681 2.289224 10053171
-6.080017 6.922714 2.236111 10053171
-6.837211 7.063698 2.065022 10053171
-4.076931 6.798475 1.168783 10053171
-3.189276 7.233513 1.706144 10053171
-6.916007 7.157547 1.471050 10053171
-4.304860 6.890914 1.101141 10053171
-5.286100 7.038281 0.097167 10053171
-6.776971 7.150104 2.885239 10053171
-4.225291 6.841834 2.430910 10053171
-3.449558 7.033051 2.655200 10053171
-3.060210 6.762214 1.136924 10053171
-3.473070 7.211344 0.578621 10053171
-3.466520 6.937141 2.308562 10053171
-4.108819 7.084997 2.702530 10053171
-3.756423 7.076210 2.914353 10053171
-5.751098 6.925254 0.465410 10053171
-4.763127 7.146833 1.562647 10053171
5.883624 -5.971967 1.135738 8342706
6.127359 -5.717190 1.810541 8342706
5.436066 -6.091083 3.630476 8342706
6.170612 -6.488614 0.559117 8342706
5.445870 -6.220481 3.025214 8342706
6.160281 -6.441234 4.065727 8342706
6.343672 -6.045060 4.885117 8342706
6.203790 -5.635573 0.325641 8342706
5.994278 -6.180535 4.011003 8342706
6.192120 -6.003722 0.493867 8342706
5.577426 -5.653762 2.008508 8342706
6.177372 -6.430978 3.323628 8342706
6.525982 -5.778835 4.827097 8342706
6.046341 -5.630499 2.421797 8342706
6.479602 -5.957747 1.323215 8342706
6.081933 -6.222879 2.927394 8342706
6.508900 -5.869993 0.289996 8342706
6.339994 -6.422286 2.968914 8342706
6.305977 -5.512916 2.216885 8342706
6.457805 -6.389702 2.682036 8342706
6.198431 -6.105592 2.956623 8342706
6.282987 -5.567133 2.040202 8342706
5.619642 -6.302155 3.501161 8342706
5.814848 -5.569231 0.188453 8342706
5.667720 -5.773059 0.514846 8342706
6.497725 -5.806560 1.399387 8342706
6.045704 -5.414741 0.768119 8342706
6.187678 -6.311894 1.504657 8342706
6.430857 -6.148554 1.594087 8342706
6.524848 -6.033365 3.482498 8342706
5.626266 -6.185409 3.376748 8342706
5.846902 -6.188385 4.710340 8342706
5.799202 -5.521010 2.028083 8342706
6.337883 -5.770805 2.902151 8342706
6.254718 -5.940912 3.511658 8342706
5.454624 -6.096779 0.532877 8342706
6.406160 -5.825571 1.971773 8342706
5.896856 -5.781660 1.720435 8342706
5.735273 -5.854736 3.160218 8342706
5.670324 -6.179161 1.864247 8342706
5.799624 -5.519343 0.775827 8342706
6.471467 -6.087392 0.387572 8342706
5.994286 -6.146364 4.297628 8342706
5.588050 -6.201615 4.552160 8342706
5.737491 -5.755510 4.168839 8342706
5.755010 -5.922441 3.113723 8342706
6.023103 -5.987105 1.440301 8342706
6.397145 -6.282613 2.001567 8342706
5.658114 -5.712728 3.109062 8342706
6.285020 -6.088463 3.905151 8342706
5.399283 -6.010276 4.582912 8342706
5.959022 -5.456022 4.477267 8342706
5.501060 -5.954502 3.235575 8342706
6.441141 -5.942827 1.955190 8342706
6.155467 -6.494897 4.279380 8342706
6.378708 -5.870505 1.209001 8342706
5.394704 -5.963970 2.327263 8342706
5.501274 -5.768993 4.316405 8342706
6.440908 -6.006487 2.986854 8342706
6.126828 -5.670721 4.843631 8342706
6.265645 -5.858642 2.125978 8342706
5.812281 -5.459685 2.079994 8342706
5.861360 -6.326376 3.565492 8342706
6.003808 -5.503601 3.515139 8342706
5.763717 -6.034876 4.516097 8342706
5.845799 -6.082418 1.738200 8342706
6.188966 -5.750545 2.001046 8342706
6.153420 -6.302585 1.968463 8342706
5.783183 -6.226410 1.542448 8342706
5.620357 -6.241951 1.073554 8342706
5.846663 -6.379766 1.259157 8342706
5.962404 -5.972438 3.037800 8342706
6.055752 -6.115679 4.758201 8342706
5.790974 -5.809278 0.621817 8342706
5.718381 -6.076112 2.500255 8342706
5.949206 -5.992428 3.161436 8342706
5.459845 -6.184221 1.930650 8342706
6.075616 -5.590983 0.146921 8342706
6.432900 -5.934856 1.225164 8342706
6.552907 -6.095412 3.881752 8342706
6.043923 -6.219782 3.285221 8342706
5.573617 -5.662160 1.953866 8342706
6.086649 -6.288407 4.437813 8342706
6.102400 -5.581026 4.626272 8342706
6.428908 -5.679054 0.245973 8342706
5.959591 -6.165688 2.710445 8342706
6.220857 -5.966426 2.438519 8342706
5.492669 -6.141247 3.684228 8342706
6.052516 -6.322421 1.998392 8342706
5.891290 -6.330884 1.014570 8342706
6.189186 -6.412364 4.445481 8342706
5.556010 -5.919156 3.871332 8342706
5.708545 -6.392314 2.523853 8342706
6.097251 -6.485641 1.392307 8342706
5.829728 -5.878901 4.546179 8342706
5.592004 -5.775021 2.349326 8342706
6.460971 -5.838336 2.618783 8342706
6.125468 -6.411231 0.578869 8342706
5.549063 -6.153278 1.876410 8342706
6.318261 -6.042587 1.853296 8342706
6.562973 -6.035881 3.633951 8342706
5.650729 -6.374168 0.627964 8342706
5.702673 -6.444808 0.781026 8342706
6.213029 -6.027122 2.567731 8342706
5.631394 -6.022812 3.307749 8342706
5.757235 -5.589639 4.705467 8342706
5.771777 -6.251713 4.025306 8342706
5.638848 -5.838343 1.236349 8342706
6.419986 -5.979405 4.434980 8342706
5.820127 -5.609210 3.515796 8342706
6.014915 -5.786206 0.945342 8342706
6.161645 -6.375182 1.761520 8342706
6.144173 -5.803813 1.591300 8342706
5.964534 -5.769621 4.075559 8342706
6.033532 -6.193621 4.585704 8342706
5.783605 -6.140306 0.229054 8342706
5.920210 -5.630758 1.681922 8342706
6.209719 -5.633967 3.853241 8342706
5.690122 -5.971064 3.117391 8342706
5.820653 -6.178771 2.600111 8342706
5.688796 -5.831055 2.906075 8342706
5.602845 -6.245128 3.709639 8342706
5.895028 -6.579638 1.065077 8342706
6.127479 -5.820150 1.686901 8342706
6.287433 -6.322884 0.548616 8342706
6.356260 -5.682569 2.291687 8342706
6.140326 -5.574726 3.089772 8342706
5.668806 -5.687487 1.193035 8342706
5.995779 -5.717062 3.693022 8342706
6.200984 -6.036392 4.402794 8342706
6.504176 -6.118152 2.688010 8342706
6.346456 -6.166641 3.355202 8342706
5.678363 -6.302765 4.705040 8342706
6.289953 -5.540262 4.635485 8342706
5.966797 -6.228906 3.546612 8342706
5.752454 -5.664141 2.609671 8342706
6.070140 -6.567847 4.490414 8342706
5.547001 -5.766176 4.275400 8342706
5.532352 -6.134860 2.870763 8342706
6.123340 -5.634882 2.486692 8342706
5.689363 -5.904295 4.056355 8342706
5.879209 -5.443558 3.049322 8342706
6.500925 -5.809825 0.130908 8342706
6.063379 -5.428998 0.409208 8342706
6.393291 -5.738425 0.061742 8342706
6.060528 -5.772344 0.497520 8342706
5.666980 -5.723927 3.072327 8342706
6.350136 -6.217789 1.506831 8342706
6.126441 -5.792652 2.485967 8342706
5.771585 -6.154008 1.585874 8342706
5.980373 -6.196856 0.125431 8342706
5.858602 -6.026126 3.738781 8342706
5.715481 -6.133386 3.395370 8342706
6.301364 -6.242508 4.590101 8342706
6.321276 -6.467651 3.375046 8342706
6.011316 -6.557017 4.189287 8342706
6.004393 -5.665518 4.219273 8342706
5.701498 -5.625655 4.224185 8342706
6.196335 -5.856670 1.887450 8342706
5.502854 -6.217480 4.657887 8342706
5.902609 -6.338739 4.697245 8342706
6.060031 -6.432249 1.313986 8342706
6.121829 -5.625486 2.039143 8342706
5.958976 -6.203022 1.716338 8342706
6.032379 -6.021319 4.558273 8342706
6.093693 -5.636910 1.145952 8342706
6.131592 -6.291892 1.566188 8342706
5.756712 -5.740083 0.118493 8342706
6.353838 -6.187047 3.040087 8342706
6.096831 -5.583731 2.637388 8342706
6.272592 -5.864284 1.011312 8342706
5.618083 -6.082404 1.907422 8342706
5.722205 -5.671214 2.272657 8342706
5.812572 -5.631107 2.605355 8342706
5.507837 -5.913870 3.583102 8342706
6.026436 -5.840377 1.877941 8342706
5.715828 -5.874176 1.472180 8342706
5.745852 -6.269829 2.826894 8342706
6.008820 -6.309671 4.906812 8342706
5.968624 -6.439723 4.828143 8342706
6.083685 -5.589043 3.853450 8342706
5.608274 -5.575735 2.009837 8342706
6.548160 -6.049082 4.244464 8342706
5.672812 -5.583047 1.936635 8342706
6.087437 -6.454185 1.682139 8342706
5.588254 -6.229114 1.864514 8342706
6.333298 -5.903704 3.504740 8342706
6.481441 -5.812762 3.822258 8342706
6.418345 -6.120602 3.876915 8342706
6.141287 -5.840306 3.372985 8342706
6.154600 -6.392987 1.010211 8342706
5.668107 -6.131950 3.347021 8342706
6.488901 -6.309059 0.133574 8342706
6.388406 -6.090104 4.938738 8342706
5.420732 -5.907396 3.787058 8342706
6.503717 -6.037140 0.232687 8342706
6.242000 -5.664894 3.714418 8342706
6.117484 -6.019041 2.456597 8342706
6.298517 -5.982762 0.696970 8342706
6.436941 -5.965128 2.427467 8342706
6.059422 -6.491049 2.758164 8342706
6.412709 -6.097805 1.368668 8342706
6.218036 -5.645729 1.099796 8342706
6.244012 -5.600012 4.346544 8342706
6.166394 -6.464472 0.725793 8342706
5.645525 -6.038038 3.193874 8342706
6.526167 -5.803865 1.076927 8342706
6.156559 -5.786705 2.585161 8342706
5.981707 -6.092887 2.534418 8342706
6.364973 -5.678775 1.816916 8342706
5.959493 -6.117286 3.841568 8342706
6.502983 -6.011884 1.575746 8342706
5.494004 -6.280193 0.734861 8342706
5.821188 -6.359939 4.990750 8342706
6.480278 -5.779751 3.972980 8342706
6.217144 -6.026576 0.112158 8342706
6.259772 -5.832703 3.588044 8342706
6.476329 -6.090172 4.574600 8342706
5.916270 -6.052342 3.131763 8342706
6.386152 -6.248310 1.767603 8342706
6.018136 -5.442505 1.984671 8342706
5.408975 -5.970526 4.258821 8342706
6.078262 -6.056842 2.981370 8342706
6.267775 -5.941264 3.240499 8342706
5.638914 -6.173812 3.362018 8342706
6.135374 -6.366359 4.403288 8342706
6.090770 -5.530522 4.119261 8342706
5.938677 -5.843984 2.919799 8342706
5.419674 -6.109458 2.055638 8342706
6.294434 -6.439824 4.876709 8342706
5.661615 -6.395473 2.918449 8342706
6.318730 -6.336017 2.363945 8342706
6.419790 -5.823570 1.045486 8342706
6.455356 -5.877213 2.251316 8342706
5.994338 -5.519612 2.053674 8342706
6.229686 -5.756846 0.480094 8342706
5.902506 -6.270797 1.576550 8342706
6.394161 -5.760471 2.458087 8342706
6.359925 -5.534160 4.084881 8342706
6.451231 -6.173536 1.484159 8342706
6.170126 -5.806005 3.252560 8342706
5.702059 -6.403435 3.090421 8342706
6.265449 -5.556806 4.475489 8342706
6.023823 -5.908309 0.771884 8342706
5.586257 -6.372463 4.398203 8342706
5.622576 -5.756693 4.263898 8342706
6.215965 -5.843617 1.351622 8342706
5.753566 -5.811739 1.052724 8342706
5.873752 -6.125297 0.636964 8342706
6.189946 -5.461058 1.184241 8342706
6.278807 -5.521662 1.190263 8342706
5.657040 -6.256600 4.296968 8342706
5.949710 -6.058722 4.924474 8342706
6.209661 -5.558991 3.782142 8342706
5.661662 -6.044930 4.264342 8342706
6.081947 -6.569200 4.257098 8342706
5.673902 -5.726766 3.982359 8342706
5.530187 -6.064452 3.770930 8342706
6.236060 -6.420625 1.043822 8342706
6.569315 -5.947295 0.502126 8342706
5.998356 -5.547242 2.920256 8342706
6.176108 -6.381415 1.656460 8342706
5.506261 -6.196345 3.926677 8342706
5.599462 -6.472064 2.807100 8342706
5.797985 -5.505575 2.252351 8342706
6.535103 -6.247496 2.080801 8342706
6.052107 -6.358625 0.531183 8342706
5.434158 -5.848551 2.610897 8342706
5.842793 -5.659132 2.535717 8342706
6.310102 -6.082118 0.216760 8342706
6.036405 -5.614796 4.368207 8342706
6.505172 -6.264241 4.414890 8342706
5.817793 -6.392784 4.406178 8342706
5.454435 -5.762393 4.342738 8342706
5.943675 -5.495610 1.509376 8342706
6.533097 -6.215966 4.021191 8342706
6.391961 -6.175911 1.418078 8342706
5.816804 -6.181128 3.750299 8342706
6.100084 -6.352068 1.928611 8342706
5.558593 -5.642741 3.375404 8342706
5.773855 -6.450728 3.543135 8342706
5.500631 -5.681370 3.920378 8342706
6.175423 -5.555060 0.048991 8342706
6.346196 -5.953547 2.636200 8342706
6.386346 -6.079251 1.738359 8342706
5.767237 -5.779619 3.219935 8342706
6.030024 -5.820252 3.183032 8342706
6.309210 -6.072063 2.050082 8342706
6.372037 -5.820939 2.208019 8342706
6.069314 -5.776700 0.070662 8342706
5.819590 -6.066748 0.109580 8342706
6.220840 -6.445798 0.889257 8342706
6.364245 -6.469889 0.727037 8342706
6.142862 -6.369448 4.229753 8342706
5.869024 -6.507626 1.816028 8342706
5.639993 -5.912086 0.972378 8342706
5.774490 -5.647192 2.703121 8342706
6.190437 -5.760092 0.420575 8342706
6.092195 -5.403928 2.093374 8342706
5.996121 -6.494369 1.065822 8342706
6.240870 -5.529760 1.294467 8342706
6.441678 -5.661521 3.605995 8342706
6.499311 -6.276430 0.333776 8342706
5.765379 -5.930539 4.019813 8342706
6.176716 -6.120733 1.737150 8342706
6.109696 -6.229439 3.237023 8342706
5.609623 -6.241996 3.704186 8342706
6.539182 -6.153187 1.840725 8342706
6.257549 -6.223105 1.687410 8342706
5.550277 -5.796240 2.476625 8342706
6.372442 -6.404825 2.012644 8342706
6.105253 -6.209213 3.574614 8342706
6.176000 -6.577444 4.290840 8342706
6.459287 -6.377699 3.665075 8342706
6.121087 -5.549821 2.023205 8342706
6.098583 -5.459411 0.891122 8342706
6.143553 -6.446805 1.157600 8342706
5.664021 -6.063540 0.133110 8342706
5.832076 -5.599435 2.636501 8342706
5.797308 -6.367397 2.622242 8342706
6.074269 -5.480088 3.492975 8342706
5.751237 -6.279488 3.385049 8342706
6.314118 -6.334853 1.090596 8342706
5.816656 -6.539155 4.762121 8342706
6.250846 -5.691097 4.900819 8342706
6.007430 -6.482447 1.845072 8342706
5.678709 -5.765592 0.302941 8342706
6.286616 -5.535403 4.283755 8342706
5.598876 -5.862195 4.343371 8342706
6.230992 -5.574068 0.498717 8342706
6.285852 -6.363142 4.020175 8342706
6.184694 -6.538851 0.571360 8342706
6.172546 -5.840993 1.007717 8342706
6.442946 -6.134309 2.773607 8342706
6.055052 -6.398972 3.750800 8342706
5.997873 -5.545048 2.048984 8342706
6.448031 -6.181379 3.313389 8342706
6.123415 -5.436614 0.252244 8342706
5.475803 -5.738917 4.418112 8342706
6.173148 -6.323591 1.667782 8342706
6.417768 -5.609428 1.856293 8342706
5.878361 -6.112141 0.909335 8342706
6.382200 -5.611269 3.705130 8342706
5.631706 -6.129910 3.755502 8342706
6.521311 -5.920161 1.160701 8342706
5.718534 -5.990777 2.435935 8342706
6.230587 -6.347757 2.938800 8342706
5.704183 -6.386138 4.090143 8342706
6.050500 -6.276580 3.892781 8342706
6.387216 -5.555100 4.945359 8342706
6.526852 -6.245603 4.674479 8342706
6.020128 -5.919216 3.861919 8342706
6.154898 -6.368228 4.323510 8342706
5.752923 -6.204668 2.014035 8342706
6.445513 -5.896286 2.111780 8342706
6.450894 -5.987897 2.218573 8342706
5.859564 -5.442130 1.045823 8342706
6.486488 -5.790202 0.284699 8342706
5.840196 -5.465631 1.371741 8342706
6.235413 -5.698433 4.837331 8342706
5.971877 -5.627367 1.242462 8342706
6.494332 -5.793773 2.244172 8342706
5.781282 -6.226916 3.703171 8342706
6.281670 -6.195856 1.514957 8342706
5.987659 -6.385998 3.988633 8342706
5.992291 -5.818263 2.276541 8342706
6.168571 -6.073910 4.113469 8342706
6.160492 -6.404410 4.355671 8342706
6.287642 -5.610772 4.750950 8342706
6.337957 -5.818335 3.607604 8342706
5.988414 -5.799053 3.163542 8342706
6.519149 -5.899870 3.044774 8342706
6.284925 -5.864165 2.852496 8342706
6.291273 -6.328771 1.992625 8342706
5.757357 -5.708262 3.611366 8342706
5.699595 -5.735662 3.075984 8342706
6.263577 -5.967367 1.459722 8342706
6.387966 -6.239317 1.082947 8342706
5.849040 -5.589177 2.978338 8342706
5.507621 -5.908770 0.120840 8342706
5.642223 -5.665853 0.453882 8342706
5.606979 -5.572268 2.872350 8342706
5.996635 -5.509399 2.119849 8342706
5.522841 -6.114315 1.868425 8342706
6.116352 -5.491373 3.475363 8342706
5.433358 -5.910789 4.597731 8342706
5.463612 -5.794759 2.914294 8342706
6.205792 -6.324691 1.849973 8342706
5.545116 -6.368517 0.836136 8342706
5.893301 -6.503987 1.603574 8342706
6.065115 -6.362069 3.424901 8342706
5.973504 -6.503792 4.586939 8342706
6.364971 -6.162089 0.813114 8342706
6.508001 -6.326735 1.428195 8342706
6.562020 -5.910688 3.391537 8342706
5.581124 -6.085244 1.109966 8342706
6.276128 -6.292464 1.938741 8342706
6.176235 -6.311842 2.972349 8342706
6.065743 -6.512969 4.958159 8342706
5.988501 -6.457418 0.615942 8342706
6.304833 -5.760879 1.754149 8342706
6.391796 -5.941975 1.294258 8342706
6.231256 -6.404746 0.488881 8342706
6.296716 -6.136431 2.907775 8342706
6.506926 -6.128298 0.089784 8342706
6.091298 -5.654176 1.222916 8342706
6.490654 -6.274234 4.303174 8342706
6.453867 -5.657722 4.813433 8342706
6.492512 -6.159102 3.618263 8342706
6.312499 -6.334921 1.624034 8342706
5.752204 -6.292342 0.416314 8342706
6.163335 -5.578440 2.716061 8342706
6.227148 -6.058845 3.862346 8342706
6.329372 -5.850269 0.395644 8342706
6.193901 -5.860926 3.936569 8342706
5.779420 -6.410315 3.280991 8342706
6.400383 -6.232543 -0.010268 8342706
6.333177 -5.751551 1.357195 8342706
6.273078 -6.029006 4.234153 8342706
6.365732 -6.087348 2.038999 8342706
5.767770 -5.559221 4.370288 8342706
5.838033 -6.023617 0.854262 8342706
6.049909 -5.759576 4.173917 8342706
5.512095 -5.730430 3.982069 8342706
6.454557 -6.115041 1.749593 8342706
6.274610 -6.468760 1.711673 8342706
6.268171 -6.198714 4.622036 8342706
5.548156 -6.311167 1.237252 8342706
6.000370 -6.250087 3.459143 8342706
6.235273 -5.566180 3.781092 8342706
6.062661 -6.570649 3.661859 8342706
5.925070 -6.015479 1.740254 8342706
5.812140 -5.642119 2.730858 8342706
6.183235 -6.312129 0.922896 8342706
6.172029 -5.983589 3.883125 8342706
6.119815 -6.280597 1.994334 8342706
5.757937 -6.137290 1.028298 8342706
6.576701 -6.008609 1.775306 8342706
5.736614 -6.111483 4.318384 8342706
6.459308 -5.782898 1.011554 8342706
5.562265 -5.872187 0.779168 8342706
6.328874 -6.025507 4.992105 8342706
6.173463 -6.547114 4.115214 8342706
6.089513 -6.391853 4.701882 8342706
5.997007 -5.802284 1.398308 8342706
6.505851 -6.166110 5.000226 8342706
6.142404 -6.079267 1.667398 8342706
5.838342 -5.975444 2.081771 8342706
5.724712 -5.974187 3.048993 8342706
6.484096 -6.246406 4.089839 8342706
5.474157 -5.883790 3.579250 8342706
6.164470 -6.099174 0.988643 8342706
5.866605 -6.265932 1.902835 8342706
5.957869 -5.668952 2.398393 8342706
6.333515 -6.281874 0.090941 8342706
5.829134 -5.559412 4.531490 8342706
5.988664 -5.465120 4.058648 8342706
5.791770 -5.436924 3.559093 8342706
6.403589 -6.362734 1.559110 8342706
5.505256 -6.030242 4.736590 8342706
6.052923 -6.518464 0.106895 8342706
6.532291 -5.946459 1.481948 8342706
6.364178 -5.563920 3.356680 8342706
5.768353 -5.890570 0.828655 8342706
6.002703 -5.984801 0.872319 8342706
5.635344 -5.917132 2.243870 8342706
5.721925 -5.602308 2.270560 8342706
5.788958 -6.110142 3.524309 8342706
6.311021 -5.484445 1.112384 8342706
5.645574 -5.774200 4.824818 8342706
5.886153 -5.793612 0.089064 8342706
5.639207 -6.468907 2.447007 8342706
5.865261 -6.462266 3.645998 8342706
6.035280 -6.605773 0.585304 8342706
6.054589 -5.705868 1.740108 8342706
6.103196 -5.905205 1.766759 8342706
6.165733 -5.758238 4.148122 8342706
5.491628 -6.280552 4.936693 8342706
6.551131 -5.856955 2.148957 8342706
6.225260 -6.461660 3.907735 8342706
6.244146 -5.718078 2.515480 8342706
6.227310 -6.371214 2.405787 8342706
6.077283 -5.647297 4.501800 8342706
5.633847 -6.304138 3.469609 8342706
6.004083 -6.462170 2.712367 8342706
6.571995 -6.083588 0.455944 8342706
5.709463 -5.655739 4.817506 8342706
6.289525 -5.800351 0.297431 8342706
5.957537 -5.752544 4.699934 8342706
6.075168 -5.544481 2.437325 8342706
