# .PCD v0.7 - Point Cloud Data file format
VERSION 0.7
FIELDS x y z rgb
SIZE 4 4 4 4
TYPE F F F U
COUNT 1 1 1 1
WIDTH 1303
HEIGHT 1
VIEWPOINT 0 0 0 1 0 0 0
POINTS 1303
DATA ascii
-2.467895 -16.319006 0.959744 1645029
-1.830741 -15.704456 1.141883 1645029
-1.774665 -15.879996 1.259833 1645029
-2.055224 -16.154316 0.891016 1645029
-1.811049 -16.271936 1.162790 1645029
-2.212642 -16.266798 1.345256 1645029
-1.857778 -15.753954 1.267159 1645029
-2.044401 -16.408724 0.678871 1645029
-1.940556 -16.471806 0.743371 1645029
-2.158551 -15.821361 1.121660 1645029
-1.969118 -16.317150 0.829626 1645029
-2.098222 -16.027534 0.921378 1645029
-1.692909 -16.041092 1.037894 1645029
-1.752586 -16.163292 1.102887 1645029
-2.215930 -16.248739 0.857548 1645029
-2.370746 -16.018139 0.647528 1645029
-2.235423 -16.034338 1.342794 1645029
-2.215849 -16.051973 0.877578 1645029
-1.652675 -16.334232 0.955496 1645029
-2.057609 -16.034622 1.081490 1645029
-1.974812 -15.652818 1.081051 1645029
-2.489395 -16.354898 1.074181 1645029
-1.994668 -15.991832 1.161486 1645029
-2.256593 -16.393219 1.081546 1645029
-2.224978 -16.220310 0.507139 1645029
-2.414948 -16.088840 0.865399 1645029
-1.799384 -16.235737 1.134079 1645029
-2.029300 -16.113234 1.238186 1645029
-2.194062 -15.908055 0.694076 1645029
-1.920435 -15.944689 0.688176 1645029
-1.906950 -15.684222 1.010687 1645029
-1.938204 -16.032503 0.874802 1645029
-2.120841 -16.083881 0.671426 1645029
-1.742028 -16.351124 0.803656 1645029
-2.130294 -16.498144 0.964428 1645029
-1.663016 -16.122303 0.949277 1645029
-2.079582 -16.236784 0.855941 1645029
-2.188662 -16.377451 1.344599 1645029
-2.132370 -15.926189 0.514504 1645029
-1.609346 -16.093548 1.265492 1645029
-2.332139 -15.744425 0.747574 1645029
-2.332475 -15.873551 0.677833 1645029
-1.924303 -16.525206 0.912883 1645029
-2.293823 -16.219467 0.887198 1645029
-2.012428 -16.509960 0.947214 1645029
-1.893252 -16.143991 0.967454 1645029
-2.314647 -16.193645 0.999129 1645029
-2.186347 -15.808567 0.908072 1645029
-2.145304 -15.590486 0.949667 1645029
-2.260775 -16.164961 1.405496 1645029
-2.146269 -16.203583 1.166402 1645029
-1.915891 -15.930169 1.244468 1645029
-1.687382 -15.967318 1.146540 1645029
-1.605784 -15.976784 1.017361 1645029
-2.347054 -16.429512 1.243944 1645029
-1.773682 -15.757612 1.048046 1645029
-1.652186 -16.086395 1.018594 1645029
-2.272550 -15.871222 0.580589 1645029
-2.153289 -15.770199 1.250730 1645029
-2.001705 -15.666373 1.086502 1645029
-1.852171 -15.881028 0.874436 1645029
-2.038058 -15.904935 0.549220 1645029
-1.731224 -16.063984 1.033224 1645029
-1.679947 -15.831464 1.218037 1645029
15.313191 -5.692828 0.587396 1690649
15.020462 -6.145919 0.768353 1690649
15.225176 -6.083544 0.719638 1690649
14.690786 -6.149443 1.306871 1690649
15.342130 -5.952344 0.495965 1690649
15.056763 -5.896490 0.595065 1690649
15.284961 -5.969022 1.029674 1690649
15.017421 -6.098132 1.081496 1690649
15.523353 -6.074369 1.310954 1690649
14.870678 -6.036746 0.944535 1690649
15.505747 -5.920280 0.532746 1690649
15.175226 -6.130890 1.771324 1690649
15.079548 -6.369824 0.182871 1690649
14.769485 -5.792916 1.091185 1690649
15.191626 -5.699105 1.030311 1690649
15.307690 -6.333726 1.159270 1690649
15.492985 -6.123684 1.011519 1690649
14.934422 -6.167149 0.581610 1690649
15.257710 -5.902434 1.395010 1690649
15.188644 -6.067163 1.126738 1690649
15.176670 -5.625722 1.722042 1690649
15.178008 -6.398462 1.169580 1690649
14.677160 -6.190999 0.865914 1690649
14.683295 -6.185572 0.879564 1690649
14.825583 -5.621082 1.550254 1690649
15.249833 -6.126478 1.845252 1690649
14.762750 -6.113826 1.410819 1690649
15.261468 -5.699884 1.820305 1690649
15.093744 -6.336285 0.618570 1690649
15.322547 -5.747563 1.231084 1690649
14.900023 -5.674802 1.418884 1690649
14.923548 -5.873415 1.600390 1690649
15.437526 -6.192038 0.969569 1690649
14.885283 -5.921610 0.757684 1690649
15.104335 -6.121813 1.069600 1690649
15.368121 -5.665902 1.115400 1690649
14.672955 -5.969305 0.543605 1690649
15.147864 -5.783385 0.588163 1690649
14.793150 -6.132128 1.282939 1690649
15.124496 -5.732587 1.859833 1690649
15.262176 -5.845503 1.071229 1690649
14.946698 -6.311055 0.372121 1690649
15.238901 -5.836163 1.898775 1690649
15.075928 -6.278349 0.968527 1690649
14.806673 -5.690234 1.901297 1690649
15.304173 -6.162642 1.130813 1690649
15.120924 -6.325188 1.421183 1690649
15.070939 -5.838149 1.007815 1690649
14.946619 -5.586439 1.032689 1690649
15.056909 -5.662623 1.381201 1690649
14.913088 -5.847473 1.234121 1690649
15.264132 -5.591251 0.415915 1690649
15.461305 -5.881431 1.532606 1690649
14.881423 -5.798105 1.015172 1690649
14.681203 -6.156798 1.845878 1690649
15.044555 -6.341172 1.692119 1690649
14.906980 -6.092910 0.818236 1690649
14.913665 -5.867424 0.571259 1690649
15.423955 -6.230278 0.919461 1690649
15.060555 -6.035550 1.465194 1690649
14.738785 -6.027755 0.919554 1690649
15.233376 -5.966614 0.139468 1690649
14.863569 -5.873558 0.194539 1690649
15.128049 -6.381584 0.184594 1690649
15.082112 -5.725873 0.985910 1690649
15.207142 -6.213003 1.747291 1690649
14.913708 -6.271579 1.661624 1690649
15.128948 -6.442052 1.775682 1690649
14.881555 -5.831055 0.240660 1690649
14.769486 -6.141285 0.347939 1690649
14.895324 -5.874058 1.343988 1690649
15.210246 -6.133957 0.667210 1690649
14.907623 -6.236567 1.620731 1690649
15.441535 -6.068929 1.152580 1690649
15.240053 -6.022582 0.105753 1690649
15.056437 -5.625126 1.236470 1690649
15.130172 -5.831300 0.228875 1690649
15.087462 -6.337665 1.113657 1690649
15.404543 -6.028133 0.723739 1690649
15.273777 -5.717337 1.186740 1690649
15.033370 -5.581933 0.236821 1690649
15.061861 -6.192113 0.455202 1690649
15.179186 -5.814026 0.927258 1690649
14.950677 -5.954975 1.760589 1690649
14.732231 -5.890751 0.701049 1690649
15.183207 -6.354504 0.210230 1690649
15.048250 -6.380610 1.456632 1690649
14.899323 -6.264311 0.140373 1690649
15.312051 -5.822240 1.509924 1690649
15.378828 -6.191121 1.255242 1690649
15.108730 -5.718828 1.689232 1690649
15.021953 -5.672871 1.130707 1690649
15.299917 -5.692272 0.764888 1690649
14.869949 -6.083999 0.153309 1690649
14.863323 -5.678157 1.259685 1690649
15.372097 -6.272108 0.571604 1690649
14.885497 -5.874845 1.657105 1690649
15.020446 -5.967454 1.875012 1690649
15.371305 -5.838393 0.515519 1690649
14.946832 -6.212181 1.624677 1690649
14.752014 -6.222345 0.968253 1690649
14.988272 -5.692714 1.733956 1690649
14.943468 -6.234810 1.466117 1690649
14.789762 -5.766688 0.608322 1690649
14.869246 -5.784653 0.131675 1690649
14.776349 -6.316204 1.144139 1690649
14.842500 -5.758914 0.612696 1690649
14.904496 -5.762248 1.046620 1690649
14.756190 -6.191380 0.781884 1690649
14.869052 -6.132661 1.288183 1690649
15.438011 -6.272428 0.145225 1690649
15.091746 -5.586448 1.885314 1690649
15.487497 -5.892166 0.967372 1690649
15.290063 -6.384503 1.823311 1690649
15.474630 -5.902103 1.442123 1690649
15.221000 -6.250193 1.056279 1690649
15.345870 -5.809934 1.357967 1690649
15.110334 -6.316240 1.145924 1690649
15.042633 -5.655377 0.750697 1690649
15.155457 -6.391441 0.156020 1690649
14.710305 -6.028506 0.952220 1690649
14.781378 -5.742418 0.295684 1690649
15.392185 -5.878433 1.312144 1690649
15.314225 -6.267075 0.112969 1690649
14.872145 -6.003409 1.085042 1690649
15.135831 -6.198189 0.259986 1690649
14.745629 -6.050298 0.945280 1690649
15.086425 -6.292220 0.479635 1690649
15.460354 -5.816804 0.684352 1690649
14.773859 -5.899761 1.860667 1690649
14.994811 -5.882705 0.242960 1690649
15.211534 -6.017662 0.448998 1690649
15.393537 -6.295793 0.897176 1690649
14.665657 -5.828768 1.417538 1690649
14.840899 -5.889951 1.526583 1690649
14.887251 -6.004898 0.319263 1690649
15.261215 -6.289089 1.450410 1690649
15.007788 -6.032506 0.498285 1690649
15.307058 -6.157907 1.363164 1690649
15.204165 -5.795993 0.213153 1690649
14.697524 -6.045647 0.653386 1690649
15.508430 -6.116162 0.757257 1690649
15.376933 -5.901405 1.284838 1690649
14.981937 -5.919697 0.904652 1690649
14.790540 -6.006721 0.657498 1690649
15.513008 -5.847836 1.200858 1690649
15.131800 -6.130178 1.285542 1690649
14.929291 -5.902262 1.676457 1690649
15.081260 -5.586110 1.204506 1690649
15.489075 -5.982477 1.276772 1690649
15.291355 -6.192739 0.502189 1690649
14.861362 -6.004697 0.995677 1690649
15.170486 -5.989221 1.222165 1690649
15.250940 -6.101037 0.690058 1690649
-4.348589 7.197618 0.472350 10053171
-5.955192 7.090315 0.426864 10053171
-4.434284 6.967958 2.369015 10053171
-5.168508 7.162497 2.888032 10053171
-3.851424 6.999611 0.285915 10053171
-6.673083 6.757479 2.505431 10053171
-4.108738 7.161514 2.550669 10053171
-3.156029 6.946632 1.350258 10053171
-4.392516 6.985704 0.505274 10053171
-3.508781 7.180822 2.553246 10053171
-3.666265 7.218990 2.509609 10053171
-3.260267 6.978453 0.854106 10053171
-4.000217 7.077188 0.153981 10053171
-4.973655 6.806192 1.148242 10053171
-6.819155 6.968006 0.187494 10053171
-4.619475 7.116897 2.177193 10053171
-6.403214 6.998876 1.199784 10053171
-4.671614 6.943677 0.444682 10053171
-6.884621 6.756241 2.842275 10053171
-6.286282 7.208325 2.872794 10053171
-6.068246 7.051634 0.749232 10053171
-6.139260 6.813719 2.809786 10053171
-3.733658 6.855989 2.218355 10053171
-4.809441 7.066197 2.522982 10053171
-6.568701 7.010159 2.646841 10053171
-6.052606 7.147213 1.136255 10053171
-3.407060 7.141058 1.439657 10053171
-4.618097 6.965090 1.349342 10053171
-5.987421 7.227484 2.391914 10053171
-6.686487 7.000170 2.967020 10053171
-6.865944 7.073257 1.126179 10053171
-5.961907 6.765042 0.137101 10053171
-6.126424 7.005734 1.964594 10053171
-3.869227 6.965699 0.583619 10053171
-4.740562 7.155703 0.114568 10053171
-5.891489 7.150351 2.093056 10053171
-4.852811 6.956872 1.411188 10053171
-5.498391 7.246964 2.726006 10053171
-5.061042 6.767070 1.315880 10053171
-6.146328 6.970896 2.546185 10053171
-4.470544 6.940504 2.123120 10053171
-4.119039 7.110591 1.105343 10053171
-3.863879 6.769858 0.873984 10053171
-4.711132 6.944107 2.257645 10053171
-5.531898 6.944645 0.639428 10053171
-3.801713 7.036850 1.134672 10053171
-3.499627 7.071774 2.123191 10053171
-4.274340 7.192088 0.695960 10053171
-4.096325 7.255993 2.567289 10053171
-5.285935 6.970813 1.620888 10053171
-6.756501 7.068294 2.623038 10053171
-5.664536 6.991206 1.214430 10053171
-5.757821 6.836583 2.784915 10053171
-3.548975 6.857836 2.686572 10053171
-3.086465 6.883933 0.640473 10053171
-5.049914 7.016896 2.166546 10053171
-3.486871 7.059599 0.809780 10053171
-5.427250 7.029434 1.607552 10053171
-3.349530 7.085485 2.177857 10053171
-6.453205 7.186540 0.032543 10053171
-6.354887 6.747187 2.610946 10053171
-4.395144 6.939558 2.934664 10053171
-6.307633 6.949091 0.872009 10053171
-3.764891 7.160968 1.051766 10053171
-3.554700 7.041352 2.692976 10053171
-4.185109 6.915539 2.152288 10053171
-6.349995 6.822429 1.064907 10053171
-3.768548 7.017533 1.910143 10053171
-3.884292 7.055550 1.239501 10053171
-5.438334 7.199524 0.697152 10053171
-5.924204 6.936654 2.504878 10053171
-3.274739 6.913169 1.487922 10053171
-6.821859 6.774116 2.279489 10053171
-3.702260 6.973638 0.991956 10053171
-6.494967 7.206681 1.591142 10053171
-5.288041 6.965315 0.855698 10053171
-6.511717 6.873725 0.439001 10053171
-4.543578 7.083120 2.266876 10053171
-6.745169 7.186141 1.135110 10053171
-4.051476 6.867936 0.265544 10053171
-5.773996 7.215014 0.686678 10053171
-6.968965 7.060215 2.903515 10053171
-3.127932 7.076164 2.179427 10053171
-4.145390 7.108592 0.040520 10053171
-4.438680 7.187883 1.354484 10053171
-6.607462 7.217619 0.415357 10053171
-5.838380 6.847804 0.178299 10053171
-3.254129 6.894209 0.157042 10053171
-6.518015 6.923359 1.314190 10053171
-5.964355 6.844550 0.015218 10053171
-5.461478 7.052987 1.783791 10053171
-6.384989 7.012269 2.970706 10053171
-6.084752 6.814322 2.943302 10053171
-4.242773 7.209664 1.392473 10053171
-4.269866 7.098691 2.193954 10053171
-3.913616 7.188353 2.397761 10053171
-5.675824 7.198987 0.394956 10053171
-5.354165 6.922445 0.453787 10053171
-3.331275 6.984241 0.988842 10053171
-6.863338 6.968443 0.259525 10053171
-4.477753 6.804366 1.773887 10053171
-6.244838 7.219231 1.535712 10053171
-3.842045 7.204821 0.881387 10053171
-3.779623 6.968937 2.086431 10053171
-4.810212 7.133615 1.236437 10053171
-5.627151 7.258010 1.591462 10053171
-4.217022 6.956102 0.405936 10053171
-5.517525 7.216804 0.312440 10053171
-3.252686 7.056396 0.140155 10053171
-5.101202 6.770522 1.801673 10053171
-5.634930 7.051536 2.643206 10053171
-5.474102 6.881073 2.383256 10053171
-4.445185 6.931735 0.700815 10053171
-4.789175 6.937360 2.318072 10053171
-6.475242 6.961114 1.152677 10053171
-5.726640 6.792397 1.395484 10053171
-4.574924 6.900210 1.775289 10053171
-4.051725 7.070512 2.563510 10053171
-3.322120 7.005288 0.200269 10053171
-4.620178 6.755170 1.426141 10053171
-3.809130 7.213927 0.828995 10053171
-5.177654 6.874866 0.245564 10053171
-6.438225 6.761001 0.313239 10053171
-5.583405 7.026906 0.828653 10053171
-3.160721 7.188913 1.540857 10053171
-5.367266 7.074640 2.703209 10053171
-5.323700 6.929800 2.697828 10053171
-4.381281 6.888061 0.783513 10053171
-6.982799 7.125800 2.672218 10053171
-4.291676 7.043010 2.897266 10053171
-4.862857 6.971035 0.240992 10053171
-6.486761 6.923891 2.246671 10053171
-5.367148 6.900005 1.742347 10053171
-5.252932 7.044375 1.610223 10053171
-4.640172 6.836841 0.826851 10053171
-3.262413 6.834579 0.421565 10053171
-3.999308 6.945141 1.200245 10053171
-3.762085 7.242192 0.791162 10053171
-5.114748 7.036324 2.763549 10053171
-4.753190 7.183780 1.099885 10053171
-5.661150 6.798310 2.549215 10053171
-5.408951 7.170770 2.277375 10053171
-6.051008 6.998397 2.979811 10053171
-3.708778 6.921390 1.071395 10053171
-4.244241 7.095332 2.732260 10053171
-5.934260 7.055017 0.662345 10053171
-4.956852 6.818668 2.325929 10053171
-3.936026 6.815659 1.377396 10053171
-6.011061 7.191475 1.740724 10053171
-3.591917 7.215035 0.404536 10053171
-5.872937 6.937242 2.276791 10053171
-6.555377 6.872392 1.751826 10053171
-4.753450 6.798477 2.803314 10053171
-6.488658 7.161501 1.208155 10053171
-3.571452 7.014707 1.077472 10053171
-6.267169 6.824860 1.549170 10053171
-3.020250 6.834314 1.570344 10053171
-6.374549 7.222815 0.957359 10053171
-4.789593 6.988485 1.220001 10053171
-6.402900 7.071300 0.936476 10053171
-6.882561 6.881124 2.255223 10053171
-3.718742 7.223861 1.812331 10053171
-4.233204 7.161151 0.812954 10053171
-6.319077 6.800675 2.949754 10053171
-3.034979 6.771281 2.279640 10053171
-6.422373 6.927118 1.476889 10053171
-6.306892 7.017735 1.006150 10053171
-5.141637 6.785515 1.221196 10053171
-3.969291 7.183413 0.929825 10053171
-6.398636 7.069427 0.853001 10053171
-6.218920 6.744308 2.097450 10053171
-3.520652 7.025953 0.944249 10053171
-5.324815 6.958095 2.324245 10053171
-4.481889 6.764213 0.650669 10053171
-5.578681 7.185493 0.164960 10053171
-3.625863 6.922851 1.827287 10053171
-6.993805 7.172121 2.091290 10053171
-6.190905 7.172643 1.952224 10053171
-4.708179 6.929645 0.443925 10053171
-5.549496 6.956238 1.739785 10053171
-6.759723 6.777985 1.284815 10053171
-5.589167 6.807792 1.505058 10053171
-6.405324 6.896340 2.028307 10053171
-5.981172 6.774343 1.057110 10053171
-5.780885 6.764184 2.070312 10053171
-5.574547 6.797582 1.576784 10053171
-3.361097 7.071140 2.632886 10053171
-5.052125 7.051661 0.375581 10053171
-4.197855 7.197844 0.555178 10053171
-5.047516 7.147482 0.848705 10053171
-6.375476 6.912230 2.839649 10053171
-6.865181 6.811504 2.546135 10053171
-6.711972 6.762976 0.427036 10053171
-3.245955 7.081299 1.576862 10053171
-6.030801 6.736607 2.634561 10053171
-4.060665 6.922032 1.549875 10053171
-6.726642 7.217138 0.613521 10053171
-6.915036 6.967996 2.968018 10053171
-4.478919 6.949180 1.942707 10053171
-4.897913 7.049147 2.560102 10053171
-3.984634 7.084476 0.798214 10053171
-4.138279 7.245893 0.529552 10053171
-3.916735 6.785269 1.122984 10053171
-3.468974 7.220269 2.481832 10053171
-3.393506 7.183515 0.189108 10053171
-3.157398 6.771056 0.459744 10053171
-4.778563 7.195528 1.080762 10053171
-6.918089 7.091649 0.564953 10053171
-6.254080 6.759920 1.875111 10053171
-6.629203 6.940941 0.626360 10053171
-6.353940 7.193279 1.714830 10053171
-6.422793 6.829697 1.120836 10053171
-4.985863 6.814724 0.299322 10053171
-5.293273 7.051858 1.137061 10053171
-5.999934 7.072849 1.270137 10053171
-3.170458 7.008174 2.073772 10053171
-4.520501 6.917662 0.163668 10053171
-6.034214 6.854613 0.176609 10053171
-3.628385 7.138772 0.346080 10053171
-3.335676 7.206934 2.597827 10053171
-4.016401 6.922727 2.674506 10053171
-4.117914 6.837064 2.997090 10053171
-5.547727 7.085499 1.935477 10053171
-4.329026 7.154686 0.740365 10053171
-4.250856 6.943127 0.594668 10053171
-3.605849 7.148315 0.574274 10053171
-3.749063 6.947130 0.898316 10053171
-4.652094 7.025640 0.612886 10053171
-4.189278 6.943299 0.199563 10053171
-6.530777 6.795488 2.354205 10053171
-4.726925 7.162221 0.497017 10053171
-5.145921 6.968599 1.459973 10053171
-6.458457 7.247421 1.319261 10053171
-6.975625 7.016120 2.087150 10053171
-6.600402 7.214526 1.490299 10053171
-5.031592 7.131174 2.890421 10053171
-4.727792 6.848649 0.743477 10053171
-4.290336 6.940769 1.300824 10053171
-5.449118 6.814995 2.067418 10053171
-4.009183 6.757546 2.825441 10053171
-5.948598 7.002953 1.411504 10053171
-6.736637 6.772897 0.267711 10053171
-3.285940 7.136564 2.680039 10053171
-5.089983 7.052767 1.735313 10053171
-5.878914 7.189635 0.509542 10053171
-6.248844 6.878886 1.069636 10053171
-6.956529 7.082470 1.594598 10053171
-5.736927 7.205515 2.550958 10053171
-6.220344 6.930428 2.036111 10053171
-3.793528 6.951431 1.361659 10053171
-5.717678 7.148673 0.861090 10053171
-3.108331 6.806555 0.968698 10053171
-3.918881 6.867530 1.098296 10053171
-5.342546 7.182537 1.652293 10053171
-3.500992 6.751035 0.855088 10053171
-4.677455 7.242150 1.554253 10053171
-3.637543 7.007480 2.203205 10053171
-4.593628 7.128483 2.673002 10053171
-4.921030 7.071149 2.087550 10053171
-6.930287 6.781752 2.373894 10053171
-3.424737 7.113609 0.850295 10053171
-5.523724 7.067456 2.927299 10053171
-4.824607 6.933329 0.674611 10053171
-4.597447 7.013011 2.184763 10053171
-6.917604 7.025502 2.205239 10053171
-3.650307 6.860114 1.216857 10053171
-4.347166 6.903422 0.816637 10053171
-6.449705 6.782586 2.067303 10053171
-6.050682 6.799760 2.070381 10053171
-4.837932 6.783275 0.940841 10053171
-3.715480 6.866241 0.006411 10053171
-4.875639 7.127153 2.477745 10053171
-3.747778 7.020076 2.499343 10053171
-5.175537 7.107932 1.509384 10053171
-6.257580 6.835462 1.599345 10053171
-6.677527 7.165364 2.904464 10053171
-3.958097 6.907556 0.955674 10053171
-6.227816 7.078423 0.923673 10053171
-4.888590 7.163692 1.509897 10053171
-3.307297 7.221475 0.921537 10053171
-6.371886 7.086254 1.845052 10053171
-5.695351 6.804837 1.340931 10053171
-3.553309 6.902352 0.425778 10053171
-5.646821 6.807637 2.123959 10053171
-4.290324 7.239051 0.446133 10053171
-3.206670 7.013113 1.438007 10053171
-3.098190 6.936141 1.832092 10053171
-4.098733 6.764722 0.897500 10053171
-4.291163 7.211070 1.321453 10053171
-3.091711 6.846645 0.305803 10053171
-4.011339 7.140758 1.430977 10053171
-5.451363 6.911487 1.061673 10053171
-3.979817 6.948571 0.346828 10053171
-3.778168 6.930656 0.163713 10053171
-5.741491 7.237450 1.852703 10053171
-5.690526 7.214770 1.782497 10053171
-6.026829 6.753636 2.374855 10053171
-3.620905 6.954323 0.810978 10053171
-5.203728 7.120438 1.191996 10053171
-5.109892 6.830489 2.486923 10053171
-4.273568 7.211525 0.631664 10053171
-6.976821 7.215729 0.058185 10053171
-4.018999 6.794982 1.121059 10053171
-4.078344 6.773308 1.843198 10053171
-5.404840 6.859515 2.725835 10053171
-3.291734 7.041492 1.523721 10053171
-3.335891 7.211653 0.003613 10053171
-3.221725 6.823128 1.503229 10053171
-4.650020 6.958407 1.563557 10053171
-4.955665 6.859576 0.132775 10053171
-6.804023 6.823752 1.560878 10053171
-5.545407 6.955214 0.123271 10053171
-6.928265 6.901949 1.432681 10053171
-4.212391 6.760546 1.294523 10053171
-6.372401 6.923665 0.224226 10053171
-3.363328 6.767826 2.821243 10053171
-4.115715 6.782859 1.416174 10053171
-4.727996 6.846011 1.917533 10053171
-6.146701 6.783559 0.119520 10053171
-5.186090 7.132105 1.861991 10053171
-6.274583 7.130149 2.251245 10053171
-5.136208 7.083467 1.399056 10053171
-6.465107 6.930811 1.321452 10053171
-5.474180 7.082355 0.281294 10053171
-4.944866 7.178728 1.787366 10053171
-3.847260 6.981690 1.616411 10053171
-5.422415 7.084494 2.716068 10053171
-5.698453 7.051863 2.990787 10053171
-6.818360 7.163686 0.786014 10053171
-4.901831 7.162043 1.136414 10053171
-6.990455 6.944846 0.268296 10053171
-6.730633 6.978002 1.028632 10053171
-4.293880 6.810040 1.922464 10053171
-3.982866 7.165921 0.064824 10053171
-3.121895 7.046618 1.332599 10053171
-3.858374 7.022629 0.387497 10053171
-3.121302 6.748866 1.714262 10053171
-3.459666 6.868311 0.319235 10053171
-6.625364 7.081184 1.226601 10053171
-4.088307 7.139287 0.727511 10053171
-3.793973 6.994438 2.074242 10053171
-3.793166 7.025876 1.243998 10053171
-4.636958 7.136110 2.659714 10053171
-4.620913 7.232857 2.356478 10053171
-6.251614 7.137457 0.876895 10053171
-3.100342 6.920098 0.038858 10053171
-4.395091 6.747694 0.538260 10053171
-5.189481 7.025280 2.847945 10053171
-5.322569 7.007720 2.485706 10053171
-3.662636 7.218215 1.083611 10053171
-4.839902 6.781003 0.074128 10053171
-4.751674 7.111690 0.916733 10053171
-4.078939 6.848536 1.496670 10053171
-3.537197 6.971212 0.979524 10053171
-6.947919 7.087667 0.886889 10053171
-3.897907 6.934991 1.365762 10053171
-3.603409 6.954512 2.708390 10053171
-5.490031 6.835217 2.607440 10053171
-5.400280 6.755373 2.414973 10053171
-3.041346 6.811400 2.945680 10053171
-6.150620 6.832554 2.045456 10053171
-4.447175 7.131867 0.778519 10053171
-4.510980 7.029243 0.709948 10053171
-3.187124 7.227237 2.741655 10053171
-5.871106 7.216765 2.533680 10053171
-4.221731 6.880447 2.130510 10053171
-3.205721 6.938715 0.489648 10053171
-4.999162 6.831078 1.841861 10053171
-3.728546 6.963720 0.086523 10053171
-4.333404 7.220705 0.530421 10053171
-6.208208 6.894122 1.543068 10053171
-3.875249 7.221866 0.578349 10053171
-5.437246 6.776737 1.468009 10053171
-3.218854 6.807176 2.168653 10053171
-3.453039 6.977403 0.303289 10053171
-3.937986 7.254786 2.067953 10053171
-6.186680 7.175463 0.253225 10053171
-6.562822 6.907571 0.536246 10053171
-4.622792 6.884315 1.218056 10053171
-5.126000 6.768073 0.009365 10053171
-5.451972 6.798050 0.528673 10053171
-3.767153 6.780793 0.394531 10053171
-5.358822 7.202747 0.692014 10053171
-3.197576 7.164092 1.376678 10053171
-4.937025 6.764197 2.536807 10053171
-6.749669 7.130721 1.622586 10053171
-4.840933 6.791984 1.168593 10053171
-4.058296 7.042757 1.631896 10053171
-4.083167 7.020479 1.612029 10053171
-3.487648 6.931091 2.928427 10053171
-4.101068 7.147660 2.896933 10053171
-6.615695 6.905442 1.743009 10053171
-5.194070 7.052367 1.678963 10053171
-5.110267 7.178483 2.159034 10053171
-4.502370 6.856454 0.024479 10053171
-5.333047 6.759171 2.584423 10053171
-5.179468 6.776741 1.351991 10053171
-4.066363 6.887407 0.712767 10053171
-4.397764 7.048665 1.032154 10053171
-5.229653 7.128788 0.701570 10053171
-3.741203 6.770432 1.892697 10053171
-3.648250 7.231210 2.731716 10053171
-3.361450 7.145796 0.992088 10053171
-4.090098 7.191223 2.630756 10053171
-3.089148 7.165099 2.861084 10053171
-3.585208 7.022427 1.671663 10053171
-5.318529 7.128482 0.087411 10053171
-3.917549 6.941723 2.293309 10053171
-6.402450 7.038656 2.533491 10053171
-3.107773 7.086048 2.776067 10053171
-4.858590 7.168959 0.107618 10053171
-5.907005 6.887565 0.148047 10053171
-4.272051 7.053091 0.557322 10053171
-4.632236 7.132985 0.033572 10053171
-6.628478 7.200079 1.376879 10053171
-6.062757 6.930303 0.103741 10053171
-5.837353 6.748103 2.918920 10053171
-4.476753 7.054187 2.827044 10053171
-5.612340 7.201508 2.527828 10053171
-3.116079 6.951565 0.625250 10053171
-5.777651 6.964632 0.616166 10053171
-4.093324 7.118402 1.540796 10053171
-4.693131 6.770789 1.646865 10053171
-4.973232 7.144402 1.212586 10053171
-4.444179 6.963602 0.511282 10053171
-5.261927 7.235940 0.306097 10053171
-3.882137 6.949533 0.829483 10053171
-4.232554 6.937131 2.660850 10053171
-5.257642 7.117245 1.715865 10053171
-3.021035 6.968550 0.260924 10053171
-5.451999 6.848083 1.045748 10053171
-6.567548 7.071312 2.728919 10053171
-5.113477 6.815351 1.664585 10053171
-3.019725 6.905245 0.761116 10053171
-6.581865 6.978162 1.191049 10053171
-3.088023 6.986891 0.184787 10053171
-6.277234 7.228463 1.887310 10053171
-3.684824 6.916371 1.350835 10053171
-4.180730 7.098282 0.212554 10053171
-3.846573 7.128345 1.808190 10053171
-4.177286 7.017080 1.352825 10053171
-3.086423 6.812060 0.733906 10053171
-5.589707 7.233620 0.107562 10053171
-5.670867 7.007779 2.777474 10053171
-4.799615 6.950716 1.791617 10053171
-5.953870 7.164493 2.044624 10053171
-3.321877 7.127287 0.966529 10053171
-6.475661 6.803440 0.737847 10053171
-6.595053 7.053167 1.931836 10053171
-3.740777 6.877186 0.044896 10053171
-4.623540 7.133414 2.011163 10053171
-5.598790 6.750815 2.669845 10053171
-3.965091 7.087841 0.444667 10053171
-3.918624 6.765860 1.638250 10053171
-5.395844 7.024267 0.788886 10053171
-4.815433 6.826107 1.754437 10053171
-5.769729 6.917160 1.079863 10053171
-6.606859 6.855187 0.159741 10053171
-4.513075 6.970201 1.698452 10053171
-3.737739 7.127533 2.793272 10053171
-5.710447 6.853104 0.073919 10053171
-5.663087 7.070768 0.378147 10053171
-4.260311 6.845922 0.852830 10053171
-5.850406 6.855530 2.055377 10053171
-4.920594 6.822038 2.932593 10053171
-3.174151 7.001035 2.025082 10053171
-3.612284 6.905487 1.094357 10053171
-4.795553 7.138649 2.865258 10053171
-4.505123 7.167858 1.491585 10053171
-3.449530 7.086119 1.058454 10053171
-3.149374 7.161179 0.509257 10053171
-5.424452 7.098488 0.811498 10053171
-6.670206 6.958064 2.570786 10053171
-3.309417 6.912837 2.388568 10053171
-5.860465 7.137854 2.057951 10053171
-4.650365 6.914003 1.470745 10053171
-4.283933 6.826762 2.111251 10053171
-3.016117 6.741884 2.483217 10053171
-3.039976 6.982997 1.078677 10053171
-4.386370 7.198413 0.303530 10053171
-5.494224 7.221212 2.295000 10053171
-5.606378 7.111157 1.121734 10053171
-3.859546 6.895322 1.856185 10053171
-4.671216 7.086170 2.954283 10053171
-4.730089 7.180050 2.683675 10053171
-6.290869 7.028815 1.594616 10053171
-3.106612 7.230174 0.308716 10053171
-4.499988 6.891836 2.794109 10053171
-3.035115 6.939441 1.117009 10053171
-4.455948 7.252989 2.849678 10053171
-5.005164 6.899048 2.696749 10053171
-3.213121 6.986570 0.527394 10053171
-5.972921 6.810019 0.790410 10053171
-4.684412 7.145994 0.318718 10053171
-3.011174 7.059350 0.546320 10053171
-5.445407 6.908920 1.096523 10053171
-3.909901 6.819573 0.631462 10053171
-6.069334 6.984217 2.728730 10053171
-3.315463 6.928284 0.547762 10053171
-5.720191 6.734989 2.851821 10053171
-4.187941 6.852618 0.616218 10053171
-6.613195 6.983137 2.927974 10053171
-6.913169 7.251064 2.522698 10053171
-6.888506 7.206269 0.741212 10053171
-5.259266 7.006233 2.453096 10053171
-5.211652 6.955035 1.273780 10053171
-3.172126 7.122482 1.896555 10053171
-6.378879 6.947465 1.704853 10053171
-4.061793 6.836856 0.131031 10053171
-3.514079 6.902542 0.014060 10053171
-6.109856 6.872715 1.892512 10053171
-3.115628 7.078802 0.779462 10053171
-3.566499 7.039653 2.741227 10053171
-4.233763 7.068588 2.638576 10053171
-3.441716 6.910342 2.410610 10053171
-5.110048 6.880275 2.876955 10053171
-4.454882 7.126060 1.050707 10053171
-6.598168 6.846292 2.039467 10053171
-3.847183 6.870519 2.292563 10053171
-3.564244 6.997207 1.034566 10053171
-4.284136 6.771845 0.862366 10053171
-3.872903 7.015037 0.994619 10053171
-5.365227 6.980345 2.065694 10053171
-3.251041 6.835885 0.509133 10053171
-3.387626 7.255643 0.649653 10053171
-6.372033 6.756087 1.219722 10053171
-5.820862 7.232464 1.586035 10053171
-3.787758 6.890997 0.819139 10053171
-6.560227 6.863372 1.581126 10053171
-4.356338 6.809676 0.993156 10053171
-5.664457 6.910867 0.046297 10053171
-4.414849 7.038042 1.177825 10053171
-4.184658 6.909040 2.103452 10053171
-3.262523 7.172392 1.278294 10053171
-3.739449 7.229930 2.631406 10053171
-5.896512 6.809600 0.042467 10053171
-5.663658 6.804633 1.569117 10053171
-4.939303 6.954948 2.489496 10053171
-6.065897 7.065396 1.097458 10053171
-6.782401 7.238168 2.088076 10053171
-5.460356 6.874911 1.237751 10053171
-6.181862 6.908264 2.920382 10053171
-5.551853 6.773043 2.398283 10053171
-4.520037 7.175503 1.522725 10053171
-5.312048 6.882076 0.622932 10053171
-6.020021 7.235088 1.487407 10053171
-3.522465 6.850270 2.523871 10053171
-5.673511 6.942539 2.287868 10053171
-6.081962 6.958496 1.459818 10053171
-6.580359 6.863004 1.247564 10053171
-6.772114 7.072782 2.618247 10053171
-6.563855 6.885787 1.832477 10053171
-6.071343 6.995839 2.782606 10053171
-4.206418 7.175369 2.773125 10053171
-4.892385 7.086652 2.197943 10053171
-4.864807 7.129589 0.062173 10053171
-4.097817 6.829446 1.562269 10053171
-6.971512 7.249925 0.316522 10053171
-5.490421 7.155469 0.045312 10053171
-3.522887 6.793387 0.727278 10053171
-6.061221 6.799652 0.900954 10053171
-3.540191 6.803059 2.851059 10053171
-3.541411 7.178390 0.908538 10053171
-5.204651 6.834910 2.953741 10053171
-6.937708 6.852246 2.323066 10053171
-4.335812 6.855968 0.587276 10053171
-4.564671 6.863183 0.880716 10053171
-3.505968 6.843570 0.294672 10053171
-6.435415 7.005083 1.133832 10053171
-5.303769 7.231238 1.680359 10053171
-4.196448 7.169558 1.714840 10053171
-5.761848 7.137008 0.933050 10053171
-4.630245 6.964913 2.951536 10053171
-5.846987 7.029379 1.021690 10053171
-5.197575 7.124110 0.293953 10053171
-4.804107 6.847424 2.756268 10053171
-3.338092 6.969411 0.798869 10053171
-3.897165 7.015910 1.825191 10053171
-5.805909 7.006174 1.291614 10053171
-3.335839 6.966665 1.627772 10053171
-2.992297 7.204383 0.780196 10053171
-3.191331 7.227926 2.771216 10053171
-3.171430 7.183785 2.294571 10053171
-6.064874 6.942364 2.257589 10053171
-6.808915 7.048804 2.057197 10053171
-4.075718 6.784543 1.160742 10053171
-3.180543 7.207118 1.686632 10053171
-6.915554 7.174231 1.456858 10053171
-4.310373 6.888920 1.105497 10053171
-5.314784 7.036321 0.105848 10053171
-6.802047 7.153848 2.874381 10053171
-4.227986 6.821561 2.441226 10053171
-3.449728 7.043344 2.646642 10053171
-3.078829 6.784000 1.134640 10053171
-3.485384 7.212723 0.557694 10053171
-3.469227 6.925416 2.307945 10053171
-4.100724 7.087594 2.706581 10053171
-3.736214 7.062075 2.909972 10053171
-5.771127 6.933991 0.485305 10053171
-4.750742 7.117487 1.572705 10053171
5.880908 -5.979609 1.157447 8342706
6.121838 -5.719255 1.799723 8342706
5.437984 -6.086195 3.646910 8342706
6.174316 -6.478546 0.564337 8342706
5.444918 -6.220641 3.041104 8342706
6.166885 -6.457486 4.087822 8342706
6.360009 -6.047354 4.912768 8342706
6.193770 -5.633560 0.315462 8342706
6.012206 -6.178864 3.993199 8342706
6.178389 -5.980862 0.486346 8342706
5.590281 -5.658952 2.022159 8342706
6.173511 -6.442919 3.303460 8342706
6.530653 -5.793018 4.832450 8342706
6.053469 -5.617373 2.412348 8342706
6.464814 -5.973587 1.318663 8342706
6.091467 -6.228987 2.965099 8342706
6.540685 -5.889490 0.289370 8342706
6.372299 -6.437982 2.971286 8342706
6.313420 -5.503701 2.197714 8342706
6.449811 -6.352522 2.656472 8342706
6.194575 -6.094305 2.982265 8342706
6.277986 -5.562675 2.033795 8342706
5.617162 -6.304738 3.528154 8342706
5.818219 -5.568450 0.205013 8342706
5.630538 -5.757657 0.524441 8342706
6.491100 -5.792325 1.417993 8342706
6.049550 -5.410967 0.778674 8342706
6.211438 -6.309052 1.506141 8342706
6.447755 -6.133706 1.597784 8342706
6.536563 -6.052080 3.483427 8342706
5.622212 -6.178945 3.358764 8342706
5.854557 -6.188624 4.729340 8342706
5.778657 -5.526217 2.040878 8342706
6.327269 -5.788898 2.901507 8342706
6.268812 -5.922451 3.541337 8342706
5.441867 -6.107007 0.542324 8342706
6.392089 -5.822766 1.996600 8342706
5.906977 -5.772557 1.735326 8342706
5.737629 -5.871007 3.154452 8342706
5.664170 -6.169376 1.850046 8342706
5.795641 -5.520511 0.775992 8342706
6.469937 -6.093546 0.389264 8342706
6.008304 -6.124000 4.282090 8342706
5.574317 -6.190705 4.556566 8342706
5.740149 -5.746725 4.170101 8342706
5.742168 -5.919913 3.102961 8342706
6.007951 -5.988443 1.427486 8342706
6.404955 -6.302886 2.012052 8342706
5.670684 -5.723271 3.091008 8342706
6.281054 -6.071015 3.908791 8342706
5.424028 -6.006067 4.563580 8342706
5.963427 -5.449555 4.496542 8342706
5.515838 -5.966365 3.222076 8342706
6.433910 -5.927809 1.945871 8342706
6.158692 -6.499265 4.286895 8342706
6.376370 -5.888215 1.207666 8342706
5.404617 -5.941450 2.323414 8342706
5.508808 -5.762709 4.306357 8342706
6.436084 -6.003319 2.986560 8342706
6.108056 -5.669332 4.831961 8342706
6.266331 -5.863657 2.120656 8342706
5.803717 -5.478566 2.064530 8342706
5.850621 -6.343895 3.539204 8342706
5.989629 -5.497088 3.510882 8342706
5.761790 -6.025620 4.527830 8342706
5.862409 -6.099041 1.749003 8342706
6.183948 -5.764480 2.017203 8342706
6.167382 -6.303199 1.980175 8342706
5.792986 -6.229722 1.531146 8342706
5.602110 -6.246944 1.063369 8342706
5.865670 -6.368615 1.248730 8342706
5.958091 -5.949854 3.004542 8342706
6.049302 -6.117251 4.759158 8342706
5.796610 -5.801357 0.608118 8342706
5.737896 -6.084167 2.483264 8342706
5.946859 -5.990826 3.171363 8342706
5.482905 -6.192090 1.922545 8342706
6.092276 -5.591092 0.149654 8342706
6.432059 -5.942479 1.238225 8342706
6.571063 -6.080433 3.892988 8342706
6.033001 -6.212785 3.283371 8342706
5.578099 -5.653155 1.958889 8342706
6.116995 -6.262113 4.447665 8342706
6.123477 -5.580049 4.638134 8342706
6.442105 -5.677979 0.241070 8342706
5.966611 -6.169995 2.689416 8342706
6.222294 -5.945775 2.419068 8342706
5.504991 -6.165156 3.665384 8342706
6.068841 -6.318629 1.999332 8342706
5.871749 -6.344620 1.006737 8342706
6.195885 -6.424851 4.423615 8342706
5.544498 -5.928442 3.861596 8342706
5.672552 -6.391183 2.531435 8342706
6.105578 -6.487362 1.388616 8342706
5.836311 -5.898901 4.531331 8342706
5.606139 -5.795267 2.358186 8342706
6.467851 -5.840198 2.637122 8342706
6.108876 -6.433946 0.609597 8342706
5.571219 -6.135530 1.868017 8342706
6.308614 -6.045944 1.877898 8342706
6.577112 -6.066405 3.657766 8342706
5.653851 -6.384646 0.624404 8342706
5.700088 -6.455299 0.771994 8342706
6.209165 -5.993549 2.584894 8342706
5.642210 -6.024741 3.286235 8342706
5.752877 -5.599713 4.699898 8342706
5.762118 -6.242981 4.020612 8342706
5.647273 -5.836049 1.207649 8342706
6.409208 -5.968025 4.431649 8342706
5.844727 -5.614850 3.510927 8342706
6.018567 -5.821448 0.936917 8342706
6.162254 -6.364610 1.777621 8342706
6.143171 -5.802261 1.581259 8342706
5.962087 -5.788448 4.094787 8342706
6.030190 -6.195905 4.580828 8342706
5.798207 -6.156820 0.224299 8342706
5.898674 -5.647353 1.664559 8342706
6.201715 -5.625788 3.841069 8342706
5.695907 -5.972772 3.102779 8342706
5.821754 -6.205975 2.598771 8342706
5.684184 -5.861705 2.912569 8342706
5.596515 -6.245377 3.720204 8342706
5.893355 -6.571682 1.071407 8342706
6.115114 -5.803243 1.669466 8342706
6.287031 -6.325285 0.555366 8342706
6.357056 -5.711046 2.300115 8342706
6.149118 -5.579508 3.088318 8342706
5.675510 -5.685881 1.207700 8342706
5.986767 -5.723365 3.710167 8342706
6.193474 -6.042120 4.394950 8342706
6.496733 -6.106536 2.693971 8342706
6.336274 -6.149556 3.360403 8342706
5.678510 -6.301575 4.705054 8342706
6.285569 -5.531512 4.630817 8342706
5.956989 -6.214869 3.546299 8342706
5.767474 -5.657567 2.600970 8342706
6.076336 -6.584326 4.493703 8342706
5.534691 -5.774156 4.270561 8342706
5.514526 -6.156334 2.890059 8342706
6.111998 -5.635938 2.494382 8342706
5.695718 -5.880569 4.051891 8342706
5.887822 -5.425034 3.051286 8342706
6.495268 -5.809416 0.114885 8342706
6.070063 -5.449687 0.396873 8342706
6.401404 -5.714961 0.058590 8342706
6.056086 -5.760221 0.512982 8342706
5.675756 -5.718323 3.077420 8342706
6.340289 -6.226347 1.522622 8342706
6.122593 -5.807315 2.478422 8342706
5.777061 -6.150017 1.579323 8342706
5.987221 -6.203042 0.128937 8342706
5.860977 -6.026366 3.737783 8342706
5.741720 -6.166804 3.379304 8342706
6.308389 -6.231024 4.602321 8342706
6.322476 -6.459932 3.380489 8342706
6.019320 -6.550381 4.191344 8342706
6.005648 -5.671143 4.212651 8342706
5.705156 -5.618077 4.240444 8342706
6.200902 -5.877282 1.900715 8342706
5.509276 -6.209688 4.641048 8342706
5.901370 -6.330466 4.710444 8342706
6.048326 -6.452542 1.330961 8342706
6.130723 -5.625576 2.030778 8342706
5.957427 -6.211535 1.688587 8342706
6.048690 -6.029375 4.545727 8342706
6.092426 -5.637818 1.136840 8342706
6.127654 -6.313040 1.584618 8342706
5.727273 -5.742955 0.122183 8342706
6.321842 -6.182659 3.039814 8342706
6.103397 -5.565943 2.632936 8342706
6.255722 -5.853171 1.026636 8342706
5.626365 -6.063113 1.913204 8342706
5.717349 -5.682857 2.239521 8342706
5.783567 -5.652235 2.592118 8342706
5.519345 -5.912302 3.571562 8342706
6.024070 -5.817238 1.883034 8342706
5.717001 -5.881675 1.462812 8342706
5.745566 -6.251805 2.818721 8342706
6.007268 -6.308850 4.892113 8342706
5.961501 -6.454165 4.831622 8342706
6.051479 -5.591100 3.824256 8342706
5.609315 -5.555122 2.020718 8342706
6.546732 -6.036167 4.243533 8342706
5.666595 -5.589980 1.921293 8342706
6.087139 -6.463660 1.673606 8342706
5.584579 -6.232689 1.859873 8342706
6.336089 -5.900549 3.492034 8342706
6.462737 -5.824870 3.803066 8342706
6.426074 -6.117555 3.860059 8342706
6.141157 -5.853738 3.373998 8342706
6.151078 -6.392874 1.021251 8342706
5.664918 -6.160864 3.330089 8342706
6.511881 -6.295471 0.141877 8342706
6.400101 -6.083376 4.933383 8342706
5.431147 -5.910455 3.766489 8342706
6.496152 -6.012848 0.248717 8342706
6.240637 -5.669710 3.735728 8342706
6.107300 -6.013468 2.471234 8342706
6.277284 -5.985817 0.689604 8342706
6.435531 -5.965016 2.401817 8342706
6.087530 -6.492077 2.776287 8342706
6.385397 -6.070749 1.396792 8342706
6.191443 -5.674829 1.076495 8342706
6.267586 -5.565863 4.342093 8342706
6.177541 -6.445888 0.740233 8342706
5.646232 -6.053245 3.204897 8342706
6.528981 -5.799345 1.097084 8342706
6.180430 -5.797557 2.594003 8342706
6.006040 -6.089621 2.530049 8342706
6.388842 -5.679712 1.810250 8342706
5.976914 -6.118089 3.830851 8342706
6.489894 -6.007315 1.587943 8342706
5.499564 -6.284904 0.734703 8342706
5.819412 -6.367333 5.004663 8342706
6.468239 -5.767572 3.966979 8342706
6.244785 -6.039540 0.116416 8342706
6.271773 -5.831230 3.573529 8342706
6.488179 -6.080292 4.565857 8342706
5.912459 -6.056699 3.145628 8342706
6.397495 -6.253466 1.769661 8342706
6.031986 -5.448320 1.991251 8342706
5.410649 -5.960319 4.268219 8342706
6.088653 -6.068422 2.946203 8342706
6.268489 -5.940143 3.252584 8342706
5.643832 -6.185913 3.363173 8342706
6.149259 -6.368855 4.432251 8342706
6.093561 -5.506520 4.128015 8342706
5.931371 -5.850662 2.923110 8342706
5.448909 -6.099553 2.049092 8342706
6.322993 -6.440547 4.871292 8342706
5.622562 -6.391562 2.946517 8342706
6.340048 -6.329134 2.382459 8342706
6.436394 -5.819819 1.054923 8342706
6.449839 -5.883048 2.261890 8342706
5.987612 -5.523539 2.058141 8342706
6.210231 -5.766427 0.462140 8342706
5.887574 -6.285176 1.559395 8342706
6.377471 -5.769244 2.463840 8342706
6.365924 -5.547285 4.081384 8342706
6.458483 -6.164195 1.476942 8342706
6.171061 -5.809932 3.254789 8342706
5.723945 -6.391324 3.124034 8342706
6.278385 -5.556038 4.477063 8342706
6.043252 -5.899205 0.779425 8342706
5.587167 -6.375226 4.407563 8342706
5.604703 -5.742404 4.287472 8342706
6.213138 -5.838655 1.370604 8342706
5.763408 -5.783474 1.053492 8342706
5.875595 -6.097322 0.625146 8342706
6.188269 -5.448011 1.176256 8342706
6.283866 -5.540648 1.168536 8342706
5.638158 -6.268635 4.280211 8342706
5.928782 -6.062908 4.938862 8342706
6.208758 -5.579655 3.768938 8342706
5.650299 -6.023958 4.274663 8342706
6.104753 -6.551857 4.286660 8342706
5.699898 -5.717437 3.964456 8342706
5.545787 -6.085415 3.764219 8342706
6.223224 -6.398949 1.031952 8342706
6.562559 -5.951505 0.485527 8342706
5.998606 -5.545769 2.928417 8342706
6.215318 -6.409272 1.664757 8342706
5.488229 -6.226067 3.920143 8342706
5.611752 -6.451324 2.814824 8342706
5.793954 -5.495311 2.257392 8342706
6.547865 -6.239792 2.093066 8342706
6.035825 -6.347639 0.549897 8342706
5.444317 -5.856050 2.603292 8342706
5.838640 -5.666464 2.536190 8342706
6.292687 -6.087580 0.227607 8342706
6.049942 -5.601832 4.346704 8342706
6.503074 -6.296293 4.423765 8342706
5.823775 -6.400585 4.407437 8342706
5.456290 -5.776727 4.333205 8342706
5.950996 -5.488026 1.520672 8342706
6.532225 -6.183047 4.024193 8342706
6.396936 -6.173710 1.408119 8342706
5.815329 -6.186838 3.757393 8342706
6.100279 -6.334065 1.911004 8342706
5.540052 -5.640522 3.387053 8342706
5.791672 -6.456663 3.549191 8342706
5.508056 -5.668927 3.911803 8342706
6.170603 -5.561143 0.049005 8342706
6.353918 -5.967869 2.631721 8342706
6.352126 -6.094140 1.751486 8342706
5.785019 -5.795892 3.234016 8342706
6.019088 -5.795791 3.176499 8342706
6.306216 -6.047528 2.016216 8342706
6.369539 -5.807435 2.201208 8342706
6.044079 -5.788964 0.099358 8342706
5.817770 -6.066370 0.106343 8342706
6.239623 -6.449823 0.900444 8342706
6.359700 -6.478228 0.766484 8342706
6.155622 -6.371170 4.235302 8342706
5.855371 -6.525826 1.822462 8342706
5.634745 -5.910035 0.969319 8342706
5.781451 -5.671759 2.701598 8342706
6.202594 -5.739980 0.428474 8342706
6.058020 -5.420092 2.090660 8342706
6.007082 -6.505850 1.084847 8342706
6.248156 -5.527181 1.297717 8342706
6.442350 -5.695065 3.618667 8342706
6.479906 -6.249550 0.309911 8342706
5.774564 -5.907475 4.021893 8342706
6.198967 -6.112025 1.740279 8342706
6.094110 -6.250414 3.250295 8342706
5.591403 -6.244810 3.706704 8342706
6.539176 -6.144586 1.841780 8342706
6.266332 -6.214375 1.690608 8342706
5.559618 -5.809165 2.483530 8342706
6.387554 -6.393695 2.026696 8342706
6.108850 -6.225569 3.576092 8342706
6.160897 -6.584268 4.302002 8342706
6.417071 -6.376922 3.678738 8342706
6.109640 -5.547663 2.012006 8342706
6.079876 -5.456001 0.893217 8342706
6.136729 -6.435731 1.144395 8342706
5.678441 -6.066567 0.138300 8342706
5.851805 -5.612553 2.619828 8342706
5.781288 -6.389067 2.636693 8342706
6.070974 -5.484009 3.498717 8342706
5.777503 -6.290994 3.367567 8342706
6.308288 -6.342025 1.094513 8342706
5.812078 -6.543144 4.746822 8342706
6.268307 -5.676649 4.913600 8342706
6.008246 -6.475671 1.858186 8342706
5.702934 -5.771463 0.300360 8342706
6.301353 -5.530507 4.295063 8342706
5.586235 -5.830484 4.354796 8342706
6.220029 -5.587185 0.510177 8342706
6.286021 -6.359286 4.010624 8342706
6.196903 -6.538854 0.576960 8342706
6.182083 -5.840316 1.033010 8342706
6.438788 -6.154415 2.767567 8342706
6.034318 -6.395546 3.726522 8342706
5.986056 -5.546711 2.038105 8342706
6.435077 -6.197603 3.307596 8342706
6.104363 -5.449654 0.249487 8342706
5.490727 -5.705831 4.398199 8342706
6.173692 -6.366038 1.663202 8342706
6.435043 -5.596091 1.845333 8342706
5.879720 -6.121067 0.914636 8342706
6.355118 -5.613174 3.711406 8342706
5.646921 -6.151082 3.752818 8342706
6.508619 -5.902521 1.159827 8342706
5.713595 -5.992253 2.432605 8342706
6.248242 -6.345420 2.952873 8342706
5.700618 -6.378627 4.097840 8342706
6.052633 -6.288294 3.898881 8342706
6.386717 -5.552597 4.936752 8342706
6.513110 -6.260562 4.636815 8342706
6.017805 -5.917295 3.869511 8342706
6.169784 -6.374572 4.351749 8342706
5.738142 -6.200861 1.996658 8342706
6.430147 -5.860076 2.115296 8342706
6.451271 -5.993447 2.206875 8342706
5.866111 -5.427853 1.047672 8342706
6.478571 -5.802090 0.282776 8342706
5.837039 -5.464860 1.389361 8342706
6.243619 -5.712702 4.824620 8342706
5.959481 -5.650689 1.245481 8342706
6.479588 -5.812545 2.262807 8342706
5.784541 -6.215909 3.696354 8342706
6.267814 -6.191840 1.530068 8342706
5.974813 -6.395015 3.968755 8342706
6.016481 -5.804110 2.282373 8342706
6.151033 -6.033585 4.108785 8342706
6.177040 -6.404121 4.338025 8342706
6.302552 -5.591600 4.733905 8342706
6.358730 -5.835502 3.605734 8342706
6.003094 -5.789253 3.145895 8342706
6.562570 -5.866869 3.033239 8342706
6.272843 -5.847004 2.840180 8342706
6.313291 -6.310778 1.989210 8342706
5.747811 -5.709964 3.621838 8342706
5.712071 -5.732614 3.068544 8342706
6.271126 -5.984976 1.469293 8342706
6.371851 -6.247427 1.071515 8342706
5.845804 -5.602387 2.977731 8342706
5.508524 -5.901093 0.114389 8342706
5.650559 -5.647255 0.442188 8342706
5.617337 -5.589488 2.876219 8342706
5.999371 -5.531026 2.117514 8342706
5.534122 -6.125709 1.876476 8342706
6.126682 -5.502470 3.490177 8342706
5.454819 -5.924249 4.588214 8342706
5.458197 -5.793780 2.906477 8342706
6.179565 -6.300088 1.840892 8342706
5.569788 -6.404444 0.837311 8342706
5.887687 -6.512788 1.618719 8342706
6.092052 -6.339171 3.412345 8342706
5.949584 -6.488319 4.594904 8342706
6.365531 -6.158187 0.803853 8342706
6.514956 -6.313508 1.427133 8342706
6.562742 -5.917610 3.403327 8342706
5.584973 -6.084120 1.092917 8342706
6.249677 -6.290821 1.958011 8342706
6.177222 -6.311393 2.948903 8342706
6.076596 -6.519299 4.968410 8342706
5.972488 -6.441263 0.608680 8342706
6.290848 -5.769294 1.735989 8342706
6.403982 -5.941819 1.293250 8342706
6.233385 -6.396071 0.490467 8342706
6.286824 -6.117434 2.881885 8342706
6.479391 -6.152067 0.079705 8342706
6.090208 -5.636905 1.228327 8342706
6.477059 -6.259067 4.289634 8342706
6.457930 -5.647182 4.800694 8342706
6.506359 -6.168279 3.625612 8342706
6.318255 -6.364145 1.590277 8342706
5.764301 -6.301883 0.409916 8342706
6.166615 -5.589291 2.704931 8342706
6.223517 -6.036373 3.838665 8342706
6.312163 -5.856578 0.396813 8342706
6.208385 -5.867645 3.931363 8342706
5.768290 -6.398123 3.290649 8342706
6.408887 -6.178881 0.003218 8342706
6.343704 -5.749408 1.356636 8342706
6.267609 -6.005688 4.231735 8342706
6.336546 -6.095008 2.041311 8342706
5.778612 -5.591716 4.370953 8342706
5.843715 -6.031814 0.854192 8342706
6.042734 -5.729453 4.191566 8342706
5.524190 -5.723506 3.983651 8342706
6.460844 -6.122313 1.772971 8342706
6.272071 -6.447992 1.711962 8342706
6.264734 -6.230865 4.638693 8342706
5.547935 -6.326880 1.227379 8342706
6.010473 -6.247540 3.457377 8342706
6.227445 -5.575176 3.791749 8342706
6.030921 -6.572307 3.666692 8342706
5.953799 -6.026638 1.757613 8342706
5.800556 -5.646165 2.728178 8342706
6.201478 -6.331356 0.915641 8342706
6.183145 -5.995394 3.907735 8342706
6.102662 -6.276193 1.985935 8342706
5.774791 -6.134462 1.049225 8342706
6.577052 -6.016335 1.780962 8342706
5.749189 -6.095302 4.316763 8342706
6.458384 -5.791545 1.020401 8342706
5.570046 -5.863168 0.755104 8342706
6.296229 -5.994810 4.992093 8342706
6.187446 -6.558174 4.111434 8342706
6.092382 -6.412923 4.700864 8342706
5.987134 -5.815274 1.380514 8342706
6.529298 -6.163455 4.983205 8342706
6.153406 -6.076721 1.657550 8342706
5.825930 -5.964352 2.069276 8342706
5.721550 -5.960823 3.029265 8342706
6.503472 -6.225743 4.099186 8342706
5.464513 -5.878208 3.590683 8342706
6.187626 -6.086240 0.995830 8342706
5.876106 -6.265342 1.915533 8342706
5.961319 -5.636394 2.404932 8342706
6.328866 -6.272975 0.080713 8342706
5.809433 -5.563555 4.550342 8342706
5.990726 -5.474504 4.057534 8342706
5.788384 -5.428626 3.547677 8342706
6.397894 -6.378147 1.555079 8342706
5.506531 -6.029518 4.736959 8342706
6.048296 -6.530895 0.114845 8342706
6.528584 -5.963050 1.486833 8342706
6.366858 -5.534513 3.368751 8342706
5.756075 -5.880083 0.808785 8342706
6.022991 -6.004631 0.887567 8342706
5.627369 -5.917921 2.229052 8342706
5.720998 -5.638532 2.282275 8342706
5.781476 -6.111679 3.520368 8342706
6.315423 -5.504663 1.149131 8342706
5.647492 -5.769388 4.830566 8342706
5.893287 -5.797787 0.087877 8342706
5.632026 -6.454003 2.458272 8342706
5.884363 -6.471558 3.643128 8342706
6.025317 -6.587745 0.582427 8342706
6.052205 -5.710774 1.738095 8342706
6.099758 -5.902073 1.788658 8342706
6.159527 -5.772838 4.169570 8342706
5.489413 -6.256485 4.955326 8342706
6.564889 -5.843498 2.136969 8342706
6.231410 -6.442717 3.904822 8342706
6.252394 -5.708895 2.520745 8342706
6.232578 -6.367120 2.392480 8342706
6.074624 -5.642673 4.495311 8342706
5.631107 -6.282825 3.470792 8342706
5.993573 -6.441815 2.710095 8342706
