# .PCD v0.7 - Point Cloud Data file format
VERSION 0.7
FIELDS x y z rgb
SIZE 4 4 4 4
TYPE F F F U
COUNT 1 1 1 1
WIDTH 1287
HEIGHT 1
VIEWPOINT 0 0 0 1 0 0 0
POINTS 1287
DATA ascii
1.832918 15.222948 1.631312 15014169
1.709127 15.773332 0.584996 15014169
1.402744 15.434137 0.642694 15014169
1.931679 15.331802 1.350349 15014169
1.639477 15.282699 1.335779 15014169
1.425176 15.790789 1.636021 15014169
2.027023 15.461388 0.362637 15014169
2.051634 15.401892 1.304865 15014169
1.621811 15.185512 1.491863 15014169
1.829108 15.689408 1.064629 15014169
1.974387 15.774251 0.318672 15014169
1.426421 15.321987 0.488593 15014169
1.842250 15.458854 1.540080 15014169
1.493894 15.452386 0.339931 15014169
1.855504 15.493752 0.487306 15014169
1.980554 15.807415 0.417958 15014169
1.389981 15.472077 1.130175 15014169
1.566100 15.629006 0.595334 15014169
1.743269 15.550054 0.915619 15014169
1.456685 15.302984 0.501351 15014169
1.597153 15.340103 1.028942 15014169
1.749408 15.451396 0.748182 15014169
1.768759 15.763255 1.481813 15014169
1.459462 15.386897 0.860650 15014169
1.851015 15.662990 0.917081 15014169
1.667385 15.718649 1.075938 15014169
2.013534 15.217298 0.821896 15014169
2.066719 15.634996 1.546594 15014169
1.545902 15.674861 0.563247 15014169
1.720163 15.324834 0.908122 15014169
1.930577 15.360325 1.173792 15014169
1.679673 15.821411 1.210890 15014169
1.840641 15.400897 1.047338 15014169
1.396522 15.224642 1.596902 15014169
1.417796 15.800095 1.302397 15014169
1.818836 15.690950 0.513461 15014169
1.922469 15.689665 1.057546 15014169
1.699387 15.492409 0.933488 15014169
1.944967 15.354523 0.370518 15014169
2.052185 15.487603 1.347857 15014169
1.828361 15.544387 0.480613 15014169
1.544672 15.497089 1.079201 15014169
1.956158 15.390129 0.841774 15014169
2.004347 15.744183 0.454549 15014169
1.479044 15.627536 1.100627 15014169
2.058217 15.691634 1.422903 15014169
1.526796 15.521815 1.176312 15014169
1.376714 15.523808 0.924511 15014169
1.592164 15.360374 1.569837 15014169
1.385989 15.370200 0.692809 15014169
2.037956 15.177790 0.928446 15014169
1.593739 15.653276 1.263559 15014169
1.857842 15.788636 1.622998 15014169
1.424758 15.242652 0.347175 15014169
2.032148 15.850211 0.800198 15014169
1.419170 15.260906 1.531934 15014169
1.699517 15.305449 1.171681 15014169
1.914112 15.491747 0.357341 15014169
1.626293 15.767997 0.438618 15014169
1.448508 15.716997 0.497287 15014169
1.469950 15.337402 0.695666 15014169
1.598713 15.728085 0.658263 15014169
1.449648 15.248736 0.794812 15014169
1.538227 15.744960 1.162103 15014169
1.581345 15.862013 0.887961 15014169
2.003929 15.346948 0.738668 15014169
2.052492 15.214918 1.532262 15014169
2.039562 15.409984 1.576442 15014169
1.997790 15.859470 0.468828 15014169
1.802588 15.719417 1.323542 15014169
1.942314 15.154677 1.609992 15014169
1.500074 15.184988 1.666137 15014169
1.508501 15.731568 0.315181 15014169
1.373926 15.204036 1.211957 15014169
1.547071 15.468538 1.657723 15014169
1.518400 15.323064 0.983997 15014169
1.576181 15.535746 0.920214 15014169
1.602614 15.170491 1.354244 15014169
1.986719 15.414660 0.944032 15014169
1.420718 15.694152 0.618176 15014169
1.473938 15.273937 0.587050 15014169
1.887516 15.465939 1.293129 15014169
1.463815 15.309640 1.444373 15014169
1.383909 15.315372 1.463599 15014169
1.837927 15.333848 1.440329 15014169
1.493354 15.548329 1.146845 15014169
2.030809 15.646474 0.785695 15014169
1.728826 15.326427 1.677334 15014169
1.650199 15.240022 1.680447 15014169
2.013521 15.549088 0.341706 15014169
1.957748 15.800068 1.188730 15014169
1.549783 15.821364 0.330374 15014169
1.595666 15.399780 1.497581 15014169
1.368093 15.609035 1.063903 15014169
1.602638 15.236641 0.499022 15014169
1.821817 15.172410 0.385080 15014169
1.694515 15.537402 0.329321 15014169
1.734330 15.236295 0.438170 15014169
1.830739 15.383602 1.404512 15014169
0.427228 -12.191921 0.491240 1645029
0.448009 -11.884230 1.217874 1645029
-0.064428 -12.370262 1.053268 1645029
0.162287 -12.138215 1.008710 1645029
0.262757 -12.081928 1.191396 1645029
0.186275 -12.069336 1.477207 1645029
0.193576 -12.061379 0.627447 1645029
0.069980 -11.921956 1.256269 1645029
0.318389 -12.103477 0.960932 1645029
0.263207 -12.537839 0.605857 1645029
0.791286 -12.246965 1.080036 1645029
0.577299 -12.529512 1.262448 1645029
0.086148 -12.250205 0.619065 1645029
0.736328 -12.405512 1.218198 1645029
0.137313 -12.264882 0.846116 1645029
-0.061164 -11.979859 1.166301 1645029
-0.169338 -12.490389 0.949271 1645029
0.460193 -11.864850 1.142668 1645029
0.515978 -12.057182 1.288275 1645029
0.290792 -12.341786 0.917401 1645029
0.497572 -12.452564 1.155243 1645029
0.101201 -12.443041 1.310342 1645029
0.434342 -11.957340 1.276086 1645029
0.295574 -12.614584 0.676892 1645029
0.370527 -12.683595 0.784552 1645029
0.152856 -11.993722 1.116051 1645029
0.373277 -12.490064 0.843493 1645029
0.233230 -12.214910 0.922480 1645029
0.626384 -12.206902 1.052577 1645029
0.548480 -12.332136 1.104459 1645029
0.097374 -12.412889 0.839109 1645029
-0.070950 -12.204967 0.640719 1645029
0.096057 -12.209167 1.340060 1645029
0.112200 -12.242131 0.893406 1645029
0.668907 -12.501467 0.951724 1645029
0.262195 -12.207021 1.051335 1645029
0.325510 -11.831500 1.085735 1645029
-0.193411 -12.557492 1.063038 1645029
0.320051 -12.179058 1.145073 1645029
0.055950 -12.579732 1.071725 1645029
0.110221 -12.381092 0.502038 1645029
-0.105639 -12.264627 0.859062 1645029
0.534055 -12.416589 1.156331 1645029
0.279902 -12.290938 1.230310 1645029
0.138779 -12.099206 0.677912 1645029
0.432743 -12.119473 0.655902 1645029
0.418419 -11.885554 0.999192 1645029
0.381245 -12.232894 0.893780 1645029
0.217436 -12.250874 0.669902 1645029
0.601571 -12.541117 0.795417 1645029
0.176748 -12.688100 0.981743 1645029
0.669126 -12.302659 0.951029 1645029
0.246644 -12.414556 0.836933 1645029
0.130545 -12.571648 1.361164 1645029
0.202572 -12.123355 0.521822 1645029
0.724926 -12.282845 1.263891 1645029
-0.025239 -11.928402 0.736927 1645029
-0.030346 -12.051466 0.673621 1645029
0.377555 -12.696509 0.894196 1645029
-0.009107 -12.399088 0.869777 1645029
0.311300 -12.679322 0.940239 1645029
0.429981 -12.339149 0.958798 1645029
0.000324 -12.386127 1.007044 1645029
0.157668 -12.008379 0.896113 1645029
0.173001 -11.764625 0.944071 1645029
0.073771 -12.346666 1.398062 1645029
0.156510 -12.384608 1.151787 1645029
0.394915 -12.094167 1.254301 1645029
0.627273 -12.135702 1.152971 1645029
0.731341 -12.163320 1.008683 1645029
-0.045591 -12.595324 1.236446 1645029
0.554124 -11.915287 1.032550 1645029
0.666863 -12.257912 1.041923 1645029
0.038089 -12.048145 0.570898 1645029
0.179075 -11.955258 1.237982 1645029
0.315652 -11.854305 1.057199 1645029
0.474977 -12.062131 0.864101 1645029
0.286301 -12.076971 0.554423 1645029
0.593948 -12.242194 1.006020 1645029
0.621075 -12.035694 1.219487 1645029
-4.349280 7.191889 0.471471 10053171
-5.978102 7.087506 0.413414 10053171
-4.428927 6.968390 2.371764 10053171
-5.165779 7.167701 2.887746 10053171
-3.838960 7.004462 0.311419 10053171
-6.700866 6.764896 2.483001 10053171
-4.115440 7.165600 2.562599 10053171
-3.176918 6.956753 1.339282 10053171
-4.391365 6.977921 0.501003 10053171
-3.511030 7.198658 2.548113 10053171
-3.689331 7.203981 2.494355 10053171
-3.263996 6.972242 0.847556 10053171
-4.009028 7.076596 0.162942 10053171
-4.964350 6.824025 1.165175 10053171
-6.813261 6.988508 0.191642 10053171
-4.611831 7.098032 2.208588 10053171
-6.430405 6.978084 1.200994 10053171
-4.653605 6.947987 0.437293 10053171
-6.907893 6.761479 2.820395 10053171
-6.300250 7.244304 2.886796 10053171
-6.062355 7.067341 0.759636 10053171
-6.115128 6.813804 2.808437 10053171
-3.741971 6.862454 2.222697 10053171
-4.830864 7.046634 2.526093 10053171
-6.578533 6.995722 2.646496 10053171
-6.040854 7.161722 1.123795 10053171
-3.397408 7.152048 1.464286 10053171
-4.604344 6.977561 1.359807 10053171
-6.003197 7.231242 2.400890 10053171
-6.685623 7.024543 2.953857 10053171
-6.889284 7.063577 1.120847 10053171
-5.986191 6.757526 0.151772 10053171
-6.126417 7.007868 1.952308 10053171
-3.861231 6.957729 0.566691 10053171
-4.703466 7.154162 0.120197 10053171
-5.879584 7.153733 2.062842 10053171
-4.841125 6.950460 1.399749 10053171
-5.509296 7.219223 2.727414 10053171
-5.068696 6.742953 1.308653 10053171
-6.152183 6.978519 2.531152 10053171
-4.478299 6.930596 2.136639 10053171
-4.110625 7.107893 1.102522 10053171
-3.865987 6.770631 0.887547 10053171
-4.742724 6.932682 2.259097 10053171
-5.558419 6.964705 0.627045 10053171
-3.799793 7.058279 1.155602 10053171
-3.494335 7.066006 2.123983 10053171
-4.294959 7.209645 0.715213 10053171
-4.112942 7.242287 2.541281 10053171
-5.289790 6.956761 1.597354 10053171
-6.774324 7.052824 2.606203 10053171
-5.638710 6.956066 1.207694 10053171
-5.757199 6.868112 2.788599 10053171
-3.547630 6.855370 2.696085 10053171
-3.091882 6.893794 0.629180 10053171
-5.027993 7.045244 2.176971 10053171
-3.517699 7.054845 0.811282 10053171
-5.450378 7.055621 1.637983 10053171
-3.360458 7.074401 2.180647 10053171
-6.465572 7.188867 0.046795 10053171
-6.378259 6.743919 2.607340 10053171
-4.382727 6.957914 2.928141 10053171
-6.303282 6.956453 0.872946 10053171
-3.771005 7.168145 1.049540 10053171
-3.575357 7.068777 2.672346 10053171
-4.184349 6.941743 2.143745 10053171
-6.340904 6.816022 1.067848 10053171
-3.764436 7.016599 1.948418 10053171
-3.884255 7.067269 1.254586 10053171
-5.429321 7.219204 0.690434 10053171
-5.926211 6.941252 2.506670 10053171
-3.280792 6.896341 1.504834 10053171
-6.804938 6.755138 2.277753 10053171
-3.699232 6.997070 1.005339 10053171
-6.510574 7.200216 1.581844 10053171
-5.303641 6.988163 0.872620 10053171
-6.476181 6.891876 0.447791 10053171
-4.535684 7.086220 2.263960 10053171
-6.738593 7.180255 1.124781 10053171
-4.036285 6.886141 0.243572 10053171
-5.789746 7.220651 0.720895 10053171
-6.957241 7.061431 2.904650 10053171
-3.126350 7.092381 2.181774 10053171
-4.125365 7.091817 0.030969 10053171
-4.453427 7.172640 1.348422 10053171
-6.612974 7.222055 0.434930 10053171
-5.852659 6.847784 0.152766 10053171
-3.256030 6.883968 0.153488 10053171
-6.547691 6.911345 1.318610 10053171
-5.973517 6.850834 0.001850 10053171
-5.458829 7.049743 1.774402 10053171
-6.356663 7.009687 2.976231 10053171
-6.074688 6.848526 2.949140 10053171
-4.243800 7.204725 1.404139 10053171
-4.298696 7.102755 2.218404 10053171
-3.911061 7.196709 2.393078 10053171
-5.653391 7.203428 0.400215 10053171
-5.363779 6.907809 0.428390 10053171
-3.353885 6.951156 0.996962 10053171
-6.875426 6.955423 0.251702 10053171
-4.491736 6.794763 1.775743 10053171
-6.232879 7.222770 1.526157 10053171
-3.844157 7.195682 0.865064 10053171
-3.805461 6.969135 2.111011 10053171
-4.806265 7.138092 1.257657 10053171
-5.646362 7.249142 1.590858 10053171
-4.235605 6.966673 0.406769 10053171
-5.520847 7.204490 0.318319 10053171
-3.279190 7.069010 0.140367 10053171
-5.111030 6.788475 1.800140 10053171
-5.615004 7.069544 2.640758 10053171
-5.457816 6.873438 2.397379 10053171
-4.455314 6.915966 0.685986 10053171
-4.763539 6.940272 2.309239 10053171
-6.483488 6.966209 1.167788 10053171
-5.715017 6.772333 1.393646 10053171
-4.592996 6.906971 1.787365 10053171
-4.055879 7.066368 2.542338 10053171
-3.335269 7.025359 0.189010 10053171
-4.619217 6.743539 1.402917 10053171
-3.798088 7.209263 0.862509 10053171
-5.159576 6.860352 0.250412 10053171
-6.433598 6.771829 0.303529 10053171
-5.583916 7.026685 0.814983 10053171
-3.139175 7.165980 1.572887 10053171
-5.382646 7.076208 2.746783 10053171
-5.306273 6.929445 2.686840 10053171
-4.393796 6.910905 0.777732 10053171
-6.968595 7.095137 2.675465 10053171
-4.278298 7.053779 2.897743 10053171
-4.874013 6.942897 0.236230 10053171
-6.476629 6.901917 2.251795 10053171
-5.333540 6.902124 1.735883 10053171
-5.224389 7.048508 1.621139 10053171
-4.646241 6.843520 0.820001 10053171
-3.270211 6.847703 0.442131 10053171
-3.996672 6.974692 1.200038 10053171
-3.741128 7.248630 0.786962 10053171
-5.127507 7.020736 2.754743 10053171
-4.767140 7.169759 1.105910 10053171
-5.638443 6.783990 2.554507 10053171
-5.407649 7.161376 2.295711 10053171
-6.051064 6.996908 2.974816 10053171
-3.713986 6.933575 1.064888 10053171
-4.222927 7.081234 2.721776 10053171
-5.917064 7.043026 0.652405 10053171
-4.966881 6.802637 2.315880 10053171
-3.931186 6.818541 1.345631 10053171
-5.993753 7.183915 1.733901 10053171
-3.613870 7.188643 0.392058 10053171
-5.859813 6.920931 2.279940 10053171
-6.558493 6.910420 1.762564 10053171
-4.742531 6.791118 2.775702 10053171
-6.486468 7.159264 1.214490 10053171
-3.562688 7.020760 1.069346 10053171
-6.257290 6.824200 1.548376 10053171
-3.014218 6.869114 1.568327 10053171
-6.386497 7.231030 0.950670 10053171
-4.804872 6.989363 1.228664 10053171
-6.393054 7.097019 0.922734 10053171
-6.879260 6.866079 2.265223 10053171
-3.719287 7.206205 1.815855 10053171
-4.214911 7.181292 0.795310 10053171
-6.323645 6.805133 2.934022 10053171
-3.052626 6.756714 2.261261 10053171
-6.432453 6.929986 1.487254 10053171
-6.322483 6.980249 1.005286 10053171
-5.137902 6.780440 1.222293 10053171
-3.952850 7.131533 0.939428 10053171
-6.433428 7.082798 0.882430 10053171
-6.223206 6.756120 2.101132 10053171
-3.531277 7.040204 0.944958 10053171
-5.317418 6.986404 2.323920 10053171
-4.496363 6.773120 0.628469 10053171
-5.556798 7.219353 0.152290 10053171
-3.614600 6.918834 1.832900 10053171
-6.981109 7.169089 2.108885 10053171
-6.188865 7.167461 1.934605 10053171
-4.689786 6.895754 0.474999 10053171
-5.553477 6.939111 1.751201 10053171
-6.759571 6.780812 1.265124 10053171
-5.580590 6.823583 1.475639 10053171
-6.408089 6.865966 2.034155 10053171
-5.987335 6.783319 1.060124 10053171
-5.783065 6.744369 2.086352 10053171
-5.574547 6.798636 1.588949 10053171
-3.361454 7.069518 2.636997 10053171
-5.052805 7.022163 0.349259 10053171
-4.185040 7.173028 0.540360 10053171
-5.056090 7.147669 0.840835 10053171
-6.392807 6.910826 2.838892 10053171
-6.852179 6.815943 2.536160 10053171
-6.726623 6.752976 0.416744 10053171
-3.243222 7.099898 1.568894 10053171
-6.043358 6.724054 2.610946 10053171
-4.074672 6.933041 1.561119 10053171
-6.717102 7.238291 0.615791 10053171
-6.928120 6.953873 2.972795 10053171
-4.476443 6.922418 1.942438 10053171
-4.913715 7.067448 2.556122 10053171
-3.971322 7.095339 0.803677 10053171
-4.135297 7.237341 0.493369 10053171
-3.923689 6.785481 1.116631 10053171
-3.470446 7.219597 2.489798 10053171
-3.377037 7.186728 0.178745 10053171
-3.131257 6.777777 0.458708 10053171
-4.791791 7.208513 1.097400 10053171
-6.895694 7.105698 0.584216 10053171
-6.253927 6.786928 1.872373 10053171
-6.648645 6.933578 0.616489 10053171
-6.352163 7.170204 1.708388 10053171
-6.405852 6.814548 1.138297 10053171
-4.989777 6.837517 0.295740 10053171
-5.311324 7.033945 1.157282 10053171
-5.991189 7.072452 1.255163 10053171
-3.168309 7.008303 2.051771 10053171
-4.532664 6.915527 0.163811 10053171
-6.067576 6.854130 0.164441 10053171
-3.642749 7.150797 0.316262 10053171
-3.342134 7.198272 2.610855 10053171
-4.020672 6.889934 2.668338 10053171
-4.118525 6.857234 2.977907 10053171
-5.548024 7.105319 1.929600 10053171
-4.336270 7.138153 0.729381 10053171
-4.260985 6.923855 0.569684 10053171
-3.615413 7.157742 0.617155 10053171
-3.730517 6.942685 0.917928 10053171
-4.646272 7.025176 0.621097 10053171
-4.178409 6.940327 0.217006 10053171
-6.560470 6.791532 2.364649 10053171
-4.718630 7.154535 0.500525 10053171
-5.170717 6.973439 1.457906 10053171
-6.445079 7.248240 1.295276 10053171
-6.974395 7.036131 2.088889 10053171
-6.593552 7.231036 1.467811 10053171
-5.041474 7.125929 2.898203 10053171
-4.733460 6.832360 0.708586 10053171
-4.289977 6.926228 1.322166 10053171
-5.436687 6.816618 2.065838 10053171
-3.987405 6.779951 2.822937 10053171
-5.938767 7.001899 1.395800 10053171
-6.734477 6.773500 0.267551 10053171
-3.286640 7.142848 2.703704 10053171
-5.111066 7.054853 1.732762 10053171
-5.870730 7.171061 0.509429 10053171
-6.235948 6.890409 1.074682 10053171
-6.956557 7.092053 1.628361 10053171
-5.758545 7.213970 2.547097 10053171
-6.205270 6.927557 2.034935 10053171
-3.776496 6.949636 1.371704 10053171
-5.716468 7.164855 0.887412 10053171
-3.113597 6.812978 0.990835 10053171
-3.893973 6.834873 1.099409 10053171
-5.366267 7.183501 1.628025 10053171
-3.507332 6.765892 0.855343 10053171
-4.667993 7.226077 1.573845 10053171
-3.660021 6.996257 2.205345 10053171
-4.581345 7.127148 2.689754 10053171
-4.918986 7.078582 2.114681 10053171
-6.920849 6.786686 2.380520 10053171
-3.411204 7.134127 0.856611 10053171
-5.510527 7.054396 2.933171 10053171
-4.822958 6.915041 0.697347 10053171
-4.600034 7.005217 2.177381 10053171
-6.903741 7.027202 2.204458 10053171
-3.627744 6.845412 1.229129 10053171
-4.331159 6.935806 0.826409 10053171
-6.449322 6.785858 2.050871 10053171
-6.029143 6.787898 2.065524 10053171
-4.854854 6.754808 0.934979 10053171
-3.711294 6.872327 -0.003549 10053171
-4.881291 7.129394 2.469598 10053171
-3.734426 7.004952 2.460544 10053171
-5.193279 7.075255 1.515985 10053171
-6.268097 6.862967 1.603286 10053171
-6.670741 7.169992 2.923144 10053171
-3.931924 6.907716 0.950108 10053171
-6.250727 7.043379 0.941031 10053171
-4.884719 7.142710 1.524119 10053171
-3.286851 7.189084 0.931597 10053171
-6.355731 7.085475 1.840734 10053171
-5.687477 6.795429 1.331396 10053171
-3.552925 6.917994 0.417123 10053171
-5.632570 6.774317 2.120839 10053171
-4.294803 7.254007 0.437712 10053171
-3.206870 7.005774 1.455324 10053171
-3.109201 6.958498 1.816342 10053171
-4.072454 6.754984 0.920725 10053171
-4.281864 7.189444 1.338950 10053171
-3.086302 6.857848 0.306026 10053171
-4.006169 7.137939 1.431909 10053171
-5.448273 6.926384 1.063559 10053171
-3.995387 6.945482 0.355014 10053171
-3.782684 6.940977 0.191277 10053171
-5.728598 7.242154 1.867677 10053171
-5.689683 7.205169 1.802340 10053171
-6.010197 6.754755 2.368973 10053171
-3.619394 6.947511 0.785873 10053171
-5.208054 7.101000 1.204377 10053171
-5.122838 6.843176 2.492203 10053171
-4.289172 7.206855 0.631496 10053171
-6.972346 7.230524 0.069533 10053171
-4.029484 6.795384 1.141396 10053171
-4.052679 6.800475 1.836345 10053171
-5.394011 6.862625 2.724485 10053171
-3.273751 7.057566 1.530985 10053171
-3.311181 7.217132 0.004383 10053171
-3.227340 6.811923 1.488084 10053171
-4.644658 6.948520 1.555476 10053171
-4.953789 6.863976 0.135506 10053171
-6.804491 6.825196 1.583792 10053171
-5.550103 6.951541 0.131553 10053171
-6.947333 6.924329 1.420212 10053171
-4.195905 6.777286 1.307261 10053171
-6.395895 6.904835 0.238454 10053171
-3.377465 6.751453 2.836026 10053171
-4.125470 6.791784 1.420321 10053171
-4.738828 6.834910 1.927402 10053171
-6.173314 6.809194 0.112475 10053171
-5.205374 7.145553 1.817655 10053171
-6.270935 7.105550 2.241090 10053171
-5.152243 7.100478 1.377957 10053171
-6.455731 6.932679 1.299758 10053171
-5.448078 7.070755 0.280301 10053171
-4.950647 7.177271 1.808705 10053171
-3.847895 6.988591 1.611927 10053171
-5.426086 7.097141 2.711713 10053171
-5.694357 7.046181 2.968458 10053171
-6.834649 7.148545 0.783914 10053171
-4.902120 7.162952 1.124395 10053171
-6.978853 6.951509 0.271559 10053171
-6.756763 6.971135 1.040570 10053171
-4.316711 6.780180 1.937743 10053171
-3.999620 7.161522 0.064785 10053171
-3.112938 7.030973 1.327971 10053171
-3.854236 7.027709 0.379607 10053171
-3.121168 6.751664 1.708951 10053171
-3.480258 6.861412 0.318312 10053171
-6.621838 7.073612 1.218120 10053171
-4.089642 7.133142 0.743437 10053171
-3.782332 6.992047 2.062677 10053171
-3.776868 7.041347 1.246061 10053171
-4.638909 7.131800 2.677077 10053171
-4.609753 7.217426 2.345595 10053171
-6.268680 7.139934 0.873888 10053171
-3.099780 6.898057 0.023774 10053171
-4.406538 6.763109 0.515502 10053171
-5.164353 7.039631 2.849603 10053171
-5.340395 7.003620 2.453723 10053171
-3.664616 7.237611 1.056638 10053171
-4.831821 6.784291 0.065591 10053171
-4.745141 7.109266 0.921785 10053171
-4.092596 6.862113 1.505288 10053171
-3.534431 6.949733 0.968142 10053171
-6.954220 7.117496 0.911294 10053171
-3.916508 6.912774 1.355048 10053171
-3.592842 6.929233 2.707333 10053171
-5.511646 6.826478 2.588512 10053171
-5.404620 6.786655 2.401182 10053171
-3.036557 6.813669 2.928476 10053171
-6.150601 6.841523 2.036448 10053171
-4.442341 7.135523 0.773465 10053171
-4.533028 7.026951 0.706446 10053171
-3.199814 7.233586 2.715164 10053171
-5.897362 7.176515 2.544209 10053171
-4.234351 6.910350 2.143548 10053171
-3.206255 6.932157 0.500427 10053171
-5.006948 6.830616 1.846275 10053171
-3.744343 6.972477 0.097294 10053171
-4.319721 7.231235 0.526540 10053171
-6.191550 6.882111 1.550654 10053171
-3.859076 7.204096 0.580834 10053171
-5.451337 6.778039 1.461482 10053171
-3.199884 6.814091 2.178190 10053171
-3.457953 6.967695 0.332596 10053171
-3.931854 7.247385 2.070258 10053171
-6.171607 7.186101 0.261287 10053171
-6.532749 6.906173 0.546047 10053171
-4.621181 6.914823 1.212163 10053171
-5.132874 6.784533 -0.005962 10053171
-5.446695 6.823451 0.524483 10053171
-3.764401 6.791878 0.423832 10053171
-5.342302 7.217166 0.706876 10053171
-3.188035 7.202388 1.379933 10053171
-4.943403 6.767601 2.545102 10053171
-6.751936 7.138762 1.646379 10053171
-4.815477 6.769123 1.164689 10053171
-4.069518 7.032203 1.635325 10053171
-4.086236 7.022586 1.622700 10053171
-3.499870 6.918717 2.926099 10053171
-4.090666 7.151650 2.897550 10053171
-6.613106 6.925475 1.760896 10053171
-5.173199 7.059991 1.702055 10053171
-5.099313 7.173395 2.148899 10053171
-4.505310 6.842147 0.006709 10053171
-5.334065 6.766044 2.569988 10053171
-5.176854 6.737816 1.371314 10053171
-4.072735 6.897594 0.687672 10053171
-4.384592 7.040633 1.041470 10053171
-5.249690 7.123216 0.704282 10053171
-3.768685 6.786910 1.902570 10053171
-3.663546 7.247602 2.741452 10053171
-3.367882 7.121679 1.006760 10053171
-4.066452 7.212225 2.659651 10053171
-3.084517 7.190999 2.867548 10053171
-3.578814 7.039421 1.673867 10053171
-5.336958 7.120196 0.103298 10053171
-3.934272 6.937844 2.293880 10053171
-6.412775 7.046987 2.518352 10053171
-3.108937 7.088210 2.778785 10053171
-4.854303 7.165249 0.130997 10053171
-5.886641 6.879010 0.148563 10053171
-4.275565 7.023983 0.573581 10053171
-4.653552 7.129761 0.023001 10053171
-6.632590 7.196847 1.369264 10053171
-6.059186 6.910917 0.118453 10053171
-5.843528 6.755867 2.898177 10053171
-4.479600 7.054123 2.834767 10053171
-5.622509 7.213286 2.542612 10053171
-3.147527 6.942888 0.626665 10053171
-5.763690 6.954125 0.600886 10053171
-4.098053 7.106958 1.538089 10053171
-4.688193 6.777880 1.657686 10053171
-4.986590 7.128731 1.219999 10053171
-4.438775 6.955127 0.530008 10053171
-5.285874 7.245315 0.306400 10053171
-3.875849 6.939273 0.842836 10053171
-4.245537 6.938443 2.667351 10053171
-5.252095 7.109276 1.712917 10053171
-3.035142 6.991255 0.262244 10053171
-5.436592 6.855574 1.062581 10053171
-6.580653 7.065678 2.709421 10053171
-5.112165 6.804105 1.644433 10053171
-3.034619 6.903584 0.741294 10053171
-6.575104 6.964894 1.170538 10053171
-3.061593 6.998355 0.206012 10053171
-6.277647 7.224486 1.905137 10053171
-3.711091 6.929245 1.362953 10053171
-4.159267 7.109781 0.209438 10053171
-3.857573 7.129151 1.804695 10053171
-4.162245 7.040198 1.361853 10053171
-3.092345 6.804931 0.742441 10053171
-5.602222 7.229830 0.142990 10053171
-5.677281 7.033782 2.831945 10053171
-4.806562 6.949747 1.788862 10053171
-5.960140 7.169045 2.058538 10053171
-3.313932 7.095236 0.979295 10053171
-6.484840 6.800119 0.741273 10053171
-6.585250 7.074358 1.925715 10053171
-3.742681 6.846335 0.046307 10053171
-4.610852 7.132206 2.039671 10053171
-5.626795 6.736120 2.669116 10053171
-3.963736 7.083181 0.434025 10053171
-3.928952 6.785066 1.659990 10053171
-5.375611 7.027267 0.813374 10053171
-4.828034 6.823216 1.748536 10053171
-5.769752 6.948856 1.062773 10053171
-6.598716 6.860371 0.181609 10053171
-4.517008 6.979742 1.697892 10053171
-3.719730 7.103071 2.794183 10053171
-5.697744 6.845221 0.084450 10053171
-5.655513 7.042923 0.378572 10053171
-4.242885 6.840208 0.857937 10053171
-5.873298 6.878542 2.086588 10053171
-4.913421 6.825372 2.917678 10053171
-3.173413 6.996577 2.027779 10053171
-3.627531 6.925344 1.099983 10053171
-4.823557 7.131453 2.854374 10053171
-4.523834 7.146284 1.489913 10053171
-3.465906 7.084471 1.076893 10053171
-3.145997 7.153883 0.497417 10053171
-5.427333 7.091584 0.817947 10053171
-6.622121 6.972517 2.571874 10053171
-3.287343 6.898357 2.401897 10053171
-5.850903 7.133760 2.057163 10053171
-4.673937 6.931515 1.491645 10053171
-4.299178 6.820066 2.125438 10053171
-2.983431 6.753386 2.444738 10053171
-3.040893 7.007462 1.063821 10053171
-4.377176 7.205583 0.311293 10053171
-5.487066 7.234264 2.293604 10053171
-5.606035 7.151176 1.134531 10053171
-3.876833 6.897525 1.861560 10053171
-4.670781 7.088436 2.939960 10053171
-4.717661 7.158530 2.673034 10053171
-6.271281 7.053429 1.595679 10053171
-3.109606 7.198508 0.321654 10053171
-4.506647 6.865058 2.781200 10053171
-3.056347 6.946191 1.101743 10053171
-4.438734 7.245325 2.861727 10053171
-5.014225 6.930865 2.685667 10053171
-3.213570 6.963712 0.490072 10053171
-5.960170 6.822500 0.815918 10053171
-4.699819 7.140752 0.311018 10053171
-3.010997 7.052194 0.560215 10053171
-5.443359 6.904551 1.090590 10053171
-3.913671 6.789958 0.631272 10053171
-6.053144 6.971009 2.724018 10053171
-3.317329 6.913893 0.550378 10053171
-5.727467 6.745568 2.842068 10053171
-4.197570 6.847990 0.641887 10053171
-6.593973 6.988343 2.960089 10053171
-6.919309 7.218954 2.526969 10053171
-6.910745 7.209482 0.755128 10053171
-5.271925 7.000146 2.456559 10053171
-5.199875 6.953582 1.253837 10053171
-3.152739 7.150206 1.918104 10053171
-6.388954 6.951086 1.704419 10053171
-4.076172 6.855663 0.117555 10053171
-3.509015 6.892929 0.012831 10053171
-6.103010 6.876641 1.889731 10053171
-3.104686 7.083657 0.782326 10053171
-3.575567 7.030044 2.723575 10053171
-4.238534 7.035739 2.651434 10053171
-3.447984 6.890543 2.439131 10053171
-5.109682 6.882421 2.881797 10053171
-4.460826 7.122010 1.045397 10053171
-6.608209 6.834503 2.031311 10053171
-3.839634 6.872972 2.281528 10053171
-3.559690 6.965865 1.031197 10053171
-4.282520 6.785071 0.869333 10053171
-3.849963 7.008593 0.998839 10053171
-5.386140 6.961844 2.073323 10053171
-3.247852 6.852664 0.496897 10053171
-3.414610 7.246575 0.648156 10053171
-6.346093 6.754930 1.224317 10053171
-5.800421 7.206468 1.580225 10053171
-3.802761 6.883564 0.797084 10053171
-6.565378 6.864827 1.602970 10053171
-4.360019 6.807368 0.977975 10053171
-5.657873 6.909686 0.069997 10053171
-4.433481 7.019490 1.191879 10053171
-4.180731 6.898067 2.116945 10053171
-3.271495 7.180521 1.293208 10053171
-3.738444 7.222729 2.650153 10053171
-5.891730 6.821328 0.030034 10053171
-5.677037 6.792680 1.559984 10053171
-4.946198 6.959776 2.480192 10053171
-6.082663 7.039956 1.128875 10053171
-6.763693 7.236095 2.096822 10053171
-5.448012 6.869900 1.246736 10053171
-6.164003 6.919299 2.886969 10053171
-5.558879 6.758949 2.411137 10053171
-4.534763 7.165648 1.528314 10053171
-5.284841 6.891563 0.603832 10053171
-6.039896 7.224358 1.493443 10053171
-3.516266 6.856397 2.539503 10053171
-5.685014 6.958261 2.268744 10053171
-6.084975 6.963622 1.428666 10053171
-6.569961 6.893262 1.254189 10053171
-6.772074 7.073961 2.613351 10053171
-6.573492 6.851486 1.841363 10053171
-6.053993 6.992442 2.770616 10053171
-4.222996 7.185034 2.768752 10053171
-4.897442 7.065293 2.187890 10053171
-4.875755 7.139943 0.070573 10053171
-4.105066 6.841757 1.561215 10053171
-6.985089 7.246674 0.320043 10053171
-5.477766 7.162204 0.022422 10053171
-3.507029 6.821704 0.741896 10053171
-6.075949 6.786398 0.902663 10053171
-3.557084 6.809713 2.852282 10053171
-3.539248 7.159340 0.918033 10053171
-5.205352 6.806440 2.948854 10053171
-6.945383 6.870403 2.330135 10053171
-4.326401 6.854836 0.574870 10053171
-4.571956 6.862554 0.869906 10053171
-3.505660 6.820642 0.288503 10053171
-6.446619 6.986995 1.152561 10053171
-5.273053 7.237436 1.680172 10053171
-4.234623 7.183328 1.714559 10053171
-5.739472 7.126428 0.938951 10053171
-4.634101 6.936718 2.930706 10053171
-5.853106 7.029040 1.028188 10053171
-5.183687 7.151830 0.284324 10053171
-4.803574 6.847250 2.723153 10053171
-3.339999 6.984515 0.801091 10053171
-3.903392 7.012825 1.822718 10053171
-5.806018 7.015741 1.285214 10053171
-3.333611 6.971941 1.638067 10053171
-2.988111 7.214355 0.809434 10053171
-3.191609 7.228904 2.801183 10053171
-3.175050 7.177355 2.301809 10053171
-6.074298 6.922193 2.243264 10053171
-6.815170 7.057934 2.052569 10053171
-4.051924 6.799937 1.161905 10053171
-3.177666 7.230816 1.712268 10053171
-6.927685 7.143150 1.475342 10053171
-4.287254 6.899585 1.119840 10053171
-5.302685 7.048028 0.086087 10053171
-6.807645 7.159768 2.889256 10053171
-4.217179 6.825076 2.426938 10053171
-3.444299 7.040453 2.653546 10053171
-3.095703 6.773084 1.143670 10053171
-3.480906 7.216866 0.558521 10053171
-3.460348 6.959222 2.312776 10053171
-4.089303 7.072050 2.711438 10053171
-3.755030 7.059170 2.905867 10053171
-5.776246 6.933869 0.490414 10053171
-4.750801 7.117445 1.556517 10053171
5.911685 -5.973542 1.150294 8342706
6.143372 -5.712521 1.803005 8342706
5.432618 -6.098807 3.630900 8342706
6.180670 -6.502230 0.547783 8342706
5.462547 -6.222554 3.041244 8342706
6.175533 -6.454743 4.068478 8342706
6.346455 -6.044448 4.905961 8342706
6.188756 -5.635785 0.310505 8342706
6.017961 -6.172400 3.999798 8342706
6.190991 -5.985745 0.490647 8342706
5.555691 -5.656235 2.007775 8342706
6.177169 -6.438204 3.300214 8342706
6.550987 -5.798037 4.824052 8342706
6.061872 -5.619789 2.415129 8342706
6.471103 -5.972047 1.335507 8342706
6.106648 -6.240986 2.942865 8342706
6.526878 -5.872728 0.298892 8342706
6.343451 -6.425943 2.992884 8342706
6.298245 -5.512032 2.203421 8342706
6.470059 -6.388220 2.669671 8342706
6.216398 -6.088755 2.958562 8342706
6.269751 -5.579892 2.042683 8342706
5.619152 -6.279280 3.510209 8342706
5.820445 -5.558517 0.190880 8342706
5.660159 -5.746600 0.520037 8342706
6.517803 -5.806723 1.415931 8342706
6.043604 -5.415520 0.756687 8342706
6.201532 -6.327178 1.503377 8342706
6.427309 -6.159178 1.582379 8342706
6.522209 -6.026150 3.495886 8342706
5.616681 -6.186662 3.381108 8342706
5.842995 -6.192257 4.717411 8342706
5.801035 -5.540520 2.046331 8342706
6.330109 -5.758778 2.916538 8342706
6.253087 -5.919482 3.534284 8342706
5.435337 -6.093553 0.541772 8342706
6.388264 -5.805522 1.985548 8342706
5.887570 -5.802659 1.730183 8342706
5.753143 -5.853673 3.163641 8342706
5.660629 -6.178246 1.860877 8342706
5.795878 -5.528586 0.792398 8342706
6.464206 -6.073712 0.386716 8342706
6.008361 -6.128579 4.280025 8342706
5.568639 -6.176965 4.556025 8342706
5.749190 -5.756226 4.158316 8342706
5.733083 -5.911410 3.113494 8342706
6.037549 -5.996667 1.447745 8342706
6.406898 -6.274698 2.016014 8342706
5.653984 -5.722986 3.107316 8342706
6.285112 -6.101798 3.920284 8342706
5.415094 -6.008064 4.591971 8342706
5.981709 -5.447532 4.481712 8342706
5.496312 -5.964296 3.246103 8342706
6.409934 -5.929514 1.952967 8342706
6.164110 -6.489958 4.276675 8342706
6.391281 -5.889534 1.203419 8342706
5.392752 -5.952558 2.344597 8342706
5.502957 -5.742398 4.328350 8342706
6.429545 -6.000734 2.994485 8342706
6.107875 -5.677989 4.840763 8342706
6.252910 -5.869316 2.116154 8342706
5.810521 -5.489261 2.076678 8342706
5.881207 -6.325089 3.548883 8342706
5.997997 -5.490846 3.506825 8342706
5.767146 -6.038515 4.538908 8342706
5.840777 -6.075364 1.750014 8342706
6.171908 -5.756099 1.998381 8342706
6.162793 -6.292864 1.955438 8342706
5.776725 -6.233838 1.525570 8342706
5.608001 -6.250055 1.047155 8342706
5.839799 -6.389619 1.282855 8342706
5.952951 -5.948197 3.039602 8342706
6.053728 -6.124671 4.746050 8342706
5.822089 -5.816552 0.619116 8342706
5.737111 -6.059139 2.502270 8342706
5.939646 -5.989464 3.180877 8342706
5.482722 -6.211433 1.929041 8342706
6.099403 -5.622696 0.148323 8342706
6.420911 -5.959482 1.235427 8342706
6.551395 -6.080902 3.882882 8342706
6.048455 -6.213628 3.279000 8342706
5.574433 -5.652119 1.979252 8342706
6.093655 -6.288380 4.459001 8342706
6.108308 -5.588886 4.636965 8342706
6.410469 -5.669931 0.230899 8342706
5.962652 -6.183454 2.704082 8342706
6.236426 -5.996770 2.445234 8342706
5.505178 -6.170782 3.671776 8342706
6.026409 -6.308989 1.987354 8342706
5.880065 -6.328763 1.005973 8342706
6.187127 -6.422889 4.420883 8342706
5.547758 -5.939167 3.869848 8342706
5.672196 -6.370905 2.523852 8342706
6.116776 -6.503511 1.411937 8342706
5.851269 -5.877233 4.552464 8342706
5.604571 -5.774281 2.338756 8342706
6.460270 -5.864737 2.618985 8342706
6.082876 -6.416415 0.585369 8342706
5.570551 -6.142752 1.854848 8342706
6.314988 -6.053185 1.859342 8342706
6.555239 -6.061165 3.634941 8342706
5.658803 -6.351225 0.618939 8342706
5.682596 -6.445711 0.780797 8342706
6.215931 -6.026318 2.561613 8342706
5.640695 -6.028209 3.289325 8342706
5.776932 -5.592700 4.685698 8342706
5.763925 -6.248812 4.033431 8342706
5.661469 -5.812848 1.200042 8342706
6.402530 -5.966969 4.429640 8342706
5.828002 -5.633275 3.528234 8342706
6.024045 -5.810347 0.938796 8342706
6.162414 -6.360064 1.782234 8342706
6.157401 -5.786330 1.578961 8342706
5.968854 -5.762107 4.079378 8342706
6.032513 -6.198716 4.587745 8342706
5.763680 -6.150137 0.229843 8342706
5.908234 -5.639995 1.654941 8342706
6.181969 -5.639598 3.853856 8342706
5.713044 -5.983797 3.099567 8342706
5.809570 -6.198105 2.577047 8342706
5.677450 -5.850877 2.899044 8342706
5.612252 -6.241693 3.718345 8342706
5.902781 -6.572357 1.081947 8342706
6.107696 -5.797136 1.677343 8342706
6.296142 -6.319383 0.557819 8342706
6.356678 -5.705632 2.308207 8342706
6.149920 -5.571924 3.076535 8342706
5.675413 -5.687522 1.226502 8342706
6.012825 -5.729402 3.714024 8342706
6.199965 -6.036444 4.385584 8342706
6.504347 -6.126759 2.687525 8342706
6.336562 -6.150946 3.363836 8342706
5.683963 -6.307220 4.710741 8342706
6.280182 -5.542085 4.640023 8342706
5.974268 -6.219797 3.556282 8342706
5.764991 -5.649020 2.603218 8342706
6.085110 -6.562905 4.494960 8342706
5.539631 -5.756854 4.265976 8342706
5.527583 -6.123500 2.880293 8342706
6.107490 -5.633175 2.482065 8342706
5.699267 -5.897535 4.044053 8342706
5.879123 -5.458445 3.053200 8342706
6.512883 -5.827065 0.116490 8342706
6.056367 -5.443037 0.396763 8342706
6.403054 -5.740319 0.058639 8342706
6.048072 -5.767672 0.506952 8342706
5.656971 -5.714152 3.082278 8342706
6.332564 -6.229202 1.535191 8342706
6.138206 -5.789842 2.503936 8342706
5.758046 -6.155457 1.602008 8342706
5.999309 -6.196024 0.111534 8342706
5.865223 -6.030505 3.732931 8342706
5.718638 -6.151921 3.390312 8342706
6.303491 -6.233316 4.579374 8342706
6.322788 -6.456695 3.393376 8342706
6.019330 -6.544069 4.180277 8342706
6.011969 -5.679427 4.237903 8342706
5.691393 -5.626689 4.208504 8342706
6.218506 -5.878327 1.871488 8342706
5.512808 -6.220995 4.650226 8342706
5.902168 -6.348383 4.708699 8342706
6.057140 -6.458579 1.321629 8342706
6.114325 -5.630523 2.047502 8342706
5.940430 -6.208897 1.704383 8342706
6.035231 -6.010561 4.555725 8342706
6.088047 -5.616264 1.158194 8342706
6.137878 -6.305802 1.571933 8342706
5.743960 -5.734947 0.113184 8342706
6.327384 -6.167121 3.049134 8342706
6.084463 -5.568553 2.633563 8342706
6.254574 -5.853499 1.032533 8342706
5.633206 -6.068361 1.905534 8342706
5.731551 -5.671362 2.245130 8342706
5.781513 -5.657783 2.592191 8342706
5.510355 -5.928170 3.580849 8342706
6.038498 -5.818217 1.862779 8342706
5.698402 -5.892770 1.458729 8342706
5.742160 -6.262779 2.813903 8342706
5.995493 -6.305227 4.893763 8342706
5.981517 -6.459142 4.818382 8342706
6.090173 -5.584741 3.840004 8342706
5.611042 -5.578170 2.014940 8342706
6.543461 -6.013205 4.233953 8342706
5.651631 -5.592186 1.917252 8342706
6.087280 -6.458149 1.697705 8342706
5.599668 -6.236438 1.875593 8342706
6.314480 -5.900176 3.522701 8342706
6.467798 -5.818783 3.832667 8342706
6.422852 -6.115035 3.859707 8342706
6.137161 -5.842118 3.356053 8342706
6.140997 -6.396790 1.020766 8342706
5.669370 -6.151549 3.328641 8342706
6.516551 -6.310416 0.119668 8342706
6.387147 -6.089106 4.959114 8342706
5.441010 -5.905922 3.777324 8342706
6.481498 -6.024295 0.234549 8342706
6.252009 -5.661798 3.703199 8342706
6.091098 -6.001196 2.460490 8342706
6.288390 -5.971371 0.698822 8342706
6.426170 -5.969711 2.418399 8342706
6.076869 -6.502944 2.777671 8342706
6.390025 -6.085253 1.396453 8342706
6.206852 -5.643741 1.100231 8342706
6.243391 -5.567722 4.323494 8342706
6.165435 -6.432305 0.730523 8342706
5.636311 -6.061816 3.193409 8342706
6.527623 -5.791022 1.094442 8342706
6.171924 -5.785833 2.580411 8342706
5.981682 -6.082388 2.535477 8342706
6.380590 -5.686335 1.823571 8342706
5.950234 -6.120587 3.845484 8342706
6.490466 -6.004006 1.582396 8342706
5.509650 -6.280136 0.726136 8342706
5.837677 -6.365308 4.993229 8342706
6.467140 -5.790616 3.994493 8342706
6.225766 -6.035292 0.127749 8342706
6.268525 -5.823192 3.583951 8342706
6.491013 -6.071471 4.585219 8342706
5.923094 -6.056129 3.139137 8342706
6.391912 -6.241899 1.759032 8342706
6.039360 -5.434254 1.964666 8342706
5.423011 -5.963017 4.249808 8342706
6.068573 -6.060513 2.980268 8342706
6.257090 -5.939181 3.239145 8342706
5.661337 -6.173117 3.336397 8342706
6.137705 -6.356260 4.416653 8342706
6.088650 -5.520777 4.109597 8342706
5.930359 -5.859039 2.918883 8342706
5.431679 -6.095614 2.064625 8342706
6.319460 -6.436731 4.876740 8342706
5.631095 -6.380588 2.930456 8342706
6.314581 -6.336736 2.371978 8342706
6.426403 -5.805252 1.056460 8342706
6.433898 -5.884899 2.277468 8342706
5.982538 -5.504702 2.069315 8342706
6.238530 -5.741010 0.476799 8342706
5.884174 -6.280660 1.562450 8342706
6.382637 -5.762877 2.437376 8342706
6.371190 -5.534759 4.086043 8342706
6.477203 -6.183347 1.479051 8342706
6.198236 -5.805244 3.234007 8342706
5.736865 -6.379857 3.109606 8342706
6.263093 -5.539092 4.465686 8342706
6.025279 -5.906064 0.778715 8342706
5.587334 -6.366983 4.387507 8342706
5.599375 -5.738985 4.269395 8342706
6.210433 -5.810982 1.385266 8342706
5.756739 -5.778944 1.059886 8342706
5.860682 -6.093216 0.628923 8342706
6.173709 -5.439637 1.201761 8342706
6.296481 -5.529931 1.158473 8342706
5.641696 -6.242594 4.298314 8342706
5.935076 -6.077744 4.915036 8342706
6.202717 -5.562367 3.767582 8342706
5.654453 -6.042582 4.255918 8342706
6.099107 -6.567180 4.276386 8342706
5.701602 -5.717714 3.955948 8342706
5.535451 -6.093874 3.751906 8342706
6.219819 -6.417129 1.026513 8342706
6.542203 -5.960902 0.513205 8342706
5.994487 -5.541781 2.928021 8342706
6.202187 -6.391758 1.643844 8342706
5.520787 -6.226691 3.911909 8342706
5.621488 -6.448684 2.818461 8342706
5.800833 -5.499465 2.250717 8342706
6.525932 -6.227659 2.091857 8342706
6.059381 -6.366646 0.529733 8342706
5.438859 -5.852116 2.609152 8342706
5.810577 -5.653017 2.542235 8342706
6.306056 -6.069838 0.227383 8342706
6.049030 -5.608587 4.367289 8342706
6.497277 -6.285609 4.420001 8342706
5.817538 -6.382882 4.422498 8342706
5.457448 -5.776504 4.346987 8342706
5.950503 -5.476179 1.506098 8342706
6.537443 -6.198215 4.011925 8342706
6.382058 -6.174079 1.432323 8342706
5.834462 -6.183544 3.754571 8342706
6.101597 -6.335731 1.914961 8342706
5.552262 -5.642390 3.378132 8342706
5.781816 -6.448061 3.536944 8342706
5.512405 -5.703422 3.931791 8342706
6.166983 -5.555026 0.026009 8342706
6.348211 -5.935983 2.645126 8342706
6.396622 -6.074161 1.755250 8342706
5.778496 -5.804396 3.236615 8342706
6.024688 -5.812017 3.183167 8342706
6.320477 -6.045616 2.039103 8342706
6.364190 -5.839079 2.194130 8342706
6.047560 -5.793645 0.108842 8342706
5.827898 -6.075422 0.096076 8342706
6.231018 -6.463864 0.894799 8342706
6.333898 -6.465946 0.751232 8342706
6.146000 -6.347534 4.218452 8342706
5.881223 -6.532804 1.823650 8342706
5.644313 -5.912253 1.008304 8342706
5.755962 -5.686995 2.697011 8342706
6.224718 -5.725094 0.402732 8342706
6.075048 -5.416193 2.096761 8342706
6.023044 -6.491203 1.069397 8342706
6.245238 -5.562251 1.276217 8342706
6.455066 -5.685310 3.626866 8342706
6.515135 -6.261868 0.310912 8342706
5.776219 -5.920521 4.019176 8342706
6.177817 -6.119866 1.741977 8342706
6.096668 -6.220984 3.249713 8342706
5.598697 -6.242315 3.714233 8342706
6.535452 -6.146132 1.845838 8342706
6.246958 -6.226140 1.685181 8342706
5.558661 -5.793909 2.472884 8342706
6.375602 -6.404651 2.032750 8342706
6.119606 -6.208807 3.566871 8342706
6.145503 -6.577661 4.307247 8342706
6.449133 -6.391225 3.689051 8342706
6.121716 -5.559840 2.016909 8342706
6.083472 -5.461489 0.884654 8342706
6.136018 -6.448055 1.160497 8342706
5.678917 -6.068266 0.120833 8342706
5.858054 -5.585049 2.620432 8342706
5.801324 -6.378498 2.634838 8342706
6.101212 -5.477005 3.486077 8342706
5.756316 -6.271579 3.339015 8342706
6.336710 -6.320850 1.070635 8342706
5.818458 -6.529297 4.761342 8342706
6.250834 -5.697145 4.900315 8342706
6.020308 -6.465800 1.854737 8342706
5.694664 -5.791376 0.306933 8342706
6.300567 -5.532112 4.288826 8342706
5.587889 -5.861856 4.361982 8342706
6.247212 -5.587078 0.511288 8342706
6.272899 -6.371418 4.012417 8342706
6.176222 -6.539940 0.555962 8342706
6.177917 -5.853536 1.040411 8342706
6.445028 -6.147174 2.764414 8342706
6.032260 -6.393090 3.741023 8342706
5.994587 -5.553131 2.056448 8342706
6.461823 -6.181013 3.304615 8342706
6.114169 -5.437812 0.249138 8342706
5.475510 -5.712121 4.390769 8342706
6.159961 -6.328517 1.688106 8342706
6.425002 -5.617124 1.846200 8342706
5.870286 -6.112279 0.920319 8342706
6.352824 -5.613370 3.697811 8342706
5.633214 -6.124540 3.758831 8342706
6.518604 -5.911762 1.173907 8342706
5.727792 -5.987837 2.434466 8342706
6.248275 -6.338955 2.949498 8342706
5.721376 -6.394260 4.083349 8342706
6.060422 -6.278194 3.891074 8342706
6.395821 -5.552297 4.951558 8342706
6.524186 -6.280353 4.653812 8342706
6.021676 -5.934208 3.867217 8342706
6.175457 -6.380017 4.345875 8342706
5.729484 -6.200477 2.004505 8342706
6.447130 -5.871510 2.119043 8342706
6.462282 -5.985069 2.205067 8342706
5.856061 -5.437333 1.056298 8342706
6.482458 -5.818300 0.280838 8342706
5.861582 -5.466968 1.378259 8342706
6.246322 -5.703002 4.837381 8342706
5.955315 -5.661145 1.222575 8342706
6.478593 -5.792476 2.235685 8342706
5.790737 -6.208641 3.676819 8342706
6.284465 -6.175916 1.514462 8342706
5.975171 -6.400678 3.964073 8342706
5.994957 -5.831399 2.275732 8342706
6.170864 -6.042055 4.115271 8342706
6.167113 -6.413854 4.349339 8342706
6.286803 -5.598949 4.757129 8342706
6.339508 -5.822106 3.609011 8342706
5.990199 -5.786864 3.156558 8342706
6.543771 -5.884858 3.046540 8342706
6.277313 -5.862228 2.851974 8342706
6.276508 -6.335286 1.995036 8342706
5.758749 -5.700414 3.612869 8342706
5.726693 -5.732557 3.048828 8342706
6.280323 -5.970872 1.464648 8342706
6.392653 -6.232894 1.091346 8342706
5.827631 -5.602512 2.980356 8342706
5.532815 -5.894294 0.123250 8342706
5.662478 -5.654980 0.463821 8342706
5.601383 -5.567639 2.865751 8342706
6.008803 -5.512437 2.117661 8342706
5.512643 -6.116642 1.865740 8342706
6.120179 -5.495287 3.482922 8342706
5.435461 -5.920077 4.580750 8342706
5.459150 -5.796224 2.913649 8342706
6.192301 -6.318733 1.857758 8342706
5.556128 -6.395425 0.841618 8342706
5.905306 -6.508117 1.635428 8342706
6.098861 -6.331727 3.426769 8342706
5.971934 -6.471998 4.614932 8342706
6.369234 -6.156856 0.812723 8342706
6.493702 -6.330007 1.433352 8342706
6.563706 -5.907186 3.408536 8342706
5.568863 -6.086820 1.115440 8342706
6.287127 -6.302838 1.946604 8342706
6.167909 -6.303473 2.937354 8342706
6.069364 -6.530019 4.952529 8342706
5.975744 -6.454594 0.597292 8342706
6.296249 -5.776782 1.748530 8342706
6.405221 -5.916343 1.299353 8342706
6.219142 -6.388429 0.474216 8342706
6.276241 -6.113147 2.906308 8342706
6.481569 -6.134481 0.082073 8342706
6.086730 -5.673316 1.238430 8342706
6.492294 -6.261666 4.316358 8342706
6.457039 -5.620032 4.832804 8342706
6.500975 -6.169870 3.616003 8342706
6.315566 -6.337704 1.603988 8342706
5.740827 -6.287907 0.417059 8342706
6.178263 -5.591102 2.708126 8342706
6.228606 -6.027565 3.847283 8342706
6.351123 -5.861712 0.381263 8342706
6.179944 -5.865201 3.967043 8342706
5.764806 -6.415935 3.295274 8342706
6.396832 -6.211903 -0.002999 8342706
6.335472 -5.764150 1.370639 8342706
6.277056 -6.002769 4.221839 8342706
6.330627 -6.096125 2.037074 8342706
5.790231 -5.577159 4.382012 8342706
5.854694 -6.024700 0.847914 8342706
6.026448 -5.747667 4.182423 8342706
5.518888 -5.717047 3.985291 8342706
6.475852 -6.126192 1.766918 8342706
6.270970 -6.461870 1.730878 8342706
6.265203 -6.211806 4.635026 8342706
5.535739 -6.336009 1.220299 8342706
6.004071 -6.232940 3.469914 8342706
6.238016 -5.572876 3.759923 8342706
6.011818 -6.573091 3.662556 8342706
5.926809 -6.025857 1.748920 8342706
5.800261 -5.649035 2.739856 8342706
6.170508 -6.302686 0.922541 8342706
6.181864 -5.982980 3.861361 8342706
6.116596 -6.299254 1.978813 8342706
5.766305 -6.128824 1.024894 8342706
6.588809 -5.991235 1.778720 8342706
5.746469 -6.105383 4.305459 8342706
6.464875 -5.764634 1.011896 8342706
5.553502 -5.872950 0.769634 8342706
6.310321 -6.032285 5.012910 8342706
6.181370 -6.546205 4.111529 8342706
6.062244 -6.410896 4.710998 8342706
6.005849 -5.814714 1.408123 8342706
6.525273 -6.160972 4.989061 8342706
6.134982 -6.091966 1.671842 8342706
5.820506 -5.962464 2.088409 8342706
5.733582 -5.963624 3.042097 8342706
6.492658 -6.237082 4.102702 8342706
5.480899 -5.877371 3.610790 8342706
6.178139 -6.082432 0.994795 8342706
5.866601 -6.250252 1.893481 8342706
5.937266 -5.632958 2.397582 8342706
6.303411 -6.266209 0.086577 8342706
5.817991 -5.573748 4.554560 8342706
5.990701 -5.470325 4.046467 8342706
5.779901 -5.449038 3.566813 8342706
6.422654 -6.350453 1.541873 8342706
5.509552 -6.029541 4.738016 8342706
6.070060 -6.518745 0.132188 8342706
6.530788 -5.956073 1.488902 8342706
6.358451 -5.551439 3.364497 8342706
5.781201 -5.894788 0.822676 8342706
6.007314 -6.006151 0.884521 8342706
5.604409 -5.908919 2.215843 8342706
5.735932 -5.624037 2.300987 8342706
5.790986 -6.110817 3.537758 8342706
6.332774 -5.491740 1.121767 8342706
5.639052 -5.768424 4.829477 8342706
5.889573 -5.785839 0.087968 8342706
5.648028 -6.459082 2.447263 8342706
5.900520 -6.460122 3.639275 8342706
6.012701 -6.584540 0.588576 8342706
6.043495 -5.706911 1.738193 8342706
6.103146 -5.913295 1.772101 8342706
6.159732 -5.766868 4.150601 8342706
5.491220 -6.272783 4.952638 8342706
6.547985 -5.835370 2.141995 8342706
6.219937 -6.450768 3.890645 8342706
6.230905 -5.723261 2.523655 8342706
6.232574 -6.362779 2.382911 8342706
6.055999 -5.646920 4.488089 8342706
5.618820 -6.315381 3.463750 8342706
5.998023 -6.446069 2.743951 8342706
6.573089 -6.092043 0.477121 8342706
5.703246 -5.650948 4.796041 8342706
6.292522 -5.790615 0.300750 8342706
5.954452 -5.727791 4.712685 8342706
6.045887 -5.541889 2.420185 8342706
6.360067 -5.935630 1.862038 8342706
5.844418 -6.338707 3.434158 8342706
6.094062 -5.702568 4.240295 8342706
6.454739 -5.840009 0.482652 8342706
6.404009 -5.755056 4.617059 8342706
6.239908 -6.041904 2.766903 8342706
6.341191 -6.251030 0.711956 8342706
5.452377 -6.000232 2.413478 8342706
5.702775 -5.943655 4.311164 8342706
6.287096 -5.900852 4.820748 8342706
6.313617 -5.570524 1.377821 8342706
5.805366 -6.239396 4.053736 8342706
6.428429 -5.677717 4.620237 8342706
5.858121 -5.503541 4.344684 8342706
5.672060 -5.852242 0.496956 8342706
6.417952 -5.832409 3.476591 8342706
6.358187 -5.753078 0.679668 8342706
5.656589 -6.077404 0.755059 8342706
