# .PCD v0.7 - Point Cloud Data file format
VERSION 0.7
FIELDS x y z rgb
SIZE 4 4 4 4
TYPE F F F U
COUNT 1 1 1 1
WIDTH 1262
HEIGHT 1
VIEWPOINT 0 0 0 1 0 0 0
POINTS 1262
DATA ascii
28.378147 -5.994627 0.616419 1690649
28.098381 -6.415270 0.781845 1690649
28.322880 -6.364947 0.719689 1690649
27.738436 -6.420787 1.309252 1690649
28.423019 -6.252236 0.487121 1690649
28.136633 -6.181907 0.595474 1690649
28.356762 -6.293958 1.019499 1690649
28.090685 -6.369326 1.072187 1690649
28.598532 -6.361155 1.299853 1690649
27.930843 -6.299953 0.934631 1690649
28.564119 -6.217006 0.550869 1690649
28.232090 -6.406694 1.747436 1690649
28.151659 -6.674900 0.174273 1690649
27.881414 -6.094653 1.065506 1690649
28.246462 -5.988897 1.032816 1690649
28.379290 -6.640841 1.163714 1690649
28.573448 -6.404388 1.011116 1690649
28.004154 -6.450584 0.583916 1690649
28.327906 -6.172865 1.392382 1690649
28.253956 -6.355264 1.143568 1690649
28.270300 -5.900017 1.724288 1690649
28.240292 -6.685831 1.151490 1690649
27.768213 -6.464534 0.868577 1690649
27.753532 -6.461462 0.876948 1690649
27.886827 -5.928195 1.529590 1690649
28.309303 -6.405607 1.855476 1690649
27.857140 -6.402284 1.400729 1690649
28.320585 -5.980149 1.838443 1690649
28.187799 -6.591075 0.626382 1690649
28.427345 -6.060339 1.240098 1690649
27.992208 -5.976937 1.421069 1690649
28.008713 -6.166987 1.615304 1690649
28.524830 -6.478659 0.963969 1690649
27.988029 -6.210083 0.759767 1690649
28.177734 -6.418826 1.069863 1690649
28.436260 -5.926350 1.098213 1690649
27.774612 -6.268664 0.550574 1690649
28.255341 -6.085368 0.596608 1690649
27.873217 -6.428133 1.287180 1690649
28.204117 -6.034919 1.847602 1690649
28.322283 -6.144163 1.078722 1690649
28.011711 -6.583879 0.341880 1690649
28.309683 -6.153886 1.892058 1690649
28.143105 -6.556036 1.009388 1690649
27.895617 -5.953681 1.918169 1690649
28.381371 -6.433246 1.152870 1690649
28.188450 -6.606697 1.425283 1690649
28.142914 -6.125472 0.987141 1690649
28.025667 -5.892384 1.040246 1690649
28.124500 -5.951663 1.354852 1690649
27.965200 -6.122241 1.259587 1690649
28.306618 -5.874893 0.420614 1690649
28.545395 -6.177124 1.512133 1690649
27.946142 -6.051493 1.021521 1690649
27.768354 -6.459920 1.847878 1690649
28.112898 -6.639602 1.695263 1690649
27.974224 -6.388742 0.820723 1690649
27.995188 -6.138292 0.590651 1690649
28.512699 -6.520057 0.913899 1690649
28.120300 -6.318229 1.462557 1690649
27.839638 -6.301930 0.917344 1690649
28.310083 -6.272295 0.123515 1690649
27.961880 -6.149589 0.189260 1690649
28.199665 -6.649533 0.164030 1690649
28.158396 -6.023870 0.974026 1690649
28.275942 -6.484658 1.724229 1690649
27.997246 -6.552236 1.674933 1690649
28.205765 -6.713349 1.777432 1690649
27.971163 -6.126600 0.226618 1690649
27.876154 -6.427923 0.332741 1690649
27.977583 -6.156270 1.337563 1690649
28.312902 -6.423081 0.663813 1690649
27.985252 -6.516299 1.649265 1690649
28.514248 -6.344741 1.145725 1690649
28.312902 -6.306068 0.110891 1690649
28.117134 -5.937845 1.221704 1690649
28.210062 -6.117073 0.205983 1690649
28.133276 -6.627002 1.089776 1690649
28.451975 -6.311327 0.723753 1690649
28.355064 -6.014376 1.192678 1690649
28.095938 -5.858438 0.231327 1690649
28.149523 -6.469180 0.477910 1690649
28.251549 -6.105027 0.928256 1690649
28.020294 -6.239871 1.777587 1690649
27.817406 -6.178391 0.700912 1690649
28.266510 -6.628944 0.201478 1690649
28.153301 -6.670488 1.455309 1690649
27.978441 -6.548671 0.141478 1690649
28.372511 -6.103899 1.489704 1690649
28.450968 -6.491776 1.254415 1690649
28.191717 -6.009161 1.695254 1690649
28.112602 -5.940012 1.135359 1690649
28.380163 -5.979892 0.753359 1690649
27.951548 -6.381722 0.185589 1690649
27.950830 -5.945346 1.264381 1690649
28.444189 -6.542103 0.588573 1690649
27.969761 -6.141883 1.659610 1690649
28.092628 -6.235770 1.883553 1690649
28.453358 -6.110778 0.475932 1690649
28.041380 -6.515436 1.626963 1690649
27.821152 -6.501131 0.973623 1690649
28.056999 -5.993168 1.751770 1690649
28.038498 -6.536155 1.477068 1690649
27.846418 -6.056889 0.611256 1690649
27.957495 -6.089567 0.146879 1690649
27.857872 -6.607335 1.129020 1690649
27.942034 -6.048540 0.622635 1690649
27.960629 -6.051446 1.056382 1690649
27.828188 -6.494551 0.780831 1690649
27.942101 -6.396393 1.270574 1690649
28.507103 -6.551312 0.139017 1690649
28.185137 -5.868231 1.892650 1690649
28.562773 -6.181965 0.967124 1690649
28.377920 -6.643873 1.823453 1690649
28.533648 -6.180888 1.466115 1690649
28.293468 -6.568652 1.040268 1690649
28.411947 -6.096994 1.361066 1690649
28.190914 -6.624149 1.145751 1690649
28.113018 -5.942003 0.764427 1690649
28.221418 -6.677527 0.147107 1690649
27.777672 -6.343907 0.962923 1690649
27.879820 -6.013979 0.292657 1690649
28.450502 -6.167022 1.313083 1690649
28.396629 -6.568759 0.092291 1690649
27.932737 -6.308545 1.082074 1690649
28.210258 -6.491020 0.262292 1690649
27.818151 -6.335228 0.948340 1690649
28.152847 -6.572509 0.472649 1690649
28.536940 -6.094261 0.704164 1690649
27.853376 -6.190095 1.859636 1690649
28.062975 -6.159948 0.243598 1690649
28.304728 -6.313144 0.434466 1690649
28.470442 -6.591923 0.900550 1690649
27.735071 -6.105443 1.385836 1690649
27.892614 -6.181720 1.528784 1690649
27.975679 -6.273147 0.296970 1690649
28.336672 -6.573013 1.458997 1690649
28.092506 -6.335764 0.494664 1690649
28.387934 -6.417463 1.365574 1690649
28.313805 -6.075316 0.200761 1690649
27.798950 -6.322836 0.636193 1690649
28.565386 -6.400531 0.767292 1690649
28.454716 -6.155924 1.304364 1690649
28.070028 -6.208959 0.903942 1690649
27.874672 -6.276400 0.637812 1690649
28.596210 -6.133214 1.202339 1690649
28.227631 -6.406564 1.288885 1690649
27.988504 -6.186543 1.678281 1690649
28.194220 -5.885524 1.198271 1690649
28.575033 -6.293736 1.277976 1690649
28.372438 -6.485432 0.489791 1690649
27.944731 -6.272748 1.003803 1690649
28.265810 -6.274178 1.225413 1690649
28.321217 -6.370659 0.692714 1690649
-4.373374 7.170375 0.466271 10053171
-5.977568 7.095254 0.413864 10053171
-4.439219 6.976623 2.350942 10053171
-5.185439 7.161994 2.887632 10053171
-3.831850 6.986732 0.278226 10053171
-6.676001 6.754275 2.478625 10053171
-4.121913 7.156723 2.548912 10053171
-3.172478 6.953921 1.339980 10053171
-4.404902 6.969052 0.500646 10053171
-3.496494 7.199417 2.556903 10053171
-3.665870 7.184886 2.478204 10053171
-3.264959 6.957821 0.826563 10053171
-3.997860 7.068339 0.149800 10053171
-4.980477 6.812202 1.152991 10053171
-6.818385 6.980263 0.198301 10053171
-4.624120 7.117970 2.208966 10053171
-6.428321 6.976973 1.222954 10053171
-4.665479 6.959652 0.431997 10053171
-6.902852 6.751997 2.821393 10053171
-6.305561 7.219376 2.885721 10053171
-6.076910 7.059652 0.749416 10053171
-6.137020 6.805116 2.803742 10053171
-3.745249 6.846751 2.226631 10053171
-4.822553 7.056262 2.512253 10053171
-6.582023 7.010445 2.659538 10053171
-6.055412 7.162372 1.117500 10053171
-3.405755 7.148451 1.457375 10053171
-4.606542 6.975069 1.336073 10053171
-6.010864 7.231550 2.396084 10053171
-6.677610 7.024282 2.951217 10053171
-6.863859 7.057783 1.128959 10053171
-5.982924 6.755463 0.148477 10053171
-6.137408 7.010404 1.939454 10053171
-3.864215 6.974555 0.575986 10053171
-4.711926 7.163547 0.120073 10053171
-5.868062 7.178406 2.083937 10053171
-4.834266 6.962450 1.400974 10053171
-5.481931 7.228412 2.733830 10053171
-5.064242 6.742442 1.300485 10053171
-6.168077 6.970879 2.528885 10053171
-4.482652 6.907207 2.123603 10053171
-4.090852 7.119226 1.098595 10053171
-3.860927 6.759851 0.906960 10053171
-4.724181 6.941878 2.244381 10053171
-5.531054 6.963748 0.640552 10053171
-3.789983 7.063481 1.159030 10053171
-3.496364 7.063987 2.118178 10053171
-4.281781 7.195630 0.708512 10053171
-4.125341 7.238134 2.556793 10053171
-5.295200 6.980080 1.597075 10053171
-6.768803 7.061861 2.610210 10053171
-5.656022 6.968683 1.200924 10053171
-5.752572 6.864624 2.777131 10053171
-3.547647 6.854600 2.680986 10053171
-3.086805 6.894200 0.630646 10053171
-5.025987 7.020437 2.176097 10053171
-3.508878 7.061594 0.816368 10053171
-5.447995 7.032729 1.620959 10053171
-3.351831 7.072190 2.174973 10053171
-6.457891 7.195798 0.028596 10053171
-6.367648 6.756543 2.612862 10053171
-4.387087 6.941221 2.936130 10053171
-6.320210 6.970285 0.871981 10053171
-3.765759 7.188311 1.048279 10053171
-3.568168 7.062074 2.688883 10053171
-4.178030 6.926293 2.127767 10053171
-6.351670 6.814352 1.066815 10053171
-3.765829 7.012630 1.928107 10053171
-3.866462 7.050338 1.231245 10053171
-5.442578 7.210943 0.708348 10053171
-5.930089 6.947898 2.512991 10053171
-3.266238 6.932383 1.504663 10053171
-6.807312 6.761509 2.291220 10053171
-3.696125 6.984369 0.994022 10053171
-6.517632 7.198538 1.557787 10053171
-5.301445 6.988715 0.860597 10053171
-6.510729 6.873641 0.450258 10053171
-4.532746 7.098898 2.286817 10053171
-6.732785 7.166810 1.125883 10053171
-4.024966 6.886216 0.246058 10053171
-5.771029 7.219845 0.714680 10053171
-6.960206 7.086638 2.902996 10053171
-3.140703 7.064682 2.187009 10053171
-4.142856 7.109284 0.038153 10053171
-4.433303 7.173080 1.352811 10053171
-6.599583 7.222776 0.423221 10053171
-5.844802 6.855893 0.171245 10053171
-3.250649 6.870253 0.148085 10053171
-6.526824 6.925825 1.333616 10053171
-5.983710 6.830581 -0.005108 10053171
-5.436154 7.044871 1.786253 10053171
-6.401934 7.001784 2.970921 10053171
-6.066061 6.845885 2.939435 10053171
-4.238000 7.203988 1.440395 10053171
-4.287962 7.114198 2.189671 10053171
-3.910225 7.185333 2.390318 10053171
-5.662940 7.229021 0.402468 10053171
-5.347105 6.899223 0.457087 10053171
-3.333940 6.949805 0.975079 10053171
-6.862900 6.946414 0.262106 10053171
-4.492822 6.797451 1.771940 10053171
-6.244175 7.232038 1.526684 10053171
-3.840766 7.187582 0.864335 10053171
-3.808363 6.957333 2.069797 10053171
-4.793602 7.145492 1.225994 10053171
-5.630802 7.259122 1.576838 10053171
-4.236577 6.968071 0.415565 10053171
-5.513621 7.204885 0.315225 10053171
-3.285160 7.068505 0.128766 10053171
-5.113880 6.771447 1.798788 10053171
-5.631247 7.041338 2.639454 10053171
-5.464063 6.891563 2.348208 10053171
-4.467827 6.928458 0.677038 10053171
-4.777003 6.929640 2.316882 10053171
-6.488098 6.956726 1.157039 10053171
-5.730870 6.789718 1.397287 10053171
-4.573061 6.912235 1.792341 10053171
-4.071249 7.067550 2.550407 10053171
-3.329895 7.022414 0.195134 10053171
-4.644344 6.767272 1.399101 10053171
-3.805808 7.178619 0.843209 10053171
-5.172031 6.847111 0.240155 10053171
-6.410939 6.754330 0.296638 10053171
-5.599935 7.019953 0.824438 10053171
-3.121310 7.181471 1.560901 10053171
-5.382395 7.064792 2.717257 10053171
-5.330407 6.946293 2.692014 10053171
-4.388143 6.908650 0.788702 10053171
-6.980852 7.107040 2.682646 10053171
-4.266417 7.049067 2.891875 10053171
-4.861973 6.966536 0.257037 10053171
-6.457295 6.891901 2.246695 10053171
-5.363574 6.905940 1.735741 10053171
-5.252067 7.037614 1.640450 10053171
-4.641363 6.852557 0.810887 10053171
-3.277358 6.827085 0.440079 10053171
-4.021715 6.945122 1.219720 10053171
-3.756998 7.230901 0.781089 10053171
-5.123339 7.030412 2.757541 10053171
-4.730288 7.178814 1.090309 10053171
-5.665715 6.783061 2.534182 10053171
-5.411636 7.159289 2.293393 10053171
-6.064219 6.995804 2.967949 10053171
-3.705647 6.953104 1.079525 10053171
-4.239812 7.084550 2.739245 10053171
-5.928916 7.060023 0.641772 10053171
-4.969090 6.816744 2.315124 10053171
-3.936099 6.811656 1.375736 10053171
-6.029753 7.202773 1.745651 10053171
-3.605837 7.182049 0.394125 10053171
-5.863706 6.939864 2.273451 10053171
-6.551493 6.884559 1.750409 10053171
-4.766020 6.799951 2.779053 10053171
-6.492061 7.159627 1.214554 10053171
-3.567491 6.998567 1.079480 10053171
-6.252278 6.837584 1.543332 10053171
-2.996704 6.841920 1.543801 10053171
-6.397424 7.223278 0.954235 10053171
-4.783884 7.005948 1.237291 10053171
-6.399874 7.096937 0.930964 10053171
-6.872586 6.884785 2.269857 10053171
-3.702524 7.208823 1.808295 10053171
-4.217045 7.170750 0.807095 10053171
-6.305750 6.780032 2.945372 10053171
-3.047683 6.775811 2.274607 10053171
-6.421407 6.941615 1.493360 10053171
-6.313879 6.996109 1.003823 10053171
-5.150025 6.782141 1.212096 10053171
-3.947400 7.162761 0.949779 10053171
-6.426431 7.079139 0.873989 10053171
-6.233429 6.744787 2.078229 10053171
-3.529036 7.036928 0.930447 10053171
-5.309208 6.978484 2.321060 10053171
-4.504277 6.752643 0.612526 10053171
-5.584209 7.198833 0.157973 10053171
-3.614074 6.926379 1.833271 10053171
-6.980324 7.166086 2.090931 10053171
-6.187208 7.168427 1.933363 10053171
-4.720711 6.911278 0.450032 10053171
-5.544141 6.954642 1.740034 10053171
-6.740084 6.789698 1.259237 10053171
-5.565564 6.814751 1.504446 10053171
-6.410260 6.878752 2.035011 10053171
-5.993631 6.805315 1.084016 10053171
-5.775657 6.749528 2.075248 10053171
-5.551531 6.795556 1.573491 10053171
-3.376504 7.090848 2.621271 10053171
-5.046964 7.035857 0.366882 10053171
-4.193961 7.183714 0.548065 10053171
-5.072549 7.142823 0.832792 10053171
-6.393005 6.915565 2.861707 10053171
-6.868089 6.819250 2.530032 10053171
-6.703943 6.736893 0.420182 10053171
-3.255935 7.069366 1.592995 10053171
-6.012935 6.724577 2.589833 10053171
-4.096393 6.926085 1.544137 10053171
-6.725478 7.208627 0.610853 10053171
-6.912052 6.957200 2.971589 10053171
-4.466317 6.936389 1.928621 10053171
-4.905258 7.075188 2.550944 10053171
-3.984108 7.108683 0.800803 10053171
-4.137379 7.235559 0.493417 10053171
-3.909914 6.779665 1.116096 10053171
-3.470069 7.214693 2.468593 10053171
-3.387562 7.161321 0.177756 10053171
-3.136750 6.776005 0.453178 10053171
-4.786974 7.206983 1.109301 10053171
-6.918583 7.082459 0.586634 10053171
-6.268787 6.768887 1.878521 10053171
-6.640852 6.934932 0.614648 10053171
-6.358262 7.179516 1.728932 10053171
-6.409252 6.817466 1.126266 10053171
-4.978760 6.822444 0.303394 10053171
-5.295593 7.048007 1.109849 10053171
-5.982431 7.068090 1.242736 10053171
-3.168183 6.998507 2.052174 10053171
-4.536091 6.911390 0.164894 10053171
-6.052294 6.837021 0.160845 10053171
-3.639867 7.137985 0.332124 10053171
-3.356099 7.186808 2.619936 10053171
-4.021650 6.903640 2.657025 10053171
-4.112626 6.842129 2.988573 10053171
-5.538360 7.102451 1.932166 10053171
-4.331064 7.141089 0.715922 10053171
-4.268884 6.941981 0.572100 10053171
-3.607380 7.158292 0.593715 10053171
-3.734732 6.952611 0.927995 10053171
-4.667992 7.029513 0.630921 10053171
-4.194844 6.943771 0.221750 10053171
-6.546271 6.788930 2.371134 10053171
-4.739519 7.158047 0.499215 10053171
-5.175980 6.971471 1.440818 10053171
-6.443343 7.248356 1.318200 10053171
-6.984007 7.028393 2.087368 10053171
-6.565576 7.236836 1.482391 10053171
-5.035312 7.128694 2.901363 10053171
-4.725071 6.853401 0.730438 10053171
-4.288140 6.927482 1.293991 10053171
-5.464896 6.817321 2.065438 10053171
-4.018598 6.777175 2.817710 10053171
-5.922710 7.015051 1.403103 10053171
-6.749709 6.761876 0.261343 10053171
-3.292484 7.138413 2.700162 10053171
-5.108508 7.076662 1.741640 10053171
-5.869339 7.207534 0.516411 10053171
-6.240331 6.883459 1.082893 10053171
-6.954298 7.078329 1.637549 10053171
-5.741394 7.206145 2.550670 10053171
-6.215343 6.914449 2.017924 10053171
-3.803894 6.962957 1.349506 10053171
-5.705316 7.150220 0.869202 10053171
-3.113507 6.811872 0.971155 10053171
-3.918994 6.844319 1.096322 10053171
-5.352099 7.172280 1.636256 10053171
-3.509863 6.758650 0.856719 10053171
-4.695122 7.238431 1.551810 10053171
-3.646829 6.982579 2.213786 10053171
-4.577814 7.132413 2.682289 10053171
-4.904705 7.077639 2.099483 10053171
-6.913870 6.788550 2.378479 10053171
-3.429681 7.126801 0.859132 10053171
-5.539350 7.059844 2.920975 10053171
-4.840768 6.940178 0.673896 10053171
-4.600763 7.038074 2.167997 10053171
-6.908071 7.027012 2.195829 10053171
-3.651434 6.870760 1.227276 10053171
-4.323992 6.931534 0.812002 10053171
-6.430605 6.784282 2.068273 10053171
-6.049259 6.776792 2.057592 10053171
-4.830920 6.745766 0.946438 10053171
-3.711365 6.846734 0.007656 10053171
-4.887324 7.110058 2.474775 10053171
-3.739299 7.002650 2.462429 10053171
-5.168494 7.084152 1.515478 10053171
-6.228611 6.846103 1.602244 10053171
-6.683931 7.167886 2.938116 10053171
-3.930171 6.949183 0.965914 10053171
-6.226721 7.044868 0.933563 10053171
-4.906483 7.158605 1.508692 10053171
-3.283473 7.227844 0.911018 10053171
-6.357324 7.071953 1.817760 10053171
-5.668610 6.781291 1.321683 10053171
-3.546053 6.916202 0.418377 10053171
-5.648130 6.776937 2.118067 10053171
-4.280739 7.244666 0.413792 10053171
-3.194699 7.020100 1.450969 10053171
-3.101510 6.969438 1.830296 10053171
-4.059724 6.784825 0.907287 10053171
-4.281317 7.205872 1.325790 10053171
-3.097111 6.869183 0.325791 10053171
-4.011906 7.128172 1.430416 10053171
-5.424358 6.912106 1.061936 10053171
-4.001899 6.940262 0.351737 10053171
-3.792013 6.945972 0.187498 10053171
-5.717110 7.245479 1.841442 10053171
-5.693774 7.216568 1.805750 10053171
-6.045424 6.756979 2.375569 10053171
-3.619370 6.980173 0.802477 10053171
-5.212398 7.121205 1.172341 10053171
-5.133192 6.837775 2.496099 10053171
-4.293845 7.178614 0.630011 10053171
-6.979148 7.228570 0.045744 10053171
-4.021186 6.797875 1.117913 10053171
-4.053955 6.792761 1.831176 10053171
-5.408738 6.877246 2.739094 10053171
-3.286828 7.040710 1.532520 10053171
-3.301378 7.220384 -0.006944 10053171
-3.236663 6.844543 1.516655 10053171
-4.608434 6.958604 1.545493 10053171
-4.959649 6.885914 0.158942 10053171
-6.798738 6.830311 1.565299 10053171
-5.560058 6.949039 0.140851 10053171
-6.924168 6.900972 1.431407 10053171
-4.190552 6.753470 1.307444 10053171
-6.381884 6.933749 0.207950 10053171
-3.366372 6.762264 2.828019 10053171
-4.120260 6.797135 1.395676 10053171
-4.731885 6.837136 1.934234 10053171
-6.164121 6.788460 0.136558 10053171
-5.204288 7.125936 1.830692 10053171
-6.256190 7.117818 2.265499 10053171
-5.128583 7.079375 1.399420 10053171
-6.443134 6.947373 1.307153 10053171
-5.471068 7.075452 0.291590 10053171
-4.966879 7.175953 1.799499 10053171
-3.864008 6.999333 1.633585 10053171
-5.420973 7.094284 2.704997 10053171
-5.700987 7.042761 2.989721 10053171
-6.831377 7.132419 0.778925 10053171
-4.901338 7.152500 1.119063 10053171
-6.965564 6.931360 0.272967 10053171
-6.742196 6.987616 1.031691 10053171
-4.321380 6.794401 1.931088 10053171
-3.995628 7.173058 0.059859 10053171
-3.113151 7.045227 1.321550 10053171
-3.849619 7.026110 0.426764 10053171
-3.116565 6.745441 1.716094 10053171
-3.467716 6.866614 0.325379 10053171
-6.617523 7.105257 1.232158 10053171
-4.089095 7.127289 0.748851 10053171
-3.773268 6.994907 2.071702 10053171
-3.803295 7.028376 1.242605 10053171
-4.630943 7.141433 2.668929 10053171
-4.598644 7.210966 2.328238 10053171
-6.239965 7.164630 0.887517 10053171
-3.084039 6.914297 0.021200 10053171
-4.405565 6.767653 0.509070 10053171
-5.202131 7.018183 2.863215 10053171
-5.333172 7.004661 2.491033 10053171
-3.667093 7.234037 1.065777 10053171
-4.850023 6.784705 0.075545 10053171
-4.737624 7.119957 0.912041 10053171
-4.089014 6.875793 1.507571 10053171
-3.551059 6.955601 0.973072 10053171
-6.973147 7.116551 0.894673 10053171
-3.896267 6.944263 1.344551 10053171
-3.605962 6.927181 2.716088 10053171
-5.507471 6.828145 2.600903 10053171
-5.411014 6.778714 2.410771 10053171
-3.039889 6.810153 2.911196 10053171
-6.164099 6.819668 2.037630 10053171
-4.438108 7.131438 0.782662 10053171
-4.547124 7.037148 0.695791 10053171
-3.181272 7.232565 2.722191 10053171
-5.879225 7.218566 2.534156 10053171
-4.218902 6.887908 2.138897 10053171
-3.188419 6.934096 0.509663 10053171
-4.996748 6.824140 1.839847 10053171
-3.727455 6.967304 0.077753 10053171
-4.339818 7.219197 0.543396 10053171
-6.176921 6.892482 1.560881 10053171
-3.877521 7.200344 0.582827 10053171
-5.434890 6.789567 1.452516 10053171
-3.216705 6.812315 2.176156 10053171
-3.459296 6.952614 0.307313 10053171
-3.961632 7.243930 2.060061 10053171
-6.176711 7.192770 0.264985 10053171
-6.580412 6.916407 0.554090 10053171
-4.603437 6.872188 1.232882 10053171
-5.134085 6.794965 0.009002 10053171
-5.470436 6.791633 0.526720 10053171
-3.767414 6.793553 0.412816 10053171
-5.349818 7.219580 0.688933 10053171
-3.182925 7.165784 1.353611 10053171
-4.936111 6.762238 2.562948 10053171
-6.746028 7.142639 1.620113 10053171
-4.827991 6.796767 1.172675 10053171
-4.083758 7.042531 1.638514 10053171
-4.074894 7.031524 1.618294 10053171
-3.503025 6.918374 2.925802 10053171
-4.097052 7.153365 2.885392 10053171
-6.611684 6.910147 1.739498 10053171
-5.179997 7.055690 1.689810 10053171
-5.111522 7.173745 2.141182 10053171
-4.495793 6.844207 0.029594 10053171
-5.346786 6.767798 2.574693 10053171
-5.150429 6.759971 1.342533 10053171
-4.074844 6.887019 0.723679 10053171
-4.380729 7.067454 1.056371 10053171
-5.228769 7.131764 0.709283 10053171
-3.725208 6.785583 1.884279 10053171
-3.665253 7.272116 2.752111 10053171
-3.367892 7.137887 0.993482 10053171
-4.071835 7.221486 2.639132 10053171
-3.101835 7.161038 2.865578 10053171
-3.561055 7.028455 1.666557 10053171
-5.321775 7.113814 0.079055 10053171
-3.930876 6.937479 2.303973 10053171
-6.421772 7.026900 2.536863 10053171
-3.126796 7.104293 2.779892 10053171
-4.853320 7.174640 0.127962 10053171
-5.899766 6.895337 0.149924 10053171
-4.278080 7.039417 0.576851 10053171
-4.648909 7.125869 -0.002913 10053171
-6.608043 7.205934 1.389000 10053171
-6.060128 6.926666 0.105822 10053171
-5.832836 6.774651 2.909713 10053171
-4.489943 7.029013 2.824667 10053171
-5.617135 7.205836 2.548163 10053171
-3.139636 6.954369 0.611919 10053171
-5.794586 6.959476 0.600411 10053171
-4.084382 7.100759 1.555759 10053171
-4.689839 6.767381 1.662290 10053171
-4.961162 7.135266 1.207465 10053171
-4.440567 6.965817 0.519608 10053171
-5.297918 7.250157 0.333251 10053171
-3.859880 6.958868 0.846756 10053171
-4.254822 6.938326 2.669961 10053171
-5.248909 7.114396 1.722920 10053171
-3.037363 6.978868 0.261348 10053171
-5.431270 6.870389 1.047417 10053171
-6.594000 7.076130 2.700559 10053171
-5.102355 6.821276 1.646456 10053171
-3.042450 6.902421 0.775785 10053171
-6.576157 6.998827 1.158710 10053171
-3.079445 6.983764 0.205783 10053171
-6.279337 7.221786 1.894118 10053171
-3.680204 6.908689 1.371763 10053171
-4.181387 7.115809 0.199868 10053171
-3.850391 7.137888 1.796572 10053171
-4.167466 7.002715 1.320271 10053171
-3.098047 6.824085 0.741018 10053171
-5.620996 7.225198 0.132839 10053171
-5.684448 7.018474 2.795801 10053171
-4.787164 6.947382 1.780806 10053171
-5.959888 7.154439 2.040525 10053171
-3.318618 7.099402 0.975698 10053171
-6.496905 6.809933 0.733023 10053171
-6.572296 7.063101 1.928304 10053171
-3.735336 6.863544 0.020145 10053171
-4.636939 7.137077 2.019316 10053171
-5.599079 6.760120 2.661545 10053171
-3.984033 7.096470 0.442620 10053171
-3.910239 6.782528 1.634824 10053171
-5.382544 7.032179 0.788312 10053171
-4.823039 6.850740 1.767028 10053171
-5.762092 6.934960 1.097365 10053171
-6.621957 6.838702 0.184472 10053171
-4.537622 6.975056 1.696927 10053171
-3.714511 7.093320 2.803211 10053171
-5.684333 6.858308 0.068125 10053171
-5.644460 7.045173 0.381466 10053171
-4.247239 6.852821 0.865523 10053171
-5.885499 6.870122 2.059444 10053171
-4.913344 6.840098 2.903448 10053171
-3.179668 7.012068 2.031969 10053171
-3.604766 6.928426 1.089405 10053171
-4.793725 7.139346 2.853602 10053171
-4.518479 7.162871 1.478872 10053171
-3.446605 7.099064 1.063517 10053171
-3.172839 7.163418 0.500868 10053171
-5.428278 7.124637 0.821120 10053171
-6.661764 6.987225 2.560496 10053171
-3.279103 6.908007 2.372825 10053171
-5.844385 7.161667 2.067957 10053171
-4.663391 6.923103 1.449693 10053171
-4.281781 6.815559 2.108423 10053171
-3.013561 6.756608 2.464670 10053171
-3.040167 6.990831 1.070044 10053171
-4.373890 7.202053 0.305832 10053171
-5.497882 7.215970 2.278424 10053171
-5.613966 7.121393 1.116569 10053171
-3.861509 6.910198 1.850832 10053171
-4.677972 7.097162 2.931949 10053171
-4.737687 7.170855 2.690548 10053171
-6.287156 7.041918 1.575186 10053171
-3.112297 7.205584 0.324211 10053171
-4.520176 6.874090 2.821005 10053171
-3.059196 6.924418 1.107093 10053171
-4.446238 7.229814 2.842798 10053171
-5.027619 6.908569 2.687239 10053171
-3.218014 6.988719 0.537778 10053171
-5.983457 6.829497 0.787693 10053171
-4.703188 7.148910 0.318150 10053171
-2.998693 7.064650 0.562757 10053171
-5.450446 6.888784 1.097658 10053171
-3.921942 6.813135 0.615156 10053171
-6.071460 6.989668 2.730364 10053171
-3.317852 6.912512 0.538651 10053171
-5.731597 6.737839 2.837779 10053171
-4.179626 6.850889 0.620619 10053171
-6.603544 6.986800 2.957475 10053171
-6.906075 7.230268 2.510987 10053171
-6.900913 7.215985 0.736313 10053171
-5.276741 7.017581 2.461780 10053171
-5.198481 6.978026 1.275973 10053171
-3.168436 7.140832 1.905263 10053171
-6.396586 6.947159 1.719646 10053171
-4.071964 6.863145 0.120728 10053171
-3.511709 6.881077 0.020070 10053171
-6.120090 6.889527 1.893534 10053171
-3.115324 7.071903 0.779121 10053171
-3.564562 7.020636 2.722679 10053171
-4.260287 7.051438 2.630591 10053171
-3.438541 6.906982 2.412144 10053171
-5.100911 6.872726 2.900038 10053171
-4.438502 7.132859 1.041887 10053171
-6.587694 6.844406 2.026977 10053171
-3.842009 6.891466 2.278250 10053171
-3.547311 7.001074 1.046185 10053171
-4.281250 6.761682 0.890768 10053171
-3.848727 7.012623 1.016222 10053171
-5.342509 6.957789 2.093691 10053171
-3.238339 6.831196 0.495122 10053171
-3.386838 7.243866 0.642554 10053171
-6.356831 6.754588 1.240130 10053171
-5.813626 7.240696 1.587705 10053171
-3.803645 6.885517 0.806700 10053171
-6.559375 6.859890 1.589699 10053171
-4.360589 6.802567 0.958762 10053171
-5.670510 6.906596 0.061640 10053171
-4.412549 7.018193 1.173817 10053171
-4.194946 6.907482 2.111144 10053171
-3.271630 7.183000 1.309370 10053171
-3.737819 7.220618 2.644792 10053171
-5.891956 6.828183 0.063820 10053171
-5.679763 6.791745 1.571581 10053171
-4.933569 6.972588 2.480694 10053171
-6.083844 7.068878 1.105662 10053171
-6.754770 7.233732 2.117392 10053171
-5.472431 6.867731 1.249874 10053171
-6.188380 6.927234 2.886440 10053171
-5.552308 6.782657 2.398601 10053171
-4.520835 7.174565 1.540387 10053171
-5.286237 6.864727 0.630406 10053171
-6.026145 7.237537 1.503098 10053171
-3.532997 6.845952 2.520310 10053171
-5.681157 6.955302 2.283121 10053171
-6.048151 6.968141 1.445056 10053171
-6.575682 6.879816 1.257214 10053171
-6.738398 7.078447 2.618237 10053171
-6.564014 6.873283 1.830992 10053171
-6.081093 6.989690 2.767273 10053171
-4.211288 7.172641 2.764415 10053171
-4.901909 7.074340 2.197882 10053171
-4.878023 7.156940 0.046398 10053171
-4.077703 6.835011 1.583504 10053171
-6.976287 7.230537 0.306567 10053171
-5.483792 7.164055 0.023892 10053171
-3.496482 6.816197 0.737776 10053171
-6.064271 6.791142 0.897669 10053171
-3.537426 6.791549 2.836098 10053171
-3.543037 7.178827 0.902027 10053171
-5.211671 6.838481 2.962334 10053171
-6.936191 6.862459 2.336748 10053171
-4.341167 6.855943 0.569645 10053171
-4.565321 6.859992 0.864608 10053171
-3.485248 6.832117 0.308451 10053171
-6.426351 6.982754 1.147102 10053171
-5.286171 7.221370 1.654127 10053171
-4.213886 7.169837 1.709947 10053171
-5.743390 7.131807 0.945980 10053171
-4.651761 6.940446 2.937535 10053171
-5.842292 7.015282 1.027426 10053171
-5.193161 7.128607 0.285878 10053171
-4.821128 6.863038 2.717521 10053171
-3.326431 6.980802 0.799066 10053171
-3.893920 7.011817 1.802717 10053171
-5.796559 7.019742 1.299532 10053171
-3.327665 6.963837 1.655810 10053171
-2.984769 7.234969 0.811913 10053171
-3.196620 7.217216 2.796906 10053171
-3.181642 7.197563 2.298276 10053171
-6.057801 6.924634 2.254406 10053171
-6.831161 7.041470 2.047137 10053171
-4.077398 6.792739 1.169555 10053171
-3.197002 7.210710 1.675721 10053171
-6.934749 7.173716 1.474515 10053171
-4.300849 6.878318 1.113007 10053171
-5.295732 7.031396 0.090208 10053171
-6.794559 7.160735 2.864130 10053171
-4.207607 6.820806 2.421347 10053171
-3.467433 7.033923 2.658534 10053171
-3.078108 6.779858 1.143158 10053171
-3.486563 7.219165 0.573699 10053171
-3.464887 6.935660 2.310626 10053171
-4.103467 7.070465 2.717468 10053171
-3.744987 7.053498 2.886246 10053171
-5.743537 6.934485 0.479312 10053171
-4.741565 7.116654 1.549554 10053171
5.884579 -5.987376 1.158186 8342706
6.109080 -5.720732 1.804740 8342706
5.452039 -6.070275 3.634459 8342706
6.185935 -6.473530 0.565095 8342706
5.454514 -6.208158 3.042541 8342706
6.172540 -6.454738 4.065979 8342706
6.355308 -6.043990 4.906474 8342706
6.218345 -5.639885 0.313135 8342706
5.997022 -6.168743 4.012489 8342706
6.198976 -5.978232 0.497741 8342706
5.591321 -5.667788 2.007953 8342706
6.183115 -6.431959 3.309752 8342706
6.526074 -5.785073 4.834540 8342706
6.038877 -5.630167 2.407190 8342706
6.469737 -5.961113 1.318854 8342706
6.075770 -6.222760 2.934932 8342706
6.526645 -5.883261 0.287303 8342706
6.358678 -6.431122 2.966684 8342706
6.288724 -5.530482 2.222690 8342706
6.455013 -6.366277 2.663420 8342706
6.219320 -6.096191 2.965435 8342706
6.265687 -5.593444 2.053707 8342706
5.613854 -6.295293 3.512729 8342706
5.807036 -5.562157 0.206496 8342706
5.641934 -5.785100 0.530064 8342706
6.513090 -5.793269 1.399443 8342706
6.042454 -5.419741 0.751202 8342706
6.224396 -6.328192 1.484838 8342706
6.443283 -6.134675 1.597997 8342706
6.537047 -6.040201 3.476827 8342706
5.605154 -6.186358 3.390821 8342706
5.834685 -6.190957 4.695190 8342706
5.788225 -5.527034 2.052243 8342706
6.320627 -5.793549 2.893309 8342706
6.234297 -5.939131 3.557412 8342706
5.447856 -6.113859 0.544433 8342706
6.394804 -5.826284 1.983068 8342706
5.905433 -5.782741 1.718742 8342706
5.749465 -5.845956 3.162263 8342706
5.648177 -6.160903 1.869472 8342706
5.810898 -5.524085 0.776780 8342706
6.476369 -6.071804 0.382506 8342706
5.974382 -6.118948 4.288165 8342706
5.601410 -6.197387 4.556866 8342706
5.737655 -5.754681 4.174113 8342706
5.739218 -5.947958 3.118448 8342706
6.028372 -5.963061 1.449359 8342706
6.423916 -6.279642 2.010741 8342706
5.662445 -5.733191 3.090185 8342706
6.296432 -6.101933 3.906090 8342706
5.409963 -5.989279 4.595608 8342706
5.949159 -5.466183 4.503191 8342706
5.509237 -5.952310 3.219593 8342706
6.426338 -5.950764 1.947526 8342706
6.172195 -6.484341 4.297814 8342706
6.386642 -5.889469 1.210199 8342706
5.412478 -5.969038 2.360438 8342706
5.516411 -5.757097 4.320271 8342706
6.453279 -5.984440 2.998738 8342706
6.113985 -5.668696 4.844550 8342706
6.268470 -5.874087 2.118988 8342706
5.800174 -5.472859 2.083944 8342706
5.870502 -6.337038 3.530942 8342706
5.992570 -5.523289 3.500419 8342706
5.780361 -6.045484 4.517816 8342706
5.846603 -6.081725 1.749028 8342706
6.165840 -5.722571 1.990910 8342706
6.147953 -6.273995 1.962797 8342706
5.780093 -6.242934 1.521411 8342706
5.583207 -6.239733 1.049305 8342706
5.840358 -6.376352 1.247181 8342706
5.976334 -5.957417 3.025535 8342706
6.063095 -6.122084 4.752121 8342706
5.790559 -5.808897 0.602733 8342706
5.738712 -6.072740 2.482976 8342706
5.944049 -5.983960 3.164696 8342706
5.467223 -6.190374 1.927088 8342706
6.087881 -5.594461 0.146445 8342706
6.455118 -5.949402 1.229123 8342706
6.558239 -6.072877 3.864461 8342706
6.029301 -6.205556 3.300912 8342706
5.582047 -5.665136 1.951445 8342706
6.101902 -6.288856 4.453177 8342706
6.101031 -5.594840 4.624546 8342706
6.437868 -5.669568 0.230836 8342706
5.961201 -6.162906 2.701452 8342706
6.221085 -5.990336 2.415653 8342706
5.500064 -6.166911 3.659315 8342706
6.054915 -6.309138 2.015547 8342706
5.890535 -6.341835 1.017380 8342706
6.189019 -6.417340 4.408983 8342706
5.556315 -5.932266 3.860815 8342706
5.696009 -6.374955 2.504188 8342706
6.123022 -6.494067 1.399585 8342706
5.861699 -5.891677 4.536093 8342706
5.601422 -5.769866 2.353763 8342706
6.456332 -5.834807 2.623773 8342706
6.098547 -6.417029 0.587426 8342706
5.566261 -6.163643 1.861674 8342706
6.297919 -6.029640 1.905966 8342706
6.567780 -6.072472 3.644228 8342706
5.653699 -6.390993 0.603561 8342706
5.684251 -6.459711 0.759357 8342706
6.237587 -6.018199 2.590805 8342706
5.627371 -6.013847 3.303347 8342706
5.762130 -5.605354 4.710815 8342706
5.763139 -6.240352 4.023982 8342706
5.668122 -5.835834 1.230894 8342706
6.426054 -5.967969 4.438034 8342706
5.829053 -5.607786 3.512139 8342706
6.013245 -5.806190 0.927328 8342706
6.158595 -6.335362 1.754846 8342706
6.168777 -5.800430 1.597429 8342706
5.947970 -5.762272 4.101532 8342706
6.039644 -6.203660 4.571491 8342706
5.778345 -6.141605 0.229706 8342706
5.895690 -5.646209 1.664025 8342706
6.195456 -5.615443 3.852583 8342706
5.703214 -6.001908 3.113259 8342706
5.796151 -6.187653 2.599331 8342706
5.682301 -5.866781 2.896805 8342706
5.598443 -6.235410 3.712277 8342706
5.913940 -6.575967 1.067768 8342706
6.119309 -5.815579 1.670157 8342706
6.305426 -6.318769 0.547267 8342706
6.347583 -5.692914 2.301648 8342706
6.144445 -5.567650 3.060779 8342706
5.681246 -5.688214 1.195410 8342706
6.005316 -5.715655 3.698848 8342706
6.197527 -6.027117 4.393689 8342706
6.498101 -6.101501 2.687730 8342706
6.347552 -6.153869 3.351341 8342706
5.664882 -6.288707 4.711025 8342706
6.264974 -5.537433 4.638148 8342706
6.006793 -6.212684 3.547219 8342706
5.760675 -5.650287 2.595270 8342706
6.087543 -6.568003 4.494769 8342706
5.538877 -5.765247 4.246658 8342706
5.531751 -6.131868 2.897132 8342706
6.089076 -5.634927 2.488484 8342706
5.673398 -5.893902 4.044312 8342706
5.880116 -5.438462 3.054450 8342706
6.494925 -5.822190 0.125850 8342706
6.059803 -5.433011 0.407021 8342706
6.374844 -5.729331 0.050621 8342706
6.049397 -5.778334 0.499160 8342706
5.658072 -5.728563 3.086353 8342706
6.340828 -6.232637 1.536863 8342706
6.125700 -5.817720 2.468437 8342706
5.780636 -6.157424 1.616707 8342706
5.991995 -6.193228 0.122748 8342706
5.856758 -6.036576 3.748488 8342706
5.722569 -6.162413 3.386675 8342706
6.296350 -6.247107 4.588846 8342706
6.314857 -6.466256 3.368383 8342706
6.005858 -6.562047 4.183975 8342706
6.005674 -5.663627 4.211604 8342706
5.706920 -5.626367 4.218012 8342706
6.197869 -5.872179 1.883340 8342706
5.514808 -6.217371 4.647589 8342706
5.908445 -6.325451 4.700590 8342706
6.055614 -6.442025 1.310930 8342706
6.111579 -5.641661 2.046558 8342706
5.940972 -6.184298 1.711870 8342706
6.036370 -6.023900 4.539151 8342706
6.087567 -5.635456 1.159301 8342706
6.131728 -6.312007 1.575013 8342706
5.743012 -5.751584 0.122889 8342706
6.345207 -6.167419 3.049394 8342706
6.110177 -5.583711 2.641772 8342706
6.256618 -5.865422 1.006138 8342706
5.612732 -6.082266 1.895820 8342706
5.709760 -5.687169 2.257790 8342706
5.797323 -5.653791 2.607966 8342706
5.518968 -5.940931 3.581382 8342706
6.043610 -5.835310 1.865068 8342706
5.716506 -5.891659 1.461602 8342706
5.737494 -6.247372 2.823229 8342706
5.993889 -6.317690 4.900107 8342706
5.992380 -6.435087 4.827936 8342706
6.090245 -5.594844 3.829095 8342706
5.624897 -5.568153 2.018215 8342706
6.543139 -6.023765 4.259816 8342706
5.655437 -5.585903 1.934390 8342706
6.100880 -6.448773 1.681463 8342706
5.615842 -6.234745 1.866930 8342706
6.322433 -5.900811 3.506490 8342706
6.488654 -5.825393 3.834636 8342706
6.443047 -6.093193 3.874821 8342706
6.128663 -5.832048 3.347940 8342706
6.134108 -6.382330 1.016699 8342706
5.657594 -6.145611 3.341683 8342706
6.500444 -6.308539 0.118290 8342706
6.394488 -6.098579 4.913020 8342706
5.432548 -5.918903 3.777183 8342706
6.480857 -6.018635 0.227632 8342706
6.254239 -5.644755 3.731363 8342706
6.100793 -6.007695 2.491789 8342706
6.255564 -5.973727 0.690880 8342706
6.427367 -5.971787 2.425205 8342706
6.090011 -6.506320 2.781776 8342706
6.387727 -6.087988 1.369897 8342706
6.207771 -5.639888 1.085360 8342706
6.247239 -5.583412 4.325152 8342706
6.165215 -6.449221 0.709600 8342706
5.642554 -6.056933 3.177656 8342706
6.530300 -5.792924 1.100001 8342706
6.166492 -5.791934 2.589128 8342706
5.991567 -6.069640 2.542123 8342706
6.371777 -5.677029 1.803894 8342706
5.970807 -6.109797 3.851821 8342706
6.501840 -6.015749 1.579421 8342706
5.503065 -6.274156 0.733480 8342706
5.817183 -6.369363 4.988801 8342706
6.474884 -5.762669 3.979974 8342706
6.245657 -6.018790 0.132347 8342706
6.263397 -5.837748 3.581534 8342706
6.482395 -6.056347 4.583851 8342706
5.919152 -6.050957 3.145292 8342706
6.398611 -6.270126 1.766920 8342706
6.023529 -5.427044 1.975650 8342706
5.427887 -5.982527 4.263348 8342706
6.091905 -6.063516 2.966470 8342706
6.267081 -5.936287 3.255439 8342706
5.632289 -6.187728 3.373357 8342706
6.139391 -6.367656 4.432458 8342706
6.093780 -5.519064 4.127524 8342706
5.938541 -5.854307 2.911778 8342706
5.432872 -6.123083 2.072563 8342706
6.310622 -6.430365 4.870814 8342706
5.628432 -6.383011 2.939116 8342706
6.313997 -6.342084 2.373842 8342706
6.451703 -5.817175 1.065873 8342706
6.446332 -5.874402 2.260625 8342706
5.997205 -5.519971 2.082838 8342706
6.221986 -5.740504 0.462853 8342706
5.873659 -6.286174 1.556324 8342706
6.391373 -5.765390 2.433636 8342706
6.353431 -5.542756 4.085458 8342706
6.468069 -6.183795 1.487347 8342706
6.159981 -5.808968 3.251073 8342706
5.719810 -6.400811 3.097840 8342706
6.275460 -5.553437 4.457303 8342706
6.037801 -5.884859 0.769302 8342706
5.592317 -6.371052 4.411266 8342706
5.596227 -5.745623 4.254203 8342706
6.197585 -5.848950 1.379154 8342706
5.730586 -5.810470 1.050317 8342706
5.870700 -6.116965 0.633164 8342706
6.180594 -5.451939 1.206656 8342706
6.291267 -5.541786 1.171401 8342706
5.642847 -6.242568 4.262519 8342706
5.933565 -6.060803 4.916446 8342706
6.220859 -5.576818 3.766508 8342706
5.660794 -6.053594 4.286125 8342706
6.085352 -6.577741 4.282558 8342706
5.701500 -5.723352 3.966258 8342706
5.545393 -6.091063 3.754524 8342706
6.219003 -6.438515 1.037923 8342706
6.564172 -5.956062 0.502070 8342706
5.982878 -5.521667 2.916790 8342706
6.208949 -6.399243 1.667839 8342706
5.498807 -6.240282 3.930791 8342706
5.607194 -6.455308 2.817024 8342706
5.776233 -5.496980 2.259416 8342706
6.536723 -6.248991 2.081448 8342706
6.052845 -6.369275 0.549892 8342706
5.432021 -5.872002 2.586513 8342706
5.840372 -5.652675 2.544531 8342706
6.303974 -6.098301 0.225591 8342706
6.048876 -5.599104 4.355023 8342706
6.514738 -6.290841 4.423435 8342706
5.819524 -6.394007 4.409587 8342706
5.466790 -5.760530 4.328749 8342706
5.960419 -5.471444 1.518242 8342706
6.527156 -6.217696 4.024935 8342706
6.386540 -6.174220 1.440117 8342706
5.816103 -6.165987 3.735436 8342706
6.104728 -6.338085 1.944106 8342706
5.549687 -5.627760 3.397211 8342706
5.780562 -6.454872 3.546978 8342706
5.495557 -5.692580 3.909833 8342706
6.153889 -5.563827 0.053117 8342706
6.335128 -5.953854 2.639044 8342706
6.374475 -6.093142 1.740802 8342706
5.786012 -5.781066 3.222666 8342706
6.020760 -5.805974 3.183739 8342706
6.318159 -6.048492 2.031990 8342706
6.353133 -5.806810 2.214456 8342706
6.058702 -5.791914 0.104003 8342706
5.819936 -6.073440 0.090121 8342706
6.217227 -6.466682 0.868268 8342706
6.332854 -6.470101 0.750701 8342706
6.139071 -6.370522 4.230693 8342706
5.865896 -6.502142 1.820463 8342706
5.619191 -5.905023 0.985566 8342706
5.768663 -5.671307 2.702416 8342706
6.203833 -5.732051 0.400534 8342706
6.077441 -5.427365 2.087198 8342706
6.007726 -6.480608 1.066377 8342706
6.239937 -5.563740 1.285607 8342706
6.458526 -5.673493 3.590319 8342706
6.487748 -6.254768 0.330125 8342706
5.757172 -5.914857 4.011077 8342706
6.195134 -6.118101 1.743690 8342706
6.116084 -6.225482 3.242167 8342706
5.610538 -6.263391 3.705109 8342706
6.534059 -6.154087 1.844423 8342706
6.247203 -6.235172 1.693234 8342706
5.551112 -5.796189 2.478099 8342706
6.395647 -6.401805 2.037415 8342706
6.114035 -6.205127 3.573558 8342706
6.151140 -6.557503 4.274245 8342706
6.436957 -6.379116 3.699392 8342706
6.125858 -5.549816 2.020282 8342706
6.093893 -5.447312 0.890756 8342706
6.129324 -6.433654 1.157394 8342706
5.670691 -6.059734 0.127292 8342706
5.834734 -5.600670 2.620876 8342706
5.795047 -6.377450 2.634281 8342706
6.097681 -5.474042 3.471411 8342706
5.750782 -6.285333 3.354571 8342706
6.325449 -6.333482 1.093295 8342706
5.809980 -6.530901 4.753333 8342706
6.232741 -5.658041 4.884142 8342706
6.008163 -6.488617 1.887608 8342706
5.680943 -5.791927 0.302153 8342706
6.315801 -5.526406 4.280199 8342706
5.574138 -5.843276 4.374174 8342706
6.230912 -5.592886 0.504537 8342706
6.275115 -6.356513 4.009750 8342706
6.175533 -6.542812 0.562717 8342706
6.180412 -5.859181 1.039759 8342706
6.422621 -6.157996 2.759394 8342706
6.029430 -6.381694 3.747523 8342706
5.984637 -5.546646 2.038348 8342706
6.447365 -6.205729 3.301739 8342706
6.114201 -5.467647 0.244503 8342706
5.487132 -5.696614 4.395113 8342706
6.173332 -6.341691 1.679659 8342706
6.415405 -5.594206 1.833603 8342706
5.890244 -6.119675 0.917017 8342706
6.357054 -5.615155 3.689794 8342706
5.636542 -6.137388 3.742480 8342706
6.508144 -5.895640 1.177019 8342706
5.739836 -6.016300 2.432298 8342706
6.262867 -6.341595 2.993517 8342706
5.722260 -6.371745 4.092519 8342706
6.046960 -6.277114 3.886652 8342706
6.399302 -5.563587 4.934249 8342706
6.517745 -6.242324 4.653656 8342706
6.020740 -5.934615 3.870738 8342706
6.178294 -6.386049 4.326153 8342706
5.740466 -6.220183 1.995345 8342706
6.440126 -5.873479 2.121117 8342706
6.452538 -5.975995 2.190497 8342706
5.863606 -5.443634 1.060717 8342706
6.483485 -5.794074 0.276091 8342706
5.849036 -5.464193 1.380472 8342706
6.232522 -5.705766 4.853468 8342706
5.962775 -5.642159 1.238581 8342706
6.488985 -5.815756 2.267023 8342706
5.789608 -6.219605 3.691682 8342706
6.279439 -6.179411 1.504513 8342706
5.984452 -6.397894 3.970795 8342706
6.007982 -5.830498 2.286184 8342706
6.164608 -6.047858 4.115095 8342706
6.161304 -6.416353 4.369486 8342706
6.293030 -5.593739 4.773178 8342706
6.353793 -5.835718 3.626841 8342706
6.002310 -5.796985 3.162632 8342706
6.535726 -5.879339 3.049304 8342706
6.280326 -5.861584 2.837056 8342706
6.293593 -6.315770 2.008157 8342706
5.758877 -5.692277 3.615063 8342706
5.708558 -5.720440 3.077275 8342706
6.262487 -5.993516 1.443324 8342706
6.370829 -6.232558 1.101109 8342706
5.823449 -5.588093 2.959386 8342706
5.524864 -5.877232 0.114902 8342706
5.631080 -5.658560 0.458303 8342706
5.613469 -5.568129 2.867691 8342706
6.008432 -5.511188 2.120283 8342706
5.548050 -6.116628 1.878800 8342706
6.129261 -5.499681 3.477732 8342706
5.429450 -5.928817 4.589863 8342706
5.450189 -5.802460 2.927944 8342706
6.175625 -6.305786 1.853595 8342706
5.570718 -6.380805 0.855141 8342706
5.901767 -6.501169 1.626770 8342706
6.080735 -6.358937 3.423995 8342706
5.979098 -6.501047 4.610913 8342706
6.344844 -6.175113 0.799480 8342706
6.505502 -6.332077 1.452368 8342706
6.558667 -5.903114 3.410572 8342706
5.587967 -6.094915 1.103357 8342706
6.285614 -6.294160 1.940133 8342706
6.171473 -6.305428 2.939762 8342706
6.065591 -6.522918 4.967380 8342706
5.989277 -6.451092 0.617069 8342706
6.286801 -5.768365 1.743199 8342706
6.386645 -5.932777 1.310124 8342706
6.222686 -6.392657 0.492919 8342706
6.293641 -6.123238 2.894738 8342706
6.490926 -6.145680 0.094553 8342706
6.080512 -5.663946 1.236351 8342706
6.503230 -6.259772 4.306441 8342706
6.467368 -5.646629 4.812006 8342706
6.501961 -6.165993 3.639980 8342706
6.328055 -6.348549 1.594236 8342706
5.743781 -6.288793 0.455592 8342706
6.157196 -5.605336 2.712866 8342706
6.224978 -6.022922 3.872288 8342706
6.324123 -5.853699 0.390580 8342706
6.186818 -5.860989 3.946324 8342706
5.787360 -6.426401 3.284285 8342706
6.398298 -6.191613 0.002102 8342706
6.360779 -5.772999 1.374316 8342706
6.284869 -6.024117 4.224473 8342706
6.348312 -6.087275 2.056450 8342706
5.744777 -5.577157 4.387360 8342706
5.827133 -6.029816 0.851543 8342706
6.059274 -5.738422 4.188901 8342706
5.512814 -5.716861 3.988462 8342706
6.470953 -6.122177 1.765838 8342706
6.286039 -6.439502 1.713786 8342706
6.265894 -6.219595 4.626124 8342706
5.532868 -6.321333 1.237638 8342706
6.018345 -6.232030 3.453991 8342706
6.234292 -5.558803 3.780104 8342706
6.037147 -6.575019 3.684206 8342706
5.941736 -6.028059 1.739710 8342706
5.794477 -5.621569 2.740103 8342706
6.174736 -6.314796 0.933646 8342706
6.178299 -5.975128 3.890891 8342706
6.110625 -6.283585 1.980853 8342706
5.750945 -6.169282 1.058546 8342706
6.569863 -6.013007 1.739354 8342706
5.737504 -6.115665 4.317397 8342706
6.471082 -5.771695 1.036819 8342706
5.566681 -5.871458 0.777182 8342706
6.309129 -6.016925 5.004253 8342706
6.185932 -6.566665 4.106755 8342706
6.094302 -6.417543 4.699502 8342706
6.004048 -5.819306 1.395994 8342706
6.531034 -6.173501 5.003622 8342706
6.158998 -6.091275 1.666898 8342706
5.839330 -5.971509 2.076682 8342706
5.733946 -5.951773 3.037227 8342706
6.496687 -6.249466 4.111356 8342706
5.477866 -5.872737 3.585054 8342706
6.167183 -6.090584 0.974961 8342706
5.881900 -6.249887 1.911978 8342706
5.965500 -5.657492 2.401041 8342706
6.309695 -6.269190 0.085786 8342706
5.823517 -5.583519 4.542186 8342706
5.986961 -5.475096 4.062789 8342706
5.771043 -5.436512 3.542293 8342706
6.399171 -6.338035 1.561591 8342706
5.503460 -6.015202 4.723230 8342706
6.075917 -6.530048 0.106955 8342706
6.530217 -5.942403 1.501782 8342706
6.373470 -5.552398 3.363519 8342706
5.783386 -5.873922 0.820718 8342706
6.014658 -5.999008 0.873598 8342706
5.626210 -5.923312 2.215799 8342706
5.720731 -5.618539 2.280268 8342706
5.792734 -6.103161 3.513021 8342706
6.327767 -5.509492 1.129298 8342706
5.644501 -5.781272 4.834187 8342706
5.868827 -5.800226 0.087902 8342706
5.624810 -6.470537 2.450932 8342706
5.896306 -6.452274 3.635855 8342706
6.010322 -6.595427 0.576959 8342706
6.047776 -5.707870 1.750189 8342706
6.078815 -5.917863 1.787473 8342706
6.163446 -5.764557 4.158559 8342706
5.493774 -6.251990 4.964444 8342706
6.555791 -5.847184 2.133166 8342706
6.235277 -6.443746 3.880413 8342706
6.249658 -5.695947 2.530339 8342706
6.227889 -6.365833 2.409136 8342706
6.083549 -5.642410 4.493268 8342706
5.633452 -6.289591 3.478294 8342706
5.984326 -6.433976 2.715656 8342706
6.575454 -6.087696 0.464101 8342706
5.715651 -5.640147 4.806367 8342706
6.286327 -5.783082 0.284859 8342706
5.942978 -5.737688 4.682993 8342706
6.064910 -5.536230 2.412460 8342706
6.348611 -5.926794 1.863670 8342706
5.850745 -6.329322 3.425729 8342706
6.090741 -5.716124 4.218899 8342706
6.465925 -5.837933 0.467145 8342706
6.393407 -5.771971 4.613242 8342706
6.248497 -6.055384 2.768676 8342706
6.328367 -6.240325 0.719192 8342706
5.450287 -6.016586 2.402028 8342706
5.703821 -5.935317 4.309051 8342706
6.275380 -5.903914 4.802702 8342706
6.297163 -5.576125 1.368184 8342706
5.812294 -6.252575 4.045722 8342706
6.446847 -5.686810 4.601305 8342706
5.869421 -5.505424 4.367769 8342706
5.666070 -5.849192 0.484472 8342706
6.415024 -5.832342 3.500223 8342706
6.370011 -5.753745 0.636313 8342706
5.686544 -6.073212 0.736308 8342706
