# .PCD v0.7 - Point Cloud Data file format
VERSION 0.7
FIELDS x y z rgb
SIZE 4 4 4 4
TYPE F F F U
COUNT 1 1 1 1
WIDTH 1311
HEIGHT 1
VIEWPOINT 0 0 0 1 0 0 0
POINTS 1311
DATA ascii
5.604833 -5.279702 0.917997 1645029
6.029252 -5.281781 1.059748 1645029
5.948914 -5.427431 1.110036 1645029
5.483407 -5.480248 0.846002 1645029
5.355179 -5.268912 0.639500 1645029
5.488102 -5.284464 1.335046 1645029
5.510704 -5.310189 0.864449 1645029
6.049078 -5.603524 0.940918 1645029
5.664386 -5.289382 1.054416 1645029
5.735956 -4.902042 1.075082 1645029
5.226112 -5.612460 1.058609 1645029
5.726454 -5.260325 1.153744 1645029
5.468008 -5.640925 1.084122 1645029
5.508917 -5.461866 0.498503 1645029
5.302553 -5.354781 0.874297 1645029
5.915043 -5.466661 1.132357 1645029
5.694777 -5.380575 1.235688 1645029
5.535589 -5.176118 0.688744 1645029
5.821166 -5.193316 0.681676 1645029
5.811819 -4.952514 0.989801 1645029
5.776133 -5.299550 0.892284 1645029
5.588071 -5.326953 0.673084 1645029
5.976285 -5.617984 0.816603 1645029
5.577043 -5.759855 0.961243 1645029
6.050756 -5.374307 0.974463 1645029
5.643909 -5.495859 0.847177 1645029
5.559054 -5.610941 1.340272 1645029
5.598045 -5.191507 0.511845 1645029
6.131739 -5.339149 1.267085 1645029
5.379003 -4.992910 0.722077 1645029
5.387418 -5.124463 0.654825 1645029
5.802906 -5.787677 0.894754 1645029
5.422194 -5.484248 0.867656 1645029
5.700298 -5.755505 0.922558 1645029
5.835980 -5.409000 0.974520 1645029
5.393037 -5.450648 1.006893 1645029
5.544978 -5.073534 0.898987 1645029
5.545407 -4.853376 0.945488 1645029
5.480751 -5.400511 1.421473 1645029
5.561113 -5.445658 1.149465 1645029
5.789840 -5.169475 1.244974 1645029
6.031939 -5.192082 1.139174 1645029
6.144434 -5.233986 1.015804 1645029
5.370389 -5.664228 1.231248 1645029
5.943410 -5.003144 1.042318 1645029
6.069228 -5.343390 1.035162 1645029
5.440670 -5.115744 0.564140 1645029
5.565248 -5.022583 1.237160 1645029
5.714583 -4.917256 1.074783 1645029
5.837352 -5.141093 0.879760 1645029
5.687858 -5.137506 0.551144 1645029
5.981512 -5.330978 1.023432 1645029
6.018524 -5.102078 1.234176 1645029
3.568456 -8.492116 0.601814 1690649
3.275843 -8.943861 0.782411 1690649
3.490501 -8.885087 0.711005 1690649
2.886942 -8.989899 1.320142 1690649
3.595612 -8.770569 0.498920 1690649
3.295524 -8.705209 0.600925 1690649
3.535167 -8.789907 1.008028 1690649
3.265154 -8.877730 1.085694 1690649
3.757660 -8.870830 1.309281 1690649
3.115407 -8.842484 0.942928 1690649
3.727963 -8.729318 0.503138 1690649
3.420831 -8.949968 1.762593 1690649
3.315014 -9.187465 0.183431 1690649
3.032080 -8.608853 1.066479 1690649
3.437362 -8.502234 1.037549 1690649
3.549564 -9.156700 1.158255 1690649
3.748715 -8.942734 1.003485 1690649
3.178151 -8.991318 0.569478 1690649
3.508823 -8.699573 1.398688 1690649
3.428429 -8.873469 1.125135 1690649
3.418678 -8.451853 1.738805 1690649
3.431180 -9.209340 1.158598 1690649
2.941443 -8.994979 0.884181 1690649
2.914338 -8.969734 0.881315 1690649
3.080983 -8.437970 1.531555 1690649
3.484826 -8.913422 1.848891 1690649
2.985773 -8.924630 1.395523 1690649
3.506231 -8.504022 1.824932 1690649
3.331239 -9.121770 0.640710 1690649
3.585265 -8.563060 1.230955 1690649
3.158120 -8.496594 1.433758 1690649
3.174852 -8.687248 1.603412 1690649
3.707758 -9.005383 0.985822 1690649
3.152969 -8.719428 0.772636 1690649
3.353546 -8.929323 1.066064 1690649
3.616707 -8.449270 1.091544 1690649
2.909997 -8.785104 0.533307 1690649
3.413801 -8.604003 0.616372 1690649
3.007702 -8.934366 1.291799 1690649
3.380761 -8.543946 1.865944 1690649
3.486967 -8.671665 1.069397 1690649
3.210862 -9.124793 0.353655 1690649
3.462925 -8.671798 1.878412 1690649
3.325675 -9.096128 1.000029 1690649
3.060325 -8.487869 1.889039 1690649
3.544131 -8.979120 1.132850 1690649
3.362733 -9.114252 1.425164 1690649
3.292489 -8.644735 1.012979 1690649
3.170708 -8.405079 1.049238 1690649
3.302129 -8.456094 1.381721 1690649
3.146429 -8.677897 1.213282 1690649
3.496466 -8.367023 0.426544 1690649
3.719604 -8.683315 1.498753 1690649
3.124093 -8.591383 1.039031 1690649
2.939895 -8.973554 1.825945 1690649
3.283104 -9.155923 1.705980 1690649
3.150755 -8.902192 0.822367 1690649
3.163049 -8.652726 0.576111 1690649
3.658225 -9.067101 0.929188 1690649
3.320853 -8.837152 1.477022 1690649
2.987981 -8.828454 0.941957 1690649
3.479081 -8.799549 0.115927 1690649
3.127169 -8.662218 0.180587 1690649
3.373258 -9.197728 0.187567 1690649
3.309863 -8.560726 1.000281 1690649
3.453812 -9.012535 1.727831 1690649
3.162956 -9.085928 1.666651 1690649
3.372243 -9.251492 1.794107 1690649
3.122162 -8.657008 0.218951 1690649
3.032662 -8.958097 0.334599 1690649
3.137582 -8.694343 1.349859 1690649
3.461571 -8.937751 0.656428 1690649
3.173996 -9.063622 1.633613 1690649
3.695276 -8.834760 1.117892 1690649
3.478685 -8.825930 0.111012 1690649
3.312359 -8.457427 1.212947 1690649
3.365207 -8.639912 0.211277 1690649
3.341673 -9.141395 1.104120 1690649
3.638963 -8.829465 0.729565 1690649
3.514918 -8.540106 1.182381 1690649
3.247107 -8.415546 0.237840 1690649
3.293274 -9.006976 0.448003 1690649
3.401920 -8.647351 0.926057 1690649
3.189935 -8.758888 1.776457 1690649
2.990175 -8.718340 0.695219 1690649
3.428397 -9.151499 0.204010 1690649
3.313998 -9.169294 1.471539 1690649
3.158007 -9.084665 0.149567 1690649
3.561584 -8.623980 1.503911 1690649
3.641051 -9.002137 1.260037 1690649
3.360556 -8.518246 1.692405 1690649
3.285583 -8.477342 1.108830 1690649
3.552039 -8.497858 0.752068 1690649
3.127959 -8.909781 0.181306 1690649
3.105451 -8.488227 1.264699 1690649
3.629039 -9.092378 0.578642 1690649
3.139024 -8.676255 1.657478 1690649
3.247483 -8.767234 1.884824 1690649
3.602367 -8.628014 0.497372 1690649
3.201459 -9.023201 1.630838 1690649
2.992701 -9.007232 0.973130 1690649
3.230176 -8.491585 1.743938 1690649
3.195205 -9.057605 1.471938 1690649
3.021638 -8.573837 0.627756 1690649
3.096552 -8.611453 0.135801 1690649
3.024407 -9.123075 1.152819 1690649
3.129656 -8.587329 0.608051 1690649
3.126829 -8.577187 1.059454 1690649
3.006579 -9.007734 0.783369 1690649
3.130110 -8.940573 1.254473 1690649
3.657798 -9.077107 0.124888 1690649
3.328834 -8.379072 1.888316 1690649
3.721052 -8.702598 0.955808 1690649
3.537003 -9.192412 1.832098 1690649
3.713824 -8.721588 1.462203 1690649
3.471875 -9.061319 1.063720 1690649
3.587454 -8.632813 1.372432 1690649
3.349533 -9.135162 1.139838 1690649
3.265697 -8.479253 0.757757 1690649
3.409815 -9.190343 0.164873 1690649
2.949326 -8.848143 0.949408 1690649
3.046011 -8.533680 0.310452 1690649
3.612897 -8.679491 1.309564 1690649
3.557604 -9.108119 0.114486 1690649
3.102953 -8.800696 1.070744 1690649
3.386560 -9.014212 0.245515 1690649
2.968404 -8.861252 0.966074 1690649
3.331774 -9.101018 0.462123 1690649
3.710128 -8.622511 0.693901 1690649
3.030043 -8.709980 1.872552 1690649
3.210011 -8.675427 0.224050 1690649
3.435924 -8.813573 0.456978 1690649
3.642067 -9.113693 0.896208 1690649
2.907587 -8.634650 1.400556 1690649
3.091308 -8.720376 1.521562 1690649
3.139469 -8.786746 0.328073 1690649
3.507634 -9.081157 1.457093 1690649
3.259335 -8.853258 0.490803 1690649
3.547652 -8.944580 1.338469 1690649
3.464571 -8.602638 0.179966 1690649
2.945963 -8.837370 0.646425 1690649
3.725291 -8.902875 0.761148 1690649
3.632515 -8.687866 1.281538 1690649
3.207583 -8.745620 0.898224 1690649
3.028103 -8.830381 0.620854 1690649
3.756587 -8.655607 1.202499 1690649
3.391999 -8.929715 1.294822 1690649
3.162802 -8.718004 1.672256 1690649
3.340154 -8.408935 1.212876 1690649
3.746232 -8.779774 1.267769 1690649
3.544016 -9.000891 0.524424 1690649
3.100143 -8.802725 0.996821 1690649
3.429113 -8.804221 1.228909 1690649
3.520665 -8.903159 0.698785 1690649
-4.347876 7.181063 0.455286 10053171
-5.978817 7.097181 0.426960 10053171
-4.426433 6.981140 2.378708 10053171
-5.167392 7.140409 2.870136 10053171
-3.824244 7.017363 0.286765 10053171
-6.671842 6.742705 2.486241 10053171
-4.111397 7.166474 2.558633 10053171
-3.159247 6.954299 1.346204 10053171
-4.403036 6.986855 0.502161 10053171
-3.496863 7.200180 2.574088 10053171
-3.661429 7.200303 2.483882 10053171
-3.262954 6.968068 0.831923 10053171
-3.995170 7.058556 0.164048 10053171
-4.970134 6.816058 1.148672 10053171
-6.834552 6.989929 0.191591 10053171
-4.626199 7.108745 2.194959 10053171
-6.428464 6.972516 1.218273 10053171
-4.652072 6.948468 0.454459 10053171
-6.891807 6.760402 2.831370 10053171
-6.305510 7.218647 2.875899 10053171
-6.076546 7.057733 0.754828 10053171
-6.134245 6.798669 2.783473 10053171
-3.729730 6.857304 2.227223 10053171
-4.823265 7.066864 2.507238 10053171
-6.563748 7.002946 2.647371 10053171
-6.053842 7.135912 1.118794 10053171
-3.402752 7.135957 1.447899 10053171
-4.608790 6.960161 1.346750 10053171
-5.999070 7.228712 2.397464 10053171
-6.671496 7.024142 2.961331 10053171
-6.858439 7.073475 1.105785 10053171
-5.997282 6.738718 0.148091 10053171
-6.137580 7.015968 1.968482 10053171
-3.889709 6.974386 0.573960 10053171
-4.721090 7.156906 0.117425 10053171
-5.868911 7.166545 2.060746 10053171
-4.859113 6.955900 1.411762 10053171
-5.510460 7.252660 2.732373 10053171
-5.062963 6.760744 1.317140 10053171
-6.159309 6.962801 2.521238 10053171
-4.450407 6.917705 2.111018 10053171
-4.126217 7.115264 1.112959 10053171
-3.869220 6.772854 0.892348 10053171
-4.725747 6.944082 2.258502 10053171
-5.562839 6.950445 0.645739 10053171
-3.805396 7.068844 1.166481 10053171
-3.496700 7.093377 2.111938 10053171
-4.297607 7.190264 0.691679 10053171
-4.136983 7.249313 2.541817 10053171
-5.285884 6.973104 1.610957 10053171
-6.776401 7.073702 2.604433 10053171
-5.672781 6.976314 1.219039 10053171
-5.755817 6.864944 2.779425 10053171
-3.549635 6.841086 2.699486 10053171
-3.081561 6.893463 0.622376 10053171
-5.051019 7.037631 2.173547 10053171
-3.501158 7.071853 0.811944 10053171
-5.440738 7.047131 1.614168 10053171
-3.356308 7.079526 2.180204 10053171
-6.481457 7.203014 0.032068 10053171
-6.385498 6.742156 2.592486 10053171
-4.386851 6.955888 2.927644 10053171
-6.317976 6.939511 0.858491 10053171
-3.775101 7.172821 1.042179 10053171
-3.561666 7.073658 2.683051 10053171
-4.177901 6.923934 2.139890 10053171
-6.334662 6.820341 1.068437 10053171
-3.752943 7.005307 1.930057 10053171
-3.886591 7.072688 1.222417 10053171
-5.437105 7.199662 0.707516 10053171
-5.920336 6.936544 2.503907 10053171
-3.288943 6.912487 1.499367 10053171
-6.811024 6.757806 2.294372 10053171
-3.685371 6.980987 1.007801 10053171
-6.519311 7.202226 1.584580 10053171
-5.296696 6.977580 0.878298 10053171
-6.502731 6.894238 0.449693 10053171
-4.531057 7.092656 2.288054 10053171
-6.721077 7.168740 1.139846 10053171
-4.025465 6.884158 0.256083 10053171
-5.801729 7.233018 0.694470 10053171
-6.960499 7.066092 2.924139 10053171
-3.143630 7.068674 2.154133 10053171
-4.155618 7.104909 0.035182 10053171
-4.446387 7.181574 1.344472 10053171
-6.639617 7.213617 0.400476 10053171
-5.828757 6.870459 0.174532 10053171
-3.254805 6.865920 0.147646 10053171
-6.510854 6.926430 1.328486 10053171
-5.976218 6.869508 0.002485 10053171
-5.454938 7.021286 1.756889 10053171
-6.376005 7.014397 2.956740 10053171
-6.073427 6.846988 2.938805 10053171
-4.257077 7.208885 1.407983 10053171
-4.267301 7.113171 2.177068 10053171
-3.910968 7.208005 2.387649 10053171
-5.652049 7.213430 0.387816 10053171
-5.352412 6.893982 0.451014 10053171
-3.354286 6.979328 0.984881 10053171
-6.863118 6.961707 0.245467 10053171
-4.479360 6.783848 1.777376 10053171
-6.225472 7.214480 1.538013 10053171
-3.836247 7.202209 0.867438 10053171
-3.780152 6.967282 2.071702 10053171
-4.804209 7.142586 1.220325 10053171
-5.639441 7.250898 1.584763 10053171
-4.237940 6.966409 0.404630 10053171
-5.545973 7.223527 0.309249 10053171
-3.279981 7.074718 0.142966 10053171
-5.120314 6.772024 1.801550 10053171
-5.645331 7.041579 2.639720 10053171
-5.449434 6.891798 2.374840 10053171
-4.468614 6.932237 0.707165 10053171
-4.780517 6.954346 2.326785 10053171
-6.496008 6.972785 1.161664 10053171
-5.717709 6.784366 1.372233 10053171
-4.563715 6.923966 1.767032 10053171
-4.054912 7.070588 2.546659 10053171
-3.329752 7.015749 0.183409 10053171
-4.619722 6.764392 1.407262 10053171
-3.801370 7.199306 0.835664 10053171
-5.167467 6.855893 0.239965 10053171
-6.412564 6.764385 0.305186 10053171
-5.591424 7.019607 0.822626 10053171
-3.150352 7.180828 1.553586 10053171
-5.380339 7.082002 2.733160 10053171
-5.324497 6.923490 2.701483 10053171
-4.386314 6.914682 0.780073 10053171
-6.964590 7.105676 2.697049 10053171
-4.288951 7.040231 2.888073 10053171
-4.858044 6.966782 0.239207 10053171
-6.473984 6.900165 2.226143 10053171
-5.345844 6.919788 1.756108 10053171
-5.258158 7.054857 1.629616 10053171
-4.645669 6.848951 0.809809 10053171
-3.272953 6.849340 0.453596 10053171
-4.003413 6.952331 1.220548 10053171
-3.745248 7.242605 0.785482 10053171
-5.099370 7.047236 2.767544 10053171
-4.742995 7.174728 1.087551 10053171
-5.668767 6.795251 2.540274 10053171
-5.408749 7.165402 2.292219 10053171
-6.040710 7.007691 2.978867 10053171
-3.709362 6.927666 1.094449 10053171
-4.218861 7.093263 2.704890 10053171
-5.920879 7.042278 0.648477 10053171
-4.961939 6.819086 2.303213 10053171
-3.920323 6.827264 1.362969 10053171
-6.031139 7.198003 1.740321 10053171
-3.600384 7.212007 0.402421 10053171
-5.857939 6.907166 2.254960 10053171
-6.570725 6.869081 1.771999 10053171
-4.761760 6.806088 2.789527 10053171
-6.495828 7.162057 1.222713 10053171
-3.571483 6.996207 1.082476 10053171
-6.246097 6.831120 1.545738 10053171
-3.020721 6.858598 1.558542 10053171
-6.390758 7.236310 0.955559 10053171
-4.798884 6.996579 1.237928 10053171
-6.409664 7.081118 0.934083 10053171
-6.879866 6.887094 2.256743 10053171
-3.706997 7.220348 1.800338 10053171
-4.234155 7.194860 0.805780 10053171
-6.326151 6.795467 2.949212 10053171
-3.044098 6.776184 2.271722 10053171
-6.416234 6.936635 1.496149 10053171
-6.315464 6.998833 0.999414 10053171
-5.141961 6.803801 1.228477 10053171
-3.949152 7.158339 0.930101 10053171
-6.423491 7.094357 0.848782 10053171
-6.229952 6.764631 2.086257 10053171
-3.508477 7.037834 0.957417 10053171
-5.327119 6.980379 2.314509 10053171
-4.492847 6.760196 0.616718 10053171
-5.570732 7.202987 0.172289 10053171
-3.630402 6.909408 1.816854 10053171
-6.990068 7.173118 2.107071 10053171
-6.171372 7.163258 1.916914 10053171
-4.696816 6.903225 0.453796 10053171
-5.550392 6.962438 1.739196 10053171
-6.744657 6.767070 1.269728 10053171
-5.567415 6.817964 1.502012 10053171
-6.398190 6.881548 2.036257 10053171
-5.993931 6.762683 1.046788 10053171
-5.786964 6.752487 2.070755 10053171
-5.553248 6.801077 1.567243 10053171
-3.363374 7.076835 2.629841 10053171
-5.052922 7.028481 0.342509 10053171
-4.187867 7.196368 0.551884 10053171
-5.088249 7.136550 0.835658 10053171
-6.392962 6.907450 2.857140 10053171
-6.873768 6.825093 2.532204 10053171
-6.695932 6.754508 0.425954 10053171
-3.244858 7.082612 1.592825 10053171
-6.035930 6.759863 2.606451 10053171
-4.064762 6.932505 1.533625 10053171
-6.722277 7.221040 0.602501 10053171
-6.910420 6.950588 2.962742 10053171
-4.460277 6.955184 1.931762 10053171
-4.901130 7.083036 2.539427 10053171
-3.966688 7.103721 0.815687 10053171
-4.113835 7.245248 0.520010 10053171
-3.906517 6.779799 1.137307 10053171
-3.458267 7.209987 2.456117 10053171
-3.385772 7.165331 0.180714 10053171
-3.154499 6.784983 0.445868 10053171
-4.794718 7.226136 1.099837 10053171
-6.918293 7.080541 0.560099 10053171
-6.245681 6.761939 1.854376 10053171
-6.639191 6.935028 0.628239 10053171
-6.366649 7.168128 1.724370 10053171
-6.410374 6.824084 1.115728 10053171
-4.962140 6.824490 0.300122 10053171
-5.286326 7.028166 1.120548 10053171
-6.011801 7.084908 1.265941 10053171
-3.183005 7.014731 2.067184 10053171
-4.514384 6.912063 0.163464 10053171
-6.046957 6.838323 0.176025 10053171
-3.641838 7.147533 0.338496 10053171
-3.328640 7.171389 2.597717 10053171
-4.022436 6.924591 2.658271 10053171
-4.121702 6.833743 2.977300 10053171
-5.526176 7.075876 1.928692 10053171
-4.343404 7.176950 0.737698 10053171
-4.266520 6.947732 0.574808 10053171
-3.600551 7.138307 0.596541 10053171
-3.744082 6.929209 0.907501 10053171
-4.641183 7.001109 0.614895 10053171
-4.176399 6.949858 0.188939 10053171
-6.549028 6.780111 2.361756 10053171
-4.729628 7.152740 0.511049 10053171
-5.157640 6.982963 1.455916 10053171
-6.459358 7.222012 1.311601 10053171
-6.972302 7.025867 2.110418 10053171
-6.598523 7.241272 1.483527 10053171
-5.015804 7.123070 2.890682 10053171
-4.713526 6.843964 0.701162 10053171
-4.290469 6.929231 1.310463 10053171
-5.443023 6.809907 2.069683 10053171
-4.021872 6.756384 2.825785 10053171
-5.955892 7.019715 1.390781 10053171
-6.740979 6.791953 0.283502 10053171
-3.274687 7.134545 2.703050 10053171
-5.114165 7.071410 1.720272 10053171
-5.844907 7.185257 0.491750 10053171
-6.225959 6.890418 1.082169 10053171
-6.951105 7.078952 1.610938 10053171
-5.774075 7.203010 2.569614 10053171
-6.223105 6.915196 2.050842 10053171
-3.796052 6.955701 1.364899 10053171
-5.707339 7.155221 0.877451 10053171
-3.115918 6.798707 0.980361 10053171
-3.908230 6.860528 1.099247 10053171
-5.336044 7.198494 1.627255 10053171
-3.513702 6.781134 0.865612 10053171
-4.685396 7.234790 1.555965 10053171
-3.631552 6.991471 2.190424 10053171
-4.576408 7.128640 2.686889 10053171
-4.907399 7.099976 2.099720 10053171
-6.890427 6.780072 2.382328 10053171
-3.411748 7.123427 0.880029 10053171
-5.527391 7.051934 2.926068 10053171
-4.816889 6.925052 0.685468 10053171
-4.599158 7.009041 2.175339 10053171
-6.918433 7.033898 2.189722 10053171
-3.649065 6.865604 1.237411 10053171
-4.340436 6.928508 0.833665 10053171
-6.436211 6.798942 2.066317 10053171
-6.039537 6.770322 2.072533 10053171
-4.826105 6.769563 0.957125 10053171
-3.703310 6.843506 -0.011550 10053171
-4.881255 7.132112 2.474723 10053171
-3.763938 7.030231 2.459586 10053171
-5.177835 7.095353 1.528865 10053171
-6.215873 6.863099 1.579195 10053171
-6.677502 7.176813 2.940428 10053171
-3.953208 6.918167 0.948268 10053171
-6.254588 7.037810 0.956231 10053171
-4.876567 7.169193 1.519661 10053171
-3.296966 7.209701 0.915444 10053171
-6.350148 7.082673 1.844059 10053171
-5.680821 6.804760 1.326142 10053171
-3.555977 6.916859 0.423844 10053171
-5.652737 6.793902 2.105898 10053171
-4.292985 7.249733 0.464808 10053171
-3.213063 7.017933 1.463009 10053171
-3.111725 6.950017 1.820294 10053171
-4.080122 6.756117 0.902794 10053171
-4.283884 7.194263 1.313333 10053171
-3.090457 6.875330 0.283969 10053171
-4.008884 7.129272 1.429866 10053171
-5.453555 6.926063 1.038653 10053171
-4.006289 6.963083 0.353838 10053171
-3.772568 6.943165 0.156747 10053171
-5.726885 7.233650 1.854828 10053171
-5.672694 7.219711 1.799424 10053171
-6.049004 6.750966 2.370880 10053171
-3.594131 6.953146 0.780003 10053171
-5.218179 7.130653 1.199491 10053171
-5.115402 6.819249 2.471511 10053171
-4.282143 7.189089 0.625563 10053171
-6.997360 7.196790 0.066869 10053171
-4.030897 6.786676 1.111754 10053171
-4.053501 6.770345 1.846140 10053171
-5.418518 6.856657 2.717061 10053171
-3.282533 7.038255 1.516975 10053171
-3.299968 7.209558 0.009396 10053171
-3.232862 6.797746 1.509674 10053171
-4.658831 6.951143 1.546811 10053171
-4.956352 6.858037 0.132223 10053171
-6.802791 6.834869 1.565370 10053171
-5.560622 6.938959 0.154475 10053171
-6.914680 6.890384 1.426043 10053171
-4.200342 6.755086 1.305294 10053171
-6.378916 6.911343 0.238177 10053171
-3.364056 6.763851 2.835286 10053171
-4.103707 6.804631 1.388254 10053171
-4.745905 6.841766 1.918676 10053171
-6.163006 6.788440 0.135453 10053171
-5.207520 7.128143 1.851072 10053171
-6.270921 7.110180 2.267522 10053171
-5.124814 7.093584 1.383415 10053171
-6.470294 6.922552 1.320210 10053171
-5.452428 7.065718 0.282145 10053171
-4.949010 7.177757 1.793134 10053171
-3.848451 7.009220 1.630905 10053171
-5.412967 7.070144 2.725875 10053171
-5.721601 7.056249 2.984483 10053171
-6.828678 7.131891 0.772317 10053171
-4.920586 7.167787 1.126555 10053171
-6.983589 6.935661 0.291069 10053171
-6.742263 6.985027 1.045167 10053171
-4.300322 6.812758 1.930638 10053171
-3.979690 7.171097 0.083293 10053171
-3.095438 7.059154 1.339712 10053171
-3.867010 7.030016 0.418437 10053171
-3.123261 6.744750 1.692206 10053171
-3.462859 6.842810 0.327609 10053171
-6.622652 7.099369 1.223719 10053171
-4.077272 7.121133 0.749384 10053171
-3.806204 6.992997 2.088989 10053171
-3.787509 7.011363 1.250379 10053171
-4.622137 7.136654 2.672140 10053171
-4.605124 7.224890 2.335304 10053171
-6.252239 7.137372 0.846443 10053171
-3.116474 6.909789 0.019979 10053171
-4.400982 6.755596 0.517257 10053171
-5.192445 7.032754 2.862697 10053171
-5.331059 7.001398 2.483302 10053171
-3.670810 7.216525 1.055313 10053171
-4.841498 6.789884 0.069333 10053171
-4.745862 7.126668 0.903953 10053171
-4.085018 6.852300 1.508409 10053171
-3.552216 6.969423 0.982086 10053171
-6.963414 7.114706 0.885681 10053171
-3.922452 6.913084 1.354741 10053171
-3.576083 6.946111 2.712933 10053171
-5.500613 6.831985 2.590132 10053171
-5.389190 6.774555 2.421337 10053171
-3.020519 6.806135 2.933099 10053171
-6.141221 6.853072 2.044343 10053171
-4.436948 7.137981 0.759229 10053171
-4.531765 7.028372 0.695062 10053171
-3.186508 7.241654 2.722459 10053171
-5.887736 7.203320 2.536459 10053171
-4.204831 6.893358 2.113441 10053171
-3.195179 6.933878 0.493666 10053171
-5.003331 6.826085 1.838702 10053171
-3.731980 6.955236 0.083431 10053171
-4.315516 7.211672 0.537624 10053171
-6.195069 6.879824 1.562381 10053171
-3.866123 7.203549 0.588670 10053171
-5.435951 6.789299 1.439511 10053171
-3.207842 6.803788 2.180982 10053171
-3.471015 6.961275 0.312609 10053171
-3.943483 7.233161 2.082562 10053171
-6.169193 7.206303 0.265457 10053171
-6.568291 6.904168 0.536670 10053171
-4.630702 6.889755 1.220226 10053171
-5.131992 6.777272 0.002990 10053171
-5.459237 6.819168 0.513593 10053171
-3.766210 6.783719 0.416389 10053171
-5.349230 7.210634 0.685205 10053171
-3.197675 7.180874 1.384821 10053171
-4.925268 6.755202 2.558558 10053171
-6.741426 7.146028 1.622715 10053171
-4.799403 6.792325 1.187717 10053171
-4.065074 7.052000 1.622506 10053171
-4.064384 7.028718 1.612051 10053171
-3.493985 6.913565 2.924430 10053171
-4.101140 7.141892 2.879510 10053171
-6.603467 6.926868 1.735628 10053171
-5.173962 7.054545 1.681641 10053171
-5.122983 7.180542 2.134958 10053171
-4.500183 6.856323 0.023182 10053171
-5.342877 6.776812 2.582258 10053171
-5.171328 6.756279 1.370936 10053171
-4.091344 6.883863 0.709291 10053171
-4.389940 7.058736 1.041873 10053171
-5.226082 7.127300 0.680914 10053171
-3.733938 6.772573 1.877281 10053171
-3.655694 7.237474 2.752467 10053171
-3.375001 7.152965 0.990159 10053171
-4.064904 7.214794 2.638304 10053171
-3.091929 7.168443 2.864530 10053171
-3.585550 7.053202 1.666059 10053171
-5.324682 7.109715 0.105443 10053171
-3.933425 6.948478 2.289509 10053171
-6.415283 7.043473 2.545056 10053171
-3.128561 7.117511 2.781104 10053171
-4.849401 7.168167 0.128120 10053171
-5.901481 6.902536 0.156774 10053171
-4.281280 7.041500 0.579907 10053171
-4.602855 7.138703 0.006789 10053171
-6.608634 7.210230 1.375770 10053171
-6.046400 6.927406 0.086653 10053171
-5.835949 6.763710 2.912319 10053171
-4.478835 7.036936 2.828196 10053171
-5.630912 7.188506 2.536476 10053171
-3.116687 6.959301 0.611846 10053171
-5.769340 6.945026 0.611790 10053171
-4.067126 7.096072 1.564759 10053171
-4.688932 6.778337 1.661612 10053171
-4.978042 7.148808 1.220201 10053171
-4.433493 6.956515 0.511065 10053171
-5.304177 7.247386 0.316374 10053171
-3.869804 6.950297 0.837570 10053171
-4.243461 6.949404 2.674510 10053171
-5.249882 7.110560 1.727963 10053171
-3.023983 6.982960 0.251045 10053171
-5.422637 6.847200 1.056944 10053171
-6.591449 7.086436 2.709574 10053171
-5.108883 6.818876 1.657866 10053171
-3.033178 6.896030 0.760377 10053171
-6.575350 6.981653 1.184926 10053171
-3.062997 6.989657 0.207945 10053171
-6.271333 7.228094 1.913287 10053171
-3.678889 6.940064 1.353290 10053171
-4.163615 7.100843 0.207655 10053171
-3.869463 7.156512 1.796918 10053171
-4.176095 7.015225 1.335871 10053171
-3.102567 6.820684 0.751268 10053171
-5.601434 7.231956 0.126842 10053171
-5.669832 7.019431 2.814905 10053171
-4.794045 6.932625 1.802821 10053171
-5.962186 7.154184 2.052335 10053171
-3.325289 7.109254 0.998614 10053171
-6.496228 6.807516 0.733350 10053171
-6.595262 7.061739 1.911850 10053171
-3.742283 6.872440 0.028626 10053171
-4.628644 7.137003 2.019775 10053171
-5.604378 6.767016 2.684515 10053171
-3.986602 7.075118 0.432598 10053171
-3.893372 6.775034 1.635248 10053171
-5.396191 7.014534 0.809488 10053171
-4.841074 6.840484 1.760494 10053171
-5.784547 6.941635 1.059151 10053171
-6.628838 6.867066 0.176358 10053171
-4.519988 6.982689 1.715316 10053171
-3.707462 7.114223 2.796798 10053171
-5.696577 6.861055 0.089308 10053171
-5.662126 7.036127 0.383746 10053171
-4.236343 6.849329 0.851470 10053171
-5.874627 6.851388 2.068409 10053171
-4.896497 6.823772 2.900851 10053171
-3.191577 7.011528 2.024939 10053171
-3.612661 6.902504 1.091479 10053171
-4.794027 7.138681 2.846641 10053171
-4.521240 7.177807 1.473982 10053171
-3.445973 7.096617 1.059693 10053171
-3.152627 7.159267 0.517399 10053171
-5.413715 7.095970 0.814288 10053171
-6.660954 6.985728 2.605954 10053171
-3.291054 6.893968 2.396972 10053171
-5.855354 7.152690 2.070598 10053171
-4.690724 6.938911 1.473178 10053171
-4.284869 6.838090 2.102448 10053171
-3.018346 6.754717 2.465933 10053171
-3.028829 6.986915 1.083801 10053171
-4.392370 7.191722 0.294148 10053171
-5.490037 7.224007 2.317085 10053171
-5.611873 7.114643 1.105084 10053171
-3.875862 6.891779 1.852868 10053171
-4.660588 7.087179 2.943473 10053171
-4.739046 7.157557 2.667916 10053171
-6.281208 7.031613 1.584196 10053171
-3.121404 7.182582 0.316477 10053171
-4.508406 6.867017 2.803893 10053171
-3.045847 6.917489 1.117957 10053171
-4.457783 7.256252 2.828116 10053171
-5.027574 6.913956 2.686654 10053171
-3.202211 6.966558 0.518522 10053171
-5.976079 6.821009 0.799197 10053171
-4.698783 7.157814 0.314886 10053171
-3.008598 7.059365 0.535916 10053171
-5.447413 6.916255 1.127205 10053171
-3.938051 6.793151 0.632551 10053171
-6.071025 6.962989 2.717083 10053171
-3.316101 6.928926 0.576293 10053171
-5.736539 6.753379 2.841933 10053171
-4.184631 6.838775 0.627458 10053171
-6.582077 6.983098 2.979292 10053171
-6.911729 7.248462 2.511120 10053171
-6.893731 7.220814 0.752766 10053171
-5.270749 7.013440 2.452467 10053171
-5.198681 6.963781 1.284260 10053171
-3.182472 7.128939 1.917577 10053171
-6.395638 6.947213 1.714441 10053171
-4.059909 6.843687 0.133963 10053171
-3.506882 6.886148 0.007620 10053171
-6.122181 6.875849 1.914983 10053171
-3.118575 7.069081 0.774306 10053171
-3.566729 7.035374 2.740002 10053171
-4.254082 7.056096 2.633385 10053171
-3.442821 6.896171 2.424435 10053171
-5.102805 6.890388 2.885762 10053171
-4.457177 7.123006 1.056036 10053171
-6.599702 6.838803 2.046240 10053171
-3.816048 6.878172 2.280185 10053171
-3.554694 6.988170 1.027183 10053171
-4.269419 6.784125 0.883520 10053171
-3.869161 7.013096 0.993570 10053171
-5.346828 6.960408 2.076412 10053171
-3.236439 6.843400 0.485133 10053171
-3.399068 7.242942 0.653760 10053171
-6.384592 6.744314 1.219537 10053171
-5.824923 7.231920 1.591494 10053171
-3.812052 6.901483 0.805684 10053171
-6.566873 6.861076 1.593145 10053171
-4.374217 6.806242 0.974753 10053171
-5.665880 6.923625 0.061921 10053171
-4.398270 7.018466 1.191471 10053171
-4.190083 6.892056 2.125113 10053171
-3.278477 7.176486 1.285136 10053171
-3.739203 7.226170 2.641495 10053171
-5.914346 6.810463 0.042449 10053171
-5.675643 6.804701 1.570000 10053171
-4.951772 6.969142 2.477015 10053171
-6.064958 7.034224 1.123741 10053171
-6.770340 7.234987 2.106200 10053171
-5.443959 6.870875 1.224921 10053171
-6.168125 6.929675 2.909112 10053171
-5.580652 6.776426 2.410708 10053171
-4.528279 7.173062 1.548319 10053171
-5.291215 6.904677 0.626176 10053171
-6.034457 7.245580 1.495593 10053171
-3.518069 6.853364 2.494955 10053171
-5.668543 6.939769 2.279389 10053171
-6.059791 6.966663 1.441919 10053171
-6.567544 6.882561 1.248021 10053171
-6.781529 7.084949 2.625900 10053171
-6.567894 6.869028 1.822765 10053171
-6.061568 6.979096 2.790321 10053171
-4.225732 7.161223 2.768700 10053171
-4.884979 7.072771 2.187292 10053171
-4.882057 7.142808 0.060451 10053171
-4.070007 6.816194 1.573988 10053171
-6.966051 7.235929 0.329842 10053171
-5.494020 7.149632 0.049756 10053171
-3.488559 6.795456 0.737801 10053171
-6.071849 6.782811 0.887701 10053171
-3.543277 6.804400 2.842422 10053171
-3.540843 7.172747 0.924254 10053171
-5.204833 6.805615 2.950276 10053171
-6.936221 6.882412 2.321854 10053171
-4.326066 6.863122 0.558391 10053171
-4.584421 6.861748 0.877546 10053171
-3.482403 6.824131 0.290564 10053171
-6.438126 6.997249 1.136973 10053171
-5.297446 7.247527 1.679736 10053171
-4.246901 7.176582 1.713511 10053171
-5.741995 7.131601 0.949440 10053171
-4.646863 6.964199 2.931288 10053171
-5.841709 7.031801 1.045554 10053171
-5.190603 7.148892 0.274793 10053171
-4.795222 6.857018 2.719846 10053171
-3.328903 6.972728 0.817754 10053171
-3.916548 7.023344 1.817455 10053171
-5.784511 6.983502 1.279147 10053171
-3.338792 6.964827 1.663416 10053171
-3.005169 7.225560 0.791840 10053171
-3.201655 7.197158 2.782641 10053171
-3.175494 7.173702 2.289924 10053171
-6.071812 6.918474 2.251782 10053171
-6.833665 7.069349 2.064483 10053171
-4.062473 6.789775 1.166860 10053171
-3.194149 7.241219 1.687946 10053171
-6.927450 7.156755 1.469680 10053171
-4.312951 6.896135 1.114164 10053171
-5.316070 7.037336 0.100638 10053171
-6.790956 7.152090 2.896639 10053171
-4.227650 6.817002 2.446295 10053171
-3.462390 7.029219 2.644511 10053171
-3.079756 6.769405 1.155609 10053171
-3.491589 7.220384 0.557425 10053171
-3.466814 6.935736 2.315517 10053171
-4.102157 7.081372 2.717000 10053171
-3.735059 7.062221 2.892078 10053171
-5.755116 6.910341 0.463315 10053171
-4.731885 7.123485 1.560540 10053171
5.883016 -5.977744 1.145251 8342706
6.149609 -5.718949 1.800162 8342706
5.447653 -6.092720 3.638318 8342706
6.172493 -6.470348 0.555889 8342706
5.446003 -6.206688 3.043458 8342706
6.181020 -6.473874 4.089979 8342706
6.362117 -6.064176 4.882213 8342706
6.207742 -5.638983 0.323662 8342706
6.020994 -6.175498 4.025573 8342706
6.195693 -5.982723 0.485155 8342706
5.591378 -5.661645 2.007385 8342706
6.160163 -6.427292 3.299469 8342706
6.545651 -5.820966 4.828903 8342706
6.053076 -5.627842 2.400440 8342706
6.466259 -5.966367 1.323662 8342706
6.093958 -6.201726 2.930922 8342706
6.530950 -5.879438 0.289288 8342706
6.336939 -6.427289 2.970617 8342706
6.303380 -5.537450 2.222385 8342706
6.465976 -6.366506 2.696957 8342706
6.190631 -6.114650 2.963329 8342706
6.281538 -5.592400 2.046372 8342706
5.623167 -6.303283 3.525955 8342706
5.801674 -5.566147 0.200264 8342706
5.628700 -5.764335 0.527613 8342706
6.483612 -5.803697 1.392935 8342706
6.035028 -5.427922 0.748560 8342706
6.196575 -6.330902 1.507757 8342706
6.442252 -6.158804 1.598288 8342706
6.525379 -6.039311 3.479248 8342706
5.618686 -6.182595 3.370537 8342706
5.831314 -6.189401 4.730001 8342706
5.802792 -5.538889 2.029752 8342706
6.330369 -5.782347 2.907720 8342706
6.241165 -5.913461 3.529472 8342706
5.432981 -6.132248 0.560210 8342706
6.390126 -5.807505 1.983076 8342706
5.909051 -5.778291 1.737426 8342706
5.738041 -5.868917 3.142862 8342706
5.654690 -6.160207 1.844664 8342706
5.806137 -5.521716 0.783825 8342706
6.478449 -6.099162 0.415032 8342706
5.997446 -6.129523 4.307148 8342706
5.585783 -6.187548 4.569445 8342706
5.752185 -5.736841 4.165993 8342706
5.735903 -5.917387 3.104821 8342706
6.018588 -5.992767 1.450791 8342706
6.412767 -6.269710 2.023171 8342706
5.641796 -5.731179 3.093289 8342706
6.274732 -6.090374 3.912419 8342706
5.407945 -5.992970 4.576144 8342706
5.962785 -5.458727 4.474749 8342706
5.487542 -5.956780 3.219855 8342706
6.418711 -5.950572 1.945590 8342706
6.177511 -6.508510 4.283407 8342706
6.378098 -5.861800 1.204866 8342706
5.419580 -5.947420 2.343899 8342706
5.501110 -5.734337 4.317719 8342706
6.439021 -5.989813 2.990819 8342706
6.106611 -5.683782 4.828624 8342706
6.283222 -5.877219 2.116508 8342706
5.802099 -5.466468 2.098721 8342706
5.878056 -6.322748 3.540531 8342706
5.977551 -5.494968 3.508686 8342706
5.762143 -6.023695 4.531410 8342706
5.826770 -6.068483 1.757029 8342706
6.163601 -5.760242 1.993479 8342706
6.169407 -6.295321 1.965062 8342706
5.795195 -6.226036 1.519732 8342706
5.597145 -6.239233 1.048984 8342706
5.846342 -6.393086 1.254115 8342706
5.961783 -5.962880 3.010223 8342706
6.044244 -6.118802 4.761628 8342706
5.796920 -5.812925 0.611348 8342706
5.725155 -6.075043 2.518245 8342706
5.961326 -5.998941 3.166886 8342706
5.484131 -6.192364 1.913452 8342706
6.091079 -5.593453 0.151910 8342706
6.432134 -5.946183 1.229390 8342706
6.569615 -6.068053 3.870074 8342706
6.031987 -6.223548 3.288725 8342706
5.594648 -5.662887 1.957474 8342706
6.103656 -6.295358 4.459724 8342706
6.109601 -5.615170 4.649069 8342706
6.431355 -5.670657 0.235622 8342706
5.969032 -6.163005 2.695371 8342706
6.246778 -5.971608 2.438861 8342706
5.482854 -6.158766 3.671126 8342706
6.040375 -6.328640 1.996576 8342706
5.887903 -6.350546 1.036113 8342706
6.182130 -6.399033 4.433174 8342706
5.548461 -5.934577 3.872804 8342706
5.711756 -6.388958 2.516839 8342706
6.116212 -6.497477 1.400910 8342706
5.828038 -5.887053 4.529259 8342706
5.606968 -5.779846 2.321068 8342706
6.454234 -5.852191 2.619341 8342706
6.100097 -6.422463 0.595541 8342706
5.556130 -6.138450 1.869599 8342706
6.328146 -6.047574 1.874883 8342706
6.559941 -6.052922 3.640075 8342706
5.664474 -6.366364 0.616267 8342706
5.669345 -6.451373 0.760525 8342706
6.216094 -6.019230 2.572324 8342706
5.647065 -6.038090 3.293222 8342706
5.756587 -5.599579 4.709179 8342706
5.785543 -6.239229 4.026247 8342706
5.664442 -5.837336 1.228337 8342706
6.413863 -5.967938 4.460987 8342706
5.831452 -5.607046 3.523372 8342706
6.019786 -5.817801 0.932202 8342706
6.161899 -6.359537 1.766402 8342706
6.137060 -5.803548 1.607299 8342706
5.967775 -5.761114 4.080789 8342706
6.026148 -6.205713 4.588062 8342706
5.789431 -6.159530 0.211931 8342706
5.912273 -5.639236 1.679506 8342706
6.195026 -5.641023 3.855412 8342706
5.693766 -5.980411 3.107639 8342706
5.821020 -6.165674 2.604122 8342706
5.662996 -5.841940 2.891115 8342706
5.604908 -6.251298 3.719223 8342706
5.897076 -6.573418 1.061822 8342706
6.098096 -5.791537 1.671213 8342706
6.331123 -6.322641 0.554064 8342706
6.367199 -5.695549 2.296539 8342706
6.129938 -5.559521 3.064527 8342706
5.668805 -5.687742 1.213721 8342706
6.005992 -5.706491 3.718913 8342706
6.203225 -6.015988 4.415437 8342706
6.522219 -6.117317 2.694966 8342706
6.346406 -6.151835 3.368483 8342706
5.671563 -6.315551 4.693676 8342706
6.278578 -5.539267 4.636346 8342706
5.986308 -6.223228 3.550272 8342706
5.749479 -5.660188 2.602507 8342706
6.092339 -6.576851 4.502319 8342706
5.529750 -5.760150 4.277710 8342706
5.539136 -6.154880 2.886882 8342706
6.114018 -5.630959 2.477144 8342706
5.686159 -5.886320 4.037439 8342706
5.873784 -5.410949 3.047615 8342706
6.497959 -5.803522 0.112972 8342706
6.066780 -5.425873 0.396834 8342706
6.383823 -5.723038 0.050873 8342706
6.054403 -5.765088 0.509027 8342706
5.668964 -5.723105 3.089126 8342706
6.345619 -6.218116 1.516183 8342706
6.118274 -5.805839 2.493790 8342706
5.772154 -6.169058 1.597066 8342706
6.008928 -6.209025 0.125574 8342706
5.859347 -6.035983 3.739743 8342706
5.730373 -6.151797 3.393773 8342706
6.303841 -6.239333 4.574200 8342706
6.314111 -6.441381 3.397187 8342706
6.034476 -6.565887 4.177353 8342706
5.996516 -5.681458 4.224334 8342706
5.704648 -5.646907 4.235056 8342706
6.188828 -5.874970 1.885774 8342706
5.502457 -6.233479 4.627522 8342706
5.902469 -6.340159 4.706232 8342706
6.048529 -6.431719 1.333094 8342706
6.136408 -5.625897 2.041742 8342706
5.959060 -6.221535 1.696361 8342706
6.020913 -6.023398 4.518397 8342706
6.098547 -5.626304 1.149719 8342706
6.127581 -6.301098 1.570729 8342706
5.726764 -5.747738 0.116092 8342706
6.320081 -6.166762 3.040037 8342706
6.101625 -5.591774 2.633349 8342706
6.252346 -5.860497 1.012213 8342706
5.614190 -6.077570 1.902325 8342706
5.727946 -5.688702 2.268544 8342706
5.799153 -5.640324 2.590811 8342706
5.513763 -5.923814 3.580678 8342706
6.023234 -5.817721 1.865979 8342706
5.698414 -5.901430 1.470333 8342706
5.727808 -6.251770 2.841612 8342706
5.993551 -6.314544 4.889141 8342706
5.970510 -6.449381 4.823731 8342706
6.076399 -5.594459 3.835135 8342706
5.634406 -5.574135 1.994123 8342706
6.553534 -6.045022 4.245905 8342706
5.653260 -5.597631 1.926604 8342706
6.069509 -6.449330 1.686999 8342706
5.586711 -6.227243 1.862648 8342706
6.324256 -5.883056 3.520203 8342706
6.474606 -5.832331 3.822525 8342706
6.442034 -6.114219 3.879950 8342706
6.132616 -5.851030 3.369330 8342706
6.147388 -6.398076 1.022775 8342706
5.671815 -6.135791 3.329713 8342706
6.513535 -6.337859 0.143971 8342706
6.373289 -6.114957 4.934301 8342706
5.440063 -5.918677 3.787289 8342706
6.479387 -6.022808 0.232885 8342706
6.237288 -5.651336 3.717754 8342706
6.091846 -6.022962 2.469308 8342706
6.267132 -5.993619 0.702672 8342706
6.419311 -5.959732 2.407317 8342706
6.076595 -6.499341 2.782285 8342706
6.388394 -6.078897 1.389716 8342706
6.212503 -5.643806 1.086755 8342706
6.241598 -5.587263 4.328176 8342706
6.157493 -6.437442 0.748325 8342706
5.634957 -6.079788 3.169863 8342706
6.529371 -5.789830 1.098229 8342706
6.172384 -5.771078 2.602821 8342706
6.011975 -6.075443 2.542765 8342706
6.371908 -5.703403 1.820932 8342706
5.976387 -6.101242 3.843908 8342706
6.501803 -5.990070 1.594570 8342706
5.494915 -6.302580 0.736868 8342706
5.818680 -6.380053 4.997135 8342706
6.478998 -5.777246 3.973933 8342706
6.216953 -6.025255 0.124266 8342706
6.267193 -5.822003 3.578959 8342706
6.484662 -6.059508 4.586232 8342706
5.916767 -6.057220 3.133164 8342706
6.411520 -6.272131 1.752480 8342706
6.047178 -5.461915 1.990256 8342706
5.424526 -5.960719 4.233437 8342706
6.097380 -6.062829 2.976023 8342706
6.256270 -5.953820 3.261918 8342706
5.653682 -6.178528 3.354208 8342706
6.153283 -6.346014 4.420910 8342706
6.094917 -5.542356 4.122644 8342706
5.935036 -5.855082 2.924941 8342706
5.420320 -6.106853 2.060179 8342706
6.291886 -6.422797 4.883824 8342706
5.633142 -6.383164 2.939249 8342706
6.314468 -6.323474 2.376719 8342706
6.432692 -5.830157 1.048683 8342706
6.458992 -5.889181 2.262554 8342706
5.988014 -5.502664 2.059402 8342706
6.223512 -5.771309 0.462195 8342706
5.896213 -6.291582 1.555829 8342706
6.392657 -5.767984 2.446544 8342706
6.371655 -5.531300 4.098573 8342706
6.479433 -6.152435 1.479393 8342706
6.160450 -5.805017 3.243070 8342706
5.733948 -6.393593 3.114309 8342706
6.252918 -5.559084 4.469732 8342706
6.038536 -5.900928 0.770106 8342706
5.586121 -6.386397 4.397837 8342706
5.597863 -5.764440 4.259364 8342706
6.194002 -5.848601 1.365469 8342706
5.751705 -5.795414 1.060203 8342706
5.868308 -6.087159 0.607951 8342706
6.184629 -5.441741 1.193133 8342706
6.275603 -5.532423 1.176569 8342706
5.664918 -6.256538 4.283197 8342706
5.924131 -6.061142 4.928015 8342706
6.209006 -5.560110 3.773683 8342706
5.649914 -6.028318 4.253926 8342706
6.082888 -6.567173 4.272024 8342706
5.688664 -5.716919 3.948308 8342706
5.564573 -6.093458 3.770421 8342706
6.225249 -6.419798 1.033695 8342706
6.568172 -5.932518 0.499443 8342706
5.990138 -5.540179 2.908845 8342706
6.199036 -6.389134 1.645953 8342706
5.504441 -6.222041 3.914807 8342706
5.605286 -6.450279 2.804814 8342706
5.804555 -5.505241 2.266395 8342706
6.545864 -6.225276 2.063018 8342706
6.045400 -6.361590 0.541512 8342706
5.437456 -5.858728 2.596031 8342706
5.845586 -5.661641 2.558229 8342706
6.299281 -6.101490 0.221436 8342706
6.052715 -5.601663 4.354236 8342706
6.543551 -6.290106 4.425701 8342706
5.824132 -6.405859 4.413412 8342706
5.468980 -5.772995 4.342482 8342706
5.947896 -5.487052 1.498386 8342706
6.534669 -6.204067 4.005462 8342706
6.379094 -6.188946 1.419953 8342706
5.831754 -6.160748 3.749379 8342706
6.117106 -6.336905 1.925437 8342706
5.543956 -5.628232 3.381041 8342706
5.787236 -6.479228 3.558146 8342706
5.506397 -5.699219 3.911289 8342706
6.165609 -5.550303 0.054768 8342706
6.350309 -5.951699 2.653593 8342706
6.367337 -6.078686 1.739178 8342706
5.792265 -5.775640 3.214074 8342706
6.034448 -5.816651 3.182534 8342706
6.316507 -6.034831 2.006396 8342706
6.346591 -5.813715 2.208858 8342706
6.055442 -5.804803 0.095093 8342706
5.813146 -6.060094 0.095014 8342706
6.230278 -6.448575 0.895678 8342706
6.356930 -6.476192 0.744427 8342706
6.140338 -6.369777 4.242754 8342706
5.866619 -6.518917 1.811301 8342706
5.633387 -5.910720 0.987654 8342706
5.771447 -5.652920 2.697031 8342706
6.208933 -5.750470 0.414005 8342706
6.084842 -5.435967 2.099218 8342706
6.015458 -6.485587 1.075589 8342706
6.249770 -5.556798 1.314398 8342706
6.465643 -5.669994 3.618016 8342706
6.490056 -6.254314 0.314759 8342706
5.768985 -5.929753 4.015494 8342706
6.182139 -6.099320 1.757584 8342706
6.110620 -6.246473 3.224808 8342706
5.611319 -6.257686 3.689710 8342706
6.522423 -6.160601 1.837670 8342706
6.263433 -6.227489 1.710846 8342706
5.557881 -5.803303 2.481772 8342706
6.389822 -6.402206 2.019668 8342706
6.105729 -6.216671 3.565412 8342706
6.162251 -6.575398 4.304650 8342706
6.449315 -6.367527 3.700454 8342706
6.114671 -5.551228 2.003559 8342706
6.085861 -5.464572 0.903613 8342706
6.144533 -6.437385 1.173299 8342706
5.660532 -6.064480 0.142922 8342706
5.841723 -5.596255 2.603626 8342706
5.804577 -6.383196 2.628337 8342706
6.094606 -5.486738 3.466623 8342706
5.770454 -6.311187 3.354430 8342706
6.320615 -6.333710 1.098907 8342706
5.807837 -6.547207 4.762615 8342706
6.249476 -5.685602 4.910356 8342706
6.016725 -6.462526 1.874512 8342706
5.690730 -5.792679 0.302155 8342706
6.301197 -5.545216 4.284611 8342706
5.602684 -5.851039 4.366290 8342706
6.198795 -5.594595 0.501869 8342706
6.257307 -6.362406 4.023009 8342706
6.174618 -6.532979 0.547646 8342706
6.174853 -5.858615 1.028364 8342706
6.452724 -6.155573 2.773295 8342706
6.036253 -6.392385 3.734099 8342706
6.002891 -5.539279 2.039734 8342706
6.457125 -6.204368 3.304735 8342706
6.107646 -5.447271 0.229041 8342706
5.477912 -5.722319 4.390489 8342706
6.172461 -6.353239 1.692106 8342706
6.421401 -5.611303 1.848153 8342706
5.874720 -6.111366 0.913116 8342706
6.344336 -5.594810 3.696905 8342706
5.628308 -6.137793 3.747182 8342706
6.514623 -5.926776 1.174189 8342706
5.722598 -6.007021 2.447789 8342706
6.256386 -6.342059 2.952524 8342706
5.695429 -6.380403 4.076491 8342706
6.057549 -6.284628 3.899079 8342706
6.404090 -5.571366 4.945173 8342706
6.525620 -6.262679 4.663578 8342706
6.024662 -5.913431 3.884764 8342706
6.150860 -6.392326 4.345402 8342706
5.734207 -6.202470 1.995900 8342706
6.436721 -5.874001 2.109268 8342706
6.434933 -5.979646 2.223732 8342706
5.861072 -5.417150 1.051461 8342706
6.480277 -5.817934 0.263176 8342706
5.845221 -5.470690 1.396172 8342706
6.245037 -5.710111 4.843349 8342706
5.971651 -5.642821 1.235543 8342706
6.495710 -5.799026 2.275170 8342706
5.788966 -6.210749 3.687908 8342706
6.266171 -6.186158 1.526535 8342706
5.972426 -6.394271 3.986811 8342706
6.016517 -5.813106 2.292178 8342706
6.168011 -6.052298 4.106452 8342706
6.152149 -6.420589 4.347703 8342706
6.287530 -5.593274 4.744072 8342706
6.336416 -5.820888 3.601792 8342706
5.995836 -5.783217 3.146863 8342706
6.554977 -5.878235 3.048183 8342706
6.282637 -5.867849 2.855762 8342706
6.278397 -6.310972 2.012786 8342706
5.749063 -5.704782 3.612697 8342706
5.727624 -5.707933 3.070452 8342706
6.263781 -5.971986 1.448912 8342706
6.386340 -6.199510 1.082681 8342706
5.830364 -5.605238 2.960329 8342706
5.516268 -5.879611 0.126189 8342706
5.647420 -5.623766 0.428627 8342706
5.603019 -5.562497 2.866738 8342706
5.994796 -5.507484 2.136809 8342706
5.510475 -6.129448 1.888790 8342706
6.122032 -5.493656 3.493094 8342706
5.446032 -5.934730 4.582948 8342706
5.449861 -5.807169 2.899910 8342706
6.190133 -6.310383 1.862104 8342706
5.562315 -6.383008 0.853154 8342706
5.906607 -6.528302 1.642097 8342706
6.096528 -6.331198 3.438510 8342706
5.962928 -6.484107 4.607235 8342706
6.332182 -6.173614 0.799461 8342706
6.506079 -6.318010 1.449281 8342706
6.571968 -5.924584 3.395195 8342706
5.568392 -6.082789 1.124160 8342706
6.288809 -6.288330 1.943686 8342706
6.173436 -6.308852 2.936338 8342706
6.056891 -6.510241 4.955790 8342706
5.981805 -6.468767 0.629681 8342706
6.283432 -5.760878 1.738382 8342706
6.386274 -5.928622 1.305347 8342706
6.226052 -6.416315 0.497337 8342706
6.281781 -6.145759 2.918020 8342706
6.487466 -6.117015 0.062134 8342706
6.071867 -5.662774 1.236168 8342706
6.481541 -6.285759 4.313117 8342706
6.474286 -5.658678 4.805858 8342706
6.492280 -6.148336 3.626463 8342706
6.342168 -6.346457 1.597929 8342706
5.753532 -6.300380 0.424361 8342706
6.167920 -5.564492 2.694083 8342706
6.224437 -6.037374 3.864165 8342706
6.327087 -5.841028 0.388771 8342706
6.203015 -5.860024 3.962044 8342706
5.784710 -6.401214 3.310872 8342706
6.388278 -6.221488 -0.006359 8342706
6.356478 -5.767209 1.366730 8342706
6.279248 -6.007853 4.232576 8342706
6.339815 -6.089358 2.026715 8342706
5.777854 -5.555275 4.381673 8342706
5.845186 -6.024867 0.858065 8342706
6.046814 -5.737181 4.164663 8342706
5.522311 -5.723908 3.986430 8342706
6.448093 -6.131342 1.761418 8342706
6.289411 -6.462575 1.708429 8342706
6.282983 -6.202912 4.631984 8342706
5.536888 -6.313906 1.224756 8342706
5.985532 -6.220905 3.454496 8342706
6.237545 -5.577304 3.767480 8342706
6.026581 -6.563921 3.679537 8342706
5.934353 -6.015168 1.766785 8342706
5.800933 -5.630805 2.749017 8342706
6.186174 -6.313647 0.930405 8342706
6.180629 -5.986478 3.877821 8342706
6.104790 -6.300752 1.981142 8342706
5.760547 -6.148524 1.051778 8342706
6.576882 -5.989990 1.741390 8342706
5.754290 -6.086949 4.322739 8342706
6.458526 -5.747917 0.998952 8342706
5.562207 -5.870962 0.761888 8342706
6.317374 -6.008794 5.006671 8342706
6.176921 -6.569684 4.100686 8342706
6.074790 -6.418834 4.701076 8342706
6.000618 -5.817748 1.404132 8342706
6.514380 -6.125605 5.003599 8342706
6.147593 -6.075020 1.673357 8342706
5.822600 -5.978562 2.084159 8342706
5.747495 -5.963149 3.026212 8342706
6.495443 -6.256375 4.104009 8342706
5.462157 -5.879508 3.598132 8342706
6.175237 -6.101815 0.994294 8342706
5.871219 -6.258291 1.901175 8342706
5.968593 -5.635520 2.382031 8342706
6.308326 -6.282170 0.067771 8342706
5.816967 -5.584706 4.530807 8342706
5.970922 -5.458187 4.059147 8342706
5.779171 -5.459392 3.559497 8342706
6.382846 -6.355520 1.566399 8342706
5.501164 -6.004778 4.707391 8342706
6.057619 -6.524307 0.095954 8342706
6.525331 -5.951479 1.516097 8342706
6.353936 -5.551240 3.368784 8342706
5.780740 -5.889277 0.831923 8342706
6.014804 -6.014485 0.873791 8342706
5.616085 -5.920783 2.216289 8342706
5.712536 -5.630332 2.276904 8342706
5.773324 -6.115193 3.556627 8342706
6.329716 -5.502415 1.111086 8342706
5.652875 -5.781354 4.830319 8342706
5.879542 -5.793755 0.097220 8342706
5.638862 -6.471633 2.458060 8342706
5.898131 -6.469878 3.644918 8342706
6.019900 -6.598666 0.579447 8342706
6.046663 -5.702736 1.736696 8342706
6.099931 -5.918502 1.776332 8342706
6.174506 -5.777188 4.164346 8342706
5.487406 -6.287508 4.958199 8342706
6.555808 -5.839207 2.150950 8342706
6.217041 -6.443018 3.885599 8342706
6.265397 -5.711737 2.518586 8342706
6.242697 -6.370458 2.407895 8342706
6.073366 -5.644013 4.511625 8342706
5.619450 -6.285771 3.453487 8342706
5.996073 -6.449450 2.682030 8342706
6.574796 -6.093256 0.459700 8342706
5.726272 -5.647371 4.784962 8342706
6.301268 -5.789412 0.294018 8342706
5.956085 -5.739368 4.697462 8342706
6.063232 -5.531458 2.435232 8342706
6.330822 -5.926198 1.869684 8342706
5.858828 -6.329648 3.421239 8342706
6.093408 -5.687350 4.217145 8342706
6.462960 -5.842748 0.477390 8342706
6.381477 -5.766753 4.615232 8342706
6.248152 -6.040387 2.758154 8342706
6.331109 -6.223638 0.719621 8342706
5.457712 -6.017358 2.420472 8342706
5.673505 -5.946979 4.323159 8342706
6.272694 -5.900256 4.832173 8342706
6.320935 -5.569190 1.388216 8342706
5.839533 -6.243381 4.049291 8342706
6.450239 -5.677689 4.603840 8342706
5.855680 -5.493196 4.340251 8342706
