# .PCD v0.7 - Point Cloud Data file format
VERSION 0.7
FIELDS x y z rgb
SIZE 4 4 4 4
TYPE F F F U
COUNT 1 1 1 1
WIDTH 1287
HEIGHT 1
VIEWPOINT 0 0 0 1 0 0 0
POINTS 1287
DATA ascii
-11.519000 0.601491 1.644327 15014169
-11.659334 1.110849 0.589702 15014169
-11.955891 0.786621 0.614468 15014169
-11.415660 0.639781 1.342279 15014169
-11.726282 0.623501 1.344231 15014169
-11.932501 1.126365 1.635522 15014169
-11.328751 0.778815 0.343992 15014169
-11.316516 0.738498 1.293251 15014169
-11.736399 0.525871 1.496745 15014169
-11.534609 1.068833 1.069308 15014169
-11.388618 1.131891 0.307205 15014169
-11.938140 0.671596 0.490275 15014169
-11.498825 0.780428 1.535685 15014169
-11.847199 0.800902 0.309870 15014169
-11.531749 0.833838 0.496168 15014169
-11.388429 1.156502 0.416221 15014169
-11.961938 0.819502 1.145008 15014169
-11.775849 0.978899 0.588515 15014169
-11.626798 0.889863 0.901964 15014169
-11.906052 0.653668 0.478436 15014169
-11.765981 0.685069 1.053397 15014169
-11.586331 0.805615 0.763428 15014169
-11.603072 1.091826 1.481945 15014169
-11.914097 0.731977 0.867548 15014169
-11.491286 0.993767 0.926194 15014169
-11.687121 1.059684 1.056154 15014169
-11.352498 0.539771 0.808762 15014169
-11.293058 0.994686 1.551907 15014169
-11.813018 1.002501 0.581791 15014169
-11.627608 0.657048 0.922376 15014169
-11.412556 0.712109 1.154190 15014169
-11.695501 1.132807 1.233020 15014169
-11.549230 0.745722 1.024862 15014169
-11.946990 0.586894 1.592272 15014169
-11.947797 1.146852 1.321370 15014169
-11.565683 1.040920 0.503767 15014169
-11.424554 1.011699 1.047380 15014169
-11.635969 0.817243 0.920090 15014169
-11.411065 0.681000 0.375617 15014169
-11.322901 0.810906 1.373103 15014169
-11.508388 0.877522 0.480759 15014169
-11.824375 0.804622 1.067635 15014169
-11.430109 0.718242 0.855423 15014169
-11.374797 1.082963 0.440131 15014169
-11.882721 0.951424 1.095372 15014169
-11.301208 1.015641 1.431039 15014169
-11.834763 0.879266 1.179564 15014169
-11.986716 0.860028 0.928578 15014169
-11.743117 0.697744 1.559711 15014169
-11.958268 0.727053 0.684094 15014169
-11.325383 0.501221 0.924845 15014169
-11.758507 0.979072 1.276809 15014169
-11.526086 1.105688 1.620351 15014169
-11.934774 0.570337 0.357904 15014169
-11.337758 1.206589 0.818391 15014169
-11.958390 0.582431 1.529789 15014169
-11.666534 0.633049 1.188461 15014169
-11.462028 0.831989 0.356281 15014169
-11.734900 1.107904 0.442023 15014169
-11.907277 1.060070 0.477519 15014169
-11.899673 0.665005 0.714596 15014169
-11.747175 1.052758 0.638827 15014169
-11.905041 0.578075 0.800127 15014169
-11.847617 1.086436 1.148192 15014169
-11.777328 1.198070 0.881319 15014169
-11.368228 0.701438 0.747309 15014169
-11.290347 0.560442 1.529160 15014169
-11.329199 0.739344 1.579874 15014169
-11.371691 1.201671 0.468946 15014169
-11.566433 1.044279 1.307081 15014169
-11.406274 0.522237 1.631636 15014169
-11.874594 0.519515 1.661126 15014169
-11.853554 1.094239 0.320932 15014169
-11.975752 0.567409 1.176225 15014169
-11.810949 0.798779 1.651604 15014169
-11.834131 0.665623 0.992239 15014169
-11.806960 0.865905 0.929720 15014169
-11.764598 0.503827 1.355897 15014169
-11.369560 0.763475 0.957661 15014169
-11.948150 1.028758 0.622539 15014169
-11.905936 0.607317 0.583753 15014169
-11.475858 0.815204 1.263675 15014169
-11.895469 0.665435 1.457166 15014169
-11.999976 0.652011 1.469307 15014169
-11.523706 0.692973 1.459775 15014169
-11.893637 0.889874 1.125410 15014169
-11.300959 0.962008 0.764216 15014169
-11.641114 0.682301 1.684053 15014169
-11.678183 0.564054 1.658409 15014169
-11.364034 0.861537 0.361537 15014169
-11.409818 1.144183 1.177766 15014169
-11.797590 1.172908 0.327191 15014169
-11.776467 0.735705 1.503233 15014169
-11.973781 0.950103 1.072966 15014169
-11.758211 0.561940 0.507510 15014169
-11.530325 0.530405 0.382427 15014169
-11.655070 0.854068 0.307822 15014169
-11.631770 0.600988 0.458812 15014169
-11.503493 0.733985 1.418461 15014169
13.797489 -0.005654 0.474029 1645029
13.819909 0.278582 1.232838 1645029
13.288692 -0.230615 1.058786 1645029
13.514335 0.019478 1.011344 1645029
13.620968 0.084414 1.200056 1645029
13.545074 0.064790 1.478631 1645029
13.557987 0.111361 0.604792 1645029
13.440266 0.244601 1.272268 1645029
13.661884 0.052909 0.931458 1645029
13.627711 -0.360556 0.615195 1645029
14.114875 -0.108058 1.082483 1645029
13.943183 -0.372485 1.265949 1645029
13.441583 -0.090591 0.624246 1645029
14.086567 -0.262716 1.252070 1645029
13.485150 -0.077432 0.854070 1645029
13.285625 0.196833 1.137179 1645029
13.206405 -0.321630 0.951852 1645029
13.831553 0.291564 1.135853 1645029
13.903819 0.100763 1.291506 1645029
13.634339 -0.175020 0.893981 1645029
13.889858 -0.274248 1.152489 1645029
13.479979 -0.294561 1.338923 1645029
13.784825 0.208805 1.298986 1645029
13.632925 -0.407059 0.696435 1645029
13.734050 -0.538226 0.773694 1645029
13.514474 0.158759 1.139430 1645029
13.737145 -0.354996 0.861008 1645029
13.580298 -0.072899 0.912255 1645029
13.988647 -0.046073 1.026967 1645029
13.909637 -0.182796 1.119514 1645029
13.450770 -0.268188 0.876908 1645029
13.315964 -0.043312 0.652666 1645029
13.437112 -0.036568 1.323784 1645029
13.487913 -0.076329 0.882371 1645029
14.024293 -0.386443 0.927319 1645029
13.626561 -0.063961 1.065620 1645029
13.699373 0.334944 1.066389 1645029
13.174348 -0.390474 1.073454 1645029
13.698389 -0.046371 1.155217 1645029
13.408588 -0.407343 1.099833 1645029
13.471478 -0.245629 0.507391 1645029
13.242917 -0.110574 0.860191 1645029
13.873521 -0.236252 1.148397 1645029
13.647797 -0.150226 1.220578 1645029
13.495468 0.054168 0.665778 1645029
13.785800 0.047698 0.672341 1645029
13.779014 0.303072 1.009838 1645029
13.721448 -0.079635 0.905151 1645029
13.560946 -0.108224 0.679129 1645029
13.950456 -0.374689 0.792394 1645029
13.544359 -0.520744 0.965573 1645029
14.049090 -0.144876 0.967777 1645029
13.597653 -0.258927 0.835129 1645029
13.480513 -0.416297 1.343103 1645029
13.549258 0.028206 0.503874 1645029
14.067907 -0.116472 1.280888 1645029
13.350512 0.230239 0.730051 1645029
13.337474 0.094133 0.678542 1645029
13.743896 -0.560467 0.913486 1645029
13.345723 -0.250909 0.864989 1645029
13.653253 -0.532367 0.938281 1645029
13.780482 -0.182137 0.970995 1645029
13.342333 -0.218887 1.011311 1645029
13.521637 0.142206 0.904019 1645029
13.533233 0.377878 0.948616 1645029
13.431765 -0.186393 1.415025 1645029
13.535626 -0.225822 1.159236 1645029
13.749158 0.062606 1.241280 1645029
13.989522 0.008106 1.131591 1645029
14.103905 0.002689 1.011663 1645029
13.340571 -0.458313 1.240961 1645029
13.905694 0.198731 1.073485 1645029
14.031347 -0.085555 1.032724 1645029
13.393021 0.095480 0.591487 1645029
13.548700 0.194942 1.219950 1645029
13.665511 0.301732 1.078583 1645029
13.825321 0.082593 0.852123 1645029
13.645255 0.089644 0.537772 1645029
13.959706 -0.087586 1.015948 1645029
14.009604 0.134724 1.213947 1645029
-4.370602 7.169561 0.453502 10053171
-5.957063 7.093945 0.423529 10053171
-4.430543 6.964213 2.361604 10053171
-5.162820 7.154706 2.884895 10053171
-3.835163 6.988371 0.295763 10053171
-6.702974 6.757357 2.479465 10053171
-4.107402 7.159524 2.551965 10053171
-3.176157 6.942343 1.351009 10053171
-4.407568 6.961448 0.501833 10053171
-3.504858 7.191413 2.571095 10053171
-3.644863 7.187409 2.495781 10053171
-3.267834 6.972275 0.850167 10053171
-3.998989 7.072599 0.174610 10053171
-4.976430 6.826093 1.159084 10053171
-6.824207 6.981458 0.192905 10053171
-4.618449 7.102698 2.207302 10053171
-6.423630 6.977603 1.227862 10053171
-4.661403 6.943786 0.440129 10053171
-6.878254 6.780313 2.819776 10053171
-6.315192 7.224298 2.889859 10053171
-6.078513 7.066212 0.763918 10053171
-6.146329 6.808621 2.812853 10053171
-3.748939 6.860932 2.236546 10053171
-4.820918 7.066476 2.492977 10053171
-6.575692 7.010774 2.653693 10053171
-6.054693 7.147912 1.122215 10053171
-3.410739 7.139610 1.450440 10053171
-4.605133 6.950977 1.357181 10053171
-6.008577 7.229704 2.386024 10053171
-6.702054 7.046144 2.954217 10053171
-6.882885 7.072029 1.115518 10053171
-5.976141 6.758889 0.159958 10053171
-6.133239 7.025122 1.945219 10053171
-3.854644 6.969619 0.589805 10053171
-4.716837 7.125194 0.117616 10053171
-5.899650 7.165976 2.067304 10053171
-4.834605 6.965508 1.413079 10053171
-5.495647 7.232589 2.754844 10053171
-5.063407 6.747417 1.313251 10053171
-6.160608 6.976626 2.554566 10053171
-4.479844 6.916111 2.107779 10053171
-4.111005 7.096543 1.107491 10053171
-3.883293 6.778613 0.887574 10053171
-4.713851 6.940149 2.254045 10053171
-5.545303 6.949331 0.647881 10053171
-3.802675 7.073868 1.158130 10053171
-3.489955 7.087595 2.125945 10053171
-4.302834 7.193557 0.679652 10053171
-4.120277 7.248116 2.556378 10053171
-5.303541 6.973533 1.608549 10053171
-6.757664 7.063061 2.608745 10053171
-5.683137 6.976365 1.200418 10053171
-5.750568 6.854637 2.803138 10053171
-3.543992 6.858446 2.689075 10053171
-3.082496 6.907385 0.626588 10053171
-5.035174 7.034022 2.160155 10053171
-3.506380 7.055212 0.819063 10053171
-5.457974 7.051619 1.620235 10053171
-3.359497 7.076095 2.167127 10053171
-6.478345 7.185413 0.025244 10053171
-6.393103 6.750787 2.597817 10053171
-4.406133 6.944820 2.923984 10053171
-6.312543 6.947871 0.864533 10053171
-3.763666 7.170938 1.046653 10053171
-3.542535 7.067882 2.684701 10053171
-4.190717 6.938818 2.159428 10053171
-6.355829 6.809857 1.054379 10053171
-3.771029 7.012274 1.918860 10053171
-3.882542 7.063940 1.227345 10053171
-5.458463 7.195680 0.715449 10053171
-5.927433 6.945771 2.501873 10053171
-3.297477 6.913690 1.507031 10053171
-6.816402 6.775959 2.274195 10053171
-3.693087 6.979334 1.003575 10053171
-6.504715 7.221566 1.580261 10053171
-5.315281 6.978448 0.864097 10053171
-6.481694 6.870736 0.439497 10053171
-4.554982 7.107988 2.275990 10053171
-6.744323 7.184823 1.134735 10053171
-4.047320 6.903136 0.249690 10053171
-5.775593 7.212002 0.675425 10053171
-6.967026 7.074138 2.915177 10053171
-3.128449 7.081752 2.187219 10053171
-4.131919 7.104332 0.028452 10053171
-4.435581 7.173030 1.333018 10053171
-6.606615 7.207520 0.423379 10053171
-5.833641 6.842035 0.163973 10053171
-3.263514 6.872101 0.149075 10053171
-6.539104 6.936290 1.329173 10053171
-5.975931 6.855242 0.004616 10053171
-5.437393 7.042536 1.755648 10053171
-6.397253 6.997549 2.986975 10053171
-6.082761 6.837107 2.960851 10053171
-4.227715 7.209095 1.425025 10053171
-4.285923 7.120508 2.197987 10053171
-3.907291 7.189941 2.383688 10053171
-5.676264 7.215397 0.394063 10053171
-5.336896 6.901289 0.439463 10053171
-3.325421 6.966021 0.974717 10053171
-6.866334 6.947427 0.244776 10053171
-4.488168 6.779236 1.773478 10053171
-6.235328 7.225675 1.523320 10053171
-3.852829 7.183212 0.865913 10053171
-3.762843 6.974594 2.075285 10053171
-4.803810 7.143190 1.224265 10053171
-5.625897 7.251680 1.582235 10053171
-4.221576 6.953474 0.405169 10053171
-5.501247 7.203226 0.321028 10053171
-3.274765 7.083961 0.136565 10053171
-5.094815 6.785431 1.786506 10053171
-5.646421 7.049437 2.645304 10053171
-5.450802 6.880921 2.363028 10053171
-4.457835 6.933813 0.678829 10053171
-4.762110 6.926626 2.309812 10053171
-6.486479 6.959448 1.164531 10053171
-5.730687 6.781846 1.384571 10053171
-4.590090 6.945031 1.777554 10053171
-4.059769 7.061501 2.561014 10053171
-3.320536 7.018885 0.193122 10053171
-4.644405 6.736181 1.410208 10053171
-3.797254 7.202966 0.844382 10053171
-5.188982 6.857128 0.261216 10053171
-6.432262 6.770226 0.315770 10053171
-5.586963 7.019220 0.811430 10053171
-3.147401 7.176198 1.563185 10053171
-5.380551 7.078347 2.728550 10053171
-5.316137 6.927639 2.697776 10053171
-4.379175 6.902661 0.780555 10053171
-6.962705 7.106733 2.670508 10053171
-4.282009 7.058644 2.869479 10053171
-4.868621 6.968914 0.239567 10053171
-6.496332 6.914863 2.259989 10053171
-5.361057 6.916533 1.740463 10053171
-5.245121 7.049676 1.628899 10053171
-4.650640 6.847691 0.821756 10053171
-3.274778 6.832901 0.430127 10053171
-4.003853 6.925936 1.212479 10053171
-3.744656 7.252226 0.763064 10053171
-5.128947 7.040810 2.741106 10053171
-4.735583 7.178536 1.103807 10053171
-5.666612 6.780755 2.539698 10053171
-5.409153 7.151700 2.289409 10053171
-6.033210 6.990619 2.984643 10053171
-3.702145 6.928753 1.090731 10053171
-4.242179 7.094197 2.726417 10053171
-5.955814 7.058271 0.672497 10053171
-4.951168 6.789381 2.312073 10053171
-3.951037 6.830330 1.363026 10053171
-6.003768 7.193432 1.728067 10053171
-3.622167 7.200486 0.398039 10053171
-5.871280 6.915682 2.262432 10053171
-6.566000 6.866026 1.760650 10053171
-4.742806 6.824842 2.779038 10053171
-6.485691 7.170499 1.223440 10053171
-3.575858 7.012127 1.082357 10053171
-6.250775 6.825851 1.538592 10053171
-3.026575 6.883510 1.566953 10053171
-6.397120 7.246485 0.963453 10053171
-4.804634 6.993285 1.238996 10053171
-6.395711 7.102012 0.939499 10053171
-6.877469 6.890014 2.262132 10053171
-3.714839 7.224043 1.796540 10053171
-4.211393 7.198496 0.816290 10053171
-6.332766 6.784066 2.958549 10053171
-3.029191 6.749036 2.273622 10053171
-6.430498 6.932561 1.479294 10053171
-6.305833 6.988762 1.001593 10053171
-5.159964 6.778251 1.233884 10053171
-3.959310 7.163198 0.946009 10053171
-6.420564 7.091570 0.871715 10053171
-6.226386 6.762243 2.069363 10053171
-3.525156 7.022973 0.949942 10053171
-5.318728 6.952636 2.311840 10053171
-4.499980 6.766200 0.629711 10053171
-5.558430 7.228167 0.160793 10053171
-3.630078 6.922361 1.815699 10053171
-7.003342 7.170874 2.090896 10053171
-6.197013 7.169603 1.944520 10053171
-4.711904 6.901247 0.449603 10053171
-5.560132 6.963372 1.724744 10053171
-6.750095 6.778903 1.275706 10053171
-5.553379 6.825141 1.496929 10053171
-6.415421 6.885124 2.048486 10053171
-5.973523 6.777581 1.045702 10053171
-5.787635 6.759411 2.083350 10053171
-5.554315 6.804181 1.576573 10053171
-3.380598 7.074499 2.635852 10053171
-5.050392 7.039860 0.366303 10053171
-4.190433 7.187153 0.546018 10053171
-5.039996 7.143731 0.849435 10053171
-6.405076 6.892635 2.865138 10053171
-6.862936 6.823281 2.535670 10053171
-6.729601 6.759355 0.440892 10053171
-3.234460 7.090755 1.599904 10053171
-6.029097 6.742870 2.607229 10053171
-4.074830 6.934349 1.544829 10053171
-6.728602 7.221087 0.591907 10053171
-6.888410 6.955246 2.962747 10053171
-4.479121 6.927892 1.907130 10053171
-4.915721 7.092630 2.551738 10053171
-3.955603 7.108641 0.785448 10053171
-4.126376 7.242022 0.492309 10053171
-3.926507 6.782345 1.123895 10053171
-3.494173 7.210435 2.479492 10053171
-3.384367 7.170391 0.192343 10053171
-3.146770 6.783195 0.448057 10053171
-4.802882 7.199881 1.091447 10053171
-6.921611 7.102201 0.571104 10053171
-6.253497 6.767547 1.898662 10053171
-6.633169 6.910979 0.622484 10053171
-6.360607 7.175331 1.720949 10053171
-6.418060 6.812237 1.130112 10053171
-4.977544 6.836091 0.301289 10053171
-5.300788 7.040966 1.133526 10053171
-6.000833 7.083871 1.269695 10053171
-3.197219 7.026649 2.075494 10053171
-4.533708 6.913981 0.149550 10053171
-6.064117 6.851440 0.182205 10053171
-3.631210 7.135517 0.322831 10053171
-3.334250 7.178236 2.582868 10053171
-3.999106 6.898103 2.650783 10053171
-4.124381 6.844888 3.005502 10053171
-5.519588 7.094269 1.943957 10053171
-4.341189 7.155466 0.740187 10053171
-4.262152 6.931459 0.579078 10053171
-3.628123 7.146296 0.613489 10053171
-3.723846 6.938462 0.914296 10053171
-4.648420 7.024100 0.616743 10053171
-4.184882 6.931179 0.210573 10053171
-6.548209 6.794377 2.338950 10053171
-4.729181 7.143994 0.501757 10053171
-5.167634 6.981946 1.470712 10053171
-6.445781 7.243175 1.319334 10053171
-6.981529 7.006531 2.103944 10053171
-6.598954 7.223458 1.469477 10053171
-5.030766 7.131014 2.898374 10053171
-4.708589 6.841699 0.742281 10053171
-4.273602 6.926445 1.298995 10053171
-5.443048 6.828967 2.059524 10053171
-3.986695 6.768950 2.807591 10053171
-5.941548 7.035172 1.392863 10053171
-6.736536 6.769971 0.261654 10053171
-3.299594 7.146591 2.691339 10053171
-5.112118 7.067405 1.732329 10053171
-5.843881 7.199099 0.496007 10053171
-6.226421 6.874897 1.064594 10053171
-6.952956 7.064924 1.618491 10053171
-5.731956 7.215588 2.560775 10053171
-6.209929 6.927425 2.020284 10053171
-3.803276 6.968458 1.349453 10053171
-5.712844 7.153047 0.874238 10053171
-3.104308 6.802262 0.986615 10053171
-3.920075 6.852093 1.114538 10053171
-5.361667 7.195117 1.614657 10053171
-3.507324 6.774044 0.849114 10053171
-4.677279 7.244505 1.564165 10053171
-3.661403 7.012847 2.215736 10053171
-4.587378 7.127539 2.671073 10053171
-4.907055 7.102663 2.098948 10053171
-6.903134 6.785501 2.401974 10053171
-3.412910 7.122370 0.854497 10053171
-5.536338 7.045371 2.926816 10053171
-4.820881 6.929127 0.676178 10053171
-4.594014 7.020157 2.190767 10053171
-6.911515 7.036265 2.203132 10053171
-3.653289 6.843180 1.230708 10053171
-4.330847 6.917755 0.841653 10053171
-6.441188 6.784100 2.057470 10053171
-6.025102 6.787651 2.072657 10053171
-4.844315 6.775631 0.951500 10053171
-3.712349 6.862954 0.019121 10053171
-4.864062 7.104815 2.483173 10053171
-3.740850 7.010865 2.469040 10053171
-5.182444 7.082292 1.523573 10053171
-6.235896 6.857122 1.592982 10053171
-6.672763 7.172144 2.922219 10053171
-3.950207 6.915662 0.954182 10053171
-6.246457 7.040256 0.916982 10053171
-4.873626 7.157317 1.501804 10053171
-3.292397 7.213334 0.924751 10053171
-6.361358 7.079024 1.860728 10053171
-5.678308 6.801667 1.323897 10053171
-3.579182 6.930542 0.421394 10053171
-5.649194 6.782646 2.114088 10053171
-4.279266 7.239591 0.456651 10053171
-3.207494 7.009200 1.442000 10053171
-3.127082 6.938748 1.843796 10053171
-4.077294 6.766292 0.903982 10053171
-4.272056 7.177780 1.321862 10053171
-3.083550 6.846546 0.296691 10053171
-3.995590 7.116452 1.426804 10053171
-5.437948 6.926308 1.040972 10053171
-3.963128 6.972690 0.356856 10053171
-3.793191 6.943422 0.188412 10053171
-5.734679 7.239003 1.861525 10053171
-5.697145 7.205432 1.785055 10053171
-6.015723 6.754985 2.363116 10053171
-3.621861 6.961370 0.810430 10053171
-5.208033 7.110431 1.165481 10053171
-5.118883 6.846721 2.497177 10053171
-4.275916 7.195107 0.638053 10053171
-6.980690 7.233769 0.071124 10053171
-4.030730 6.791482 1.122155 10053171
-4.057473 6.791413 1.845104 10053171
-5.404260 6.870854 2.714969 10053171
-3.281663 7.046986 1.517112 10053171
-3.332527 7.213979 0.024253 10053171
-3.226941 6.822889 1.497206 10053171
-4.651741 6.957092 1.555231 10053171
-4.960903 6.859745 0.150455 10053171
-6.802759 6.838444 1.568220 10053171
-5.561810 6.925636 0.150392 10053171
-6.932415 6.905117 1.414258 10053171
-4.188453 6.758904 1.314405 10053171
-6.386795 6.918300 0.225987 10053171
-3.362244 6.759223 2.828264 10053171
-4.102221 6.810603 1.416907 10053171
-4.750204 6.818675 1.915655 10053171
-6.170798 6.780544 0.148117 10053171
-5.219182 7.130440 1.838111 10053171
-6.253994 7.120125 2.239994 10053171
-5.146928 7.095119 1.391483 10053171
-6.461209 6.940968 1.323774 10053171
-5.475307 7.083618 0.283606 10053171
-4.955115 7.183367 1.803481 10053171
-3.862540 6.993144 1.642671 10053171
-5.421444 7.089090 2.725323 10053171
-5.707481 7.065041 2.970167 10053171
-6.825175 7.144179 0.761803 10053171
-4.924318 7.141669 1.114328 10053171
-6.963338 6.962191 0.274975 10053171
-6.738008 6.970618 1.022151 10053171
-4.302444 6.809251 1.940329 10053171
-3.993787 7.166086 0.062507 10053171
-3.113751 7.031290 1.328236 10053171
-3.846946 7.018559 0.399335 10053171
-3.109980 6.756283 1.714799 10053171
-3.445492 6.837635 0.309628 10053171
-6.608560 7.080841 1.253409 10053171
-4.090973 7.136064 0.742262 10053171
-3.801163 6.993741 2.068596 10053171
-3.789623 7.024330 1.243137 10053171
-4.635626 7.145306 2.669434 10053171
-4.601840 7.226562 2.364588 10053171
-6.247236 7.151764 0.870546 10053171
-3.105473 6.926111 0.032372 10053171
-4.401815 6.746744 0.497149 10053171
-5.189592 7.022546 2.838397 10053171
-5.332089 7.000886 2.476530 10053171
-3.661696 7.243512 1.065460 10053171
-4.824849 6.783187 0.065445 10053171
-4.741906 7.124947 0.917904 10053171
-4.066340 6.851523 1.506148 10053171
-3.555075 6.987577 0.971606 10053171
-6.945987 7.132448 0.914569 10053171
-3.900751 6.936063 1.358749 10053171
-3.582274 6.942224 2.726377 10053171
-5.494020 6.832908 2.602839 10053171
-5.414289 6.789328 2.413519 10053171
-3.025771 6.814237 2.915595 10053171
-6.132938 6.841328 2.038996 10053171
-4.445657 7.160944 0.768376 10053171
-4.523446 7.025085 0.697213 10053171
-3.219459 7.243617 2.711113 10053171
-5.880830 7.217507 2.539423 10053171
-4.205643 6.902355 2.130651 10053171
-3.187986 6.948004 0.508482 10053171
-5.010903 6.829518 1.830534 10053171
-3.727444 6.965674 0.082539 10053171
-4.327582 7.219859 0.528187 10053171
-6.189950 6.896021 1.541978 10053171
-3.852215 7.195303 0.581275 10053171
-5.439837 6.785238 1.454623 10053171
-3.195412 6.817235 2.199215 10053171
-3.451645 6.964782 0.325433 10053171
-3.936620 7.244744 2.055135 10053171
-6.169889 7.213200 0.244685 10053171
-6.554601 6.894600 0.546597 10053171
-4.617204 6.888408 1.241020 10053171
-5.143943 6.798677 0.004110 10053171
-5.459413 6.807759 0.529639 10053171
-3.768200 6.796779 0.388259 10053171
-5.351215 7.214382 0.685073 10053171
-3.178568 7.189429 1.366569 10053171
-4.946735 6.765167 2.547042 10053171
-6.726232 7.125919 1.618023 10053171
-4.818001 6.796774 1.164882 10053171
-4.078266 7.039641 1.642719 10053171
-4.078557 7.045327 1.613157 10053171
-3.510489 6.924541 2.936125 10053171
-4.076044 7.138483 2.875593 10053171
-6.599173 6.911469 1.754122 10053171
-5.181580 7.058740 1.696712 10053171
-5.108993 7.184142 2.138166 10053171
-4.498468 6.858585 0.036249 10053171
-5.349695 6.750311 2.573076 10053171
-5.181900 6.762424 1.359793 10053171
-4.074508 6.882132 0.731689 10053171
-4.392743 7.050362 1.036484 10053171
-5.228102 7.115285 0.703575 10053171
-3.743433 6.760227 1.891694 10053171
-3.639081 7.245676 2.756840 10053171
-3.352295 7.157090 1.007236 10053171
-4.083986 7.198538 2.654739 10053171
-3.110588 7.159737 2.857990 10053171
-3.580646 7.040589 1.665322 10053171
-5.314792 7.111890 0.097267 10053171
-3.905156 6.943823 2.293580 10053171
-6.413276 7.036991 2.534138 10053171
-3.128334 7.086987 2.772390 10053171
-4.842470 7.168262 0.122535 10053171
-5.905354 6.899584 0.144347 10053171
-4.278040 7.051667 0.582701 10053171
-4.613095 7.123842 0.012297 10053171
-6.617840 7.208404 1.381939 10053171
-6.043059 6.943297 0.079199 10053171
-5.826264 6.759392 2.911684 10053171
-4.479146 7.043050 2.825104 10053171
-5.614734 7.200423 2.542151 10053171
-3.115916 6.957967 0.618090 10053171
-5.755200 6.931419 0.619289 10053171
-4.074140 7.113399 1.530504 10053171
-4.684471 6.771443 1.673054 10053171
-4.972775 7.147117 1.223478 10053171
-4.419141 6.948424 0.494748 10053171
-5.288984 7.239672 0.312491 10053171
-3.866057 6.949432 0.848164 10053171
-4.231707 6.940506 2.686202 10053171
-5.238718 7.109747 1.705429 10053171
-3.037258 6.990079 0.265064 10053171
-5.419020 6.857236 1.061698 10053171
-6.578413 7.093479 2.701440 10053171
-5.102115 6.813682 1.647324 10053171
-3.034428 6.926544 0.759097 10053171
-6.571880 6.982556 1.185154 10053171
-3.068254 6.996305 0.193139 10053171
-6.265730 7.211308 1.902522 10053171
-3.688496 6.923567 1.369576 10053171
-4.171257 7.106398 0.214936 10053171
-3.852905 7.137760 1.795950 10053171
-4.169792 7.000895 1.327916 10053171
-3.082893 6.809324 0.736796 10053171
-5.612079 7.227276 0.136216 10053171
-5.678072 7.033661 2.794031 10053171
-4.808921 6.941796 1.795319 10053171
-5.958893 7.167590 2.064382 10053171
-3.300131 7.109790 0.975347 10053171
-6.490665 6.820268 0.743261 10053171
-6.580969 7.064264 1.927615 10053171
-3.760209 6.878372 0.049528 10053171
-4.629761 7.121117 2.035614 10053171
-5.595959 6.766473 2.661340 10053171
-3.959690 7.099780 0.439188 10053171
-3.917492 6.788271 1.623846 10053171
-5.378486 7.029257 0.789438 10053171
-4.828708 6.827601 1.748263 10053171
-5.770710 6.951778 1.091481 10053171
-6.623590 6.859149 0.180565 10053171
-4.518914 6.963194 1.692256 10053171
-3.701648 7.106376 2.796560 10053171
-5.680024 6.836454 0.084350 10053171
-5.660429 7.063812 0.390462 10053171
-4.249301 6.862038 0.859714 10053171
-5.874711 6.845599 2.054975 10053171
-4.898349 6.850182 2.915112 10053171
-3.173496 6.999874 2.021905 10053171
-3.615328 6.916028 1.067546 10053171
-4.807229 7.118090 2.841960 10053171
-4.510835 7.156189 1.482995 10053171
-3.470612 7.097410 1.055778 10053171
-3.167329 7.170673 0.510431 10053171
-5.421797 7.106067 0.812952 10053171
-6.649783 6.970517 2.577932 10053171
-3.305856 6.903487 2.372841 10053171
-5.852469 7.141041 2.060329 10053171
-4.660114 6.926005 1.468215 10053171
-4.294916 6.830189 2.109626 10053171
-3.023891 6.758687 2.439489 10053171
-3.048791 6.997016 1.072969 10053171
-4.386124 7.188699 0.310722 10053171
-5.488987 7.222037 2.315684 10053171
-5.610396 7.111866 1.108657 10053171
-3.871902 6.891623 1.861246 10053171
-4.670600 7.078787 2.944702 10053171
-4.730495 7.169663 2.678099 10053171
-6.291922 7.042094 1.585862 10053171
-3.103908 7.194816 0.309205 10053171
-4.519322 6.890250 2.792778 10053171
-3.038638 6.928452 1.099042 10053171
-4.438100 7.239880 2.847025 10053171
-5.010818 6.915965 2.695074 10053171
-3.225569 6.972699 0.516119 10053171
-5.982457 6.820267 0.806486 10053171
-4.693045 7.134340 0.312458 10053171
-3.019685 7.046667 0.534369 10053171
-5.432101 6.922488 1.103024 10053171
-3.913882 6.815711 0.631708 10053171
-6.058776 6.983567 2.700225 10053171
-3.319924 6.929804 0.533724 10053171
-5.724037 6.764967 2.846819 10053171
-4.200878 6.843497 0.633770 10053171
-6.611557 6.987108 2.932910 10053171
-6.902328 7.242685 2.536113 10053171
-6.910639 7.214297 0.732801 10053171
-5.275520 6.989539 2.450471 10053171
-5.226970 6.954866 1.255611 10053171
-3.171777 7.151217 1.909380 10053171
-6.387576 6.957468 1.699112 10053171
-4.086605 6.864320 0.128376 10053171
-3.518349 6.902859 0.038665 10053171
-6.122777 6.870398 1.895171 10053171
-3.119541 7.079043 0.782206 10053171
-3.554917 7.039433 2.744653 10053171
-4.239172 7.045003 2.615638 10053171
-3.436794 6.889320 2.439651 10053171
-5.120740 6.885810 2.871865 10053171
-4.456220 7.124410 1.054077 10053171
-6.601858 6.836134 2.036933 10053171
-3.832438 6.881567 2.258868 10053171
-3.546666 6.988610 1.033694 10053171
-4.284235 6.765352 0.863836 10053171
-3.857817 7.018609 0.999253 10053171
-5.349865 6.963083 2.083085 10053171
-3.237727 6.832737 0.513157 10053171
-3.412102 7.249278 0.650796 10053171
-6.359938 6.762851 1.232174 10053171
-5.807181 7.217342 1.591001 10053171
-3.777095 6.902603 0.804490 10053171
-6.560326 6.884345 1.592323 10053171
-4.365366 6.786461 0.968132 10053171
-5.658532 6.914186 0.074051 10053171
-4.391792 7.017117 1.187123 10053171
-4.170833 6.910237 2.106372 10053171
-3.249768 7.183912 1.296942 10053171
-3.758935 7.233259 2.649482 10053171
-5.899730 6.817522 0.051406 10053171
-5.675686 6.788422 1.562803 10053171
-4.945205 6.973305 2.485354 10053171
-6.087705 7.074213 1.122846 10053171
-6.763638 7.243782 2.127431 10053171
-5.465019 6.880925 1.258816 10053171
-6.180061 6.916202 2.916137 10053171
-5.572087 6.792084 2.417430 10053171
-4.517930 7.161011 1.499523 10053171
-5.287740 6.883759 0.627460 10053171
-6.042029 7.227785 1.478778 10053171
-3.528180 6.826247 2.523416 10053171
-5.674640 6.933939 2.286279 10053171
-6.059729 6.981201 1.453135 10053171
-6.600162 6.903800 1.251665 10053171
-6.765775 7.081217 2.619871 10053171
-6.563571 6.870976 1.832867 10053171
-6.060821 6.986456 2.777148 10053171
-4.218761 7.174554 2.773751 10053171
-4.912641 7.072693 2.193029 10053171
-4.866803 7.152547 0.062480 10053171
-4.107983 6.851501 1.579465 10053171
-6.974963 7.240948 0.326452 10053171
-5.489065 7.166638 0.029597 10053171
-3.513534 6.812060 0.744504 10053171
-6.069843 6.802143 0.922160 10053171
-3.538686 6.816938 2.833981 10053171
-3.542642 7.170206 0.912449 10053171
-5.211923 6.812668 2.962202 10053171
-6.957410 6.859066 2.321487 10053171
-4.320917 6.872204 0.577460 10053171
-4.576192 6.852770 0.863924 10053171
-3.478298 6.846471 0.290966 10053171
-6.433141 6.988734 1.145592 10053171
-5.306584 7.233791 1.658999 10053171
-4.212252 7.162113 1.721107 10053171
-5.731378 7.123837 0.931350 10053171
-4.632111 6.935963 2.948100 10053171
-5.843275 7.026765 1.036797 10053171
-5.207695 7.134852 0.281333 10053171
-4.809704 6.869576 2.720872 10053171
-3.333374 6.998330 0.792976 10053171
-3.896189 6.999539 1.824150 10053171
-5.808155 7.012650 1.287408 10053171
-3.317540 6.969706 1.656139 10053171
-2.993140 7.221906 0.807682 10053171
-3.205012 7.234565 2.789554 10053171
-3.174498 7.190618 2.291039 10053171
-6.057781 6.928840 2.243328 10053171
-6.814154 7.031854 2.052910 10053171
-4.069709 6.783353 1.176683 10053171
-3.181402 7.235859 1.695783 10053171
-6.924809 7.166776 1.485874 10053171
-4.293606 6.899076 1.103878 10053171
-5.293276 7.035278 0.104702 10053171
-6.787762 7.162066 2.881212 10053171
-4.227273 6.831854 2.439620 10053171
-3.447898 7.049773 2.632395 10053171
-3.082838 6.760948 1.139894 10053171
-3.474571 7.223457 0.573615 10053171
-3.447042 6.947057 2.317352 10053171
-4.091433 7.076788 2.718736 10053171
-3.741890 7.082904 2.916564 10053171
-5.758739 6.923474 0.464868 10053171
-4.739411 7.132531 1.574248 10053171
5.896275 -5.987751 1.134447 8342706
6.132780 -5.736785 1.793134 8342706
5.462347 -6.096612 3.630159 8342706
6.176176 -6.469368 0.567683 8342706
5.440838 -6.217508 3.039105 8342706
6.177487 -6.447313 4.077207 8342706
6.373583 -6.043230 4.900498 8342706
6.195288 -5.627959 0.319885 8342706
6.010808 -6.154312 4.004635 8342706
6.188702 -5.991698 0.483631 8342706
5.590538 -5.646169 2.006526 8342706
6.180741 -6.426862 3.304210 8342706
6.543448 -5.788003 4.813440 8342706
6.059361 -5.626060 2.396094 8342706
6.464305 -5.955377 1.315084 8342706
6.112574 -6.244351 2.935588 8342706
6.527943 -5.875395 0.296946 8342706
6.356471 -6.414313 3.001803 8342706
6.314641 -5.526008 2.204754 8342706
6.477666 -6.378614 2.655295 8342706
6.187041 -6.090811 2.965126 8342706
6.265329 -5.590220 2.038418 8342706
5.615193 -6.281055 3.516943 8342706
5.807349 -5.559159 0.181360 8342706
5.628088 -5.753508 0.526313 8342706
6.496014 -5.805019 1.405575 8342706
6.044358 -5.425996 0.768825 8342706
6.219814 -6.327990 1.500091 8342706
6.437929 -6.145662 1.591465 8342706
6.550159 -6.039490 3.478092 8342706
5.598831 -6.180387 3.379377 8342706
5.838437 -6.186058 4.708930 8342706
5.788761 -5.525394 2.038306 8342706
6.337161 -5.784572 2.904871 8342706
6.252923 -5.928189 3.542642 8342706
5.447764 -6.111151 0.544661 8342706
6.377616 -5.806674 1.984263 8342706
5.900008 -5.769472 1.723518 8342706
5.752936 -5.841722 3.148574 8342706
5.646345 -6.171420 1.852868 8342706
5.802616 -5.527127 0.783706 8342706
6.480788 -6.082086 0.384561 8342706
5.980642 -6.119389 4.270605 8342706
5.606088 -6.185045 4.557178 8342706
5.752708 -5.748739 4.163024 8342706
5.747321 -5.940733 3.106494 8342706
6.026171 -5.961257 1.417895 8342706
6.414995 -6.291708 1.994543 8342706
5.660380 -5.726410 3.086487 8342706
6.292727 -6.072858 3.901796 8342706
5.406220 -5.998248 4.591698 8342706
5.951993 -5.475220 4.501470 8342706
5.493987 -5.951059 3.233598 8342706
6.425290 -5.944311 1.952324 8342706
6.151463 -6.482012 4.298028 8342706
6.372941 -5.879278 1.213792 8342706
5.406557 -5.952991 2.346410 8342706
5.523013 -5.760869 4.308516 8342706
6.444830 -5.997199 2.980896 8342706
6.117496 -5.671795 4.851210 8342706
6.263690 -5.862377 2.127476 8342706
5.813466 -5.474752 2.080405 8342706
5.869207 -6.336084 3.541258 8342706
5.978354 -5.505206 3.493347 8342706
5.778551 -6.018528 4.524955 8342706
5.861630 -6.084846 1.757524 8342706
6.168223 -5.759959 2.013162 8342706
6.145852 -6.303186 1.942892 8342706
5.777388 -6.239427 1.532924 8342706
5.600533 -6.249744 1.022282 8342706
5.838527 -6.389899 1.244128 8342706
5.976571 -5.935718 3.006221 8342706
6.086063 -6.118804 4.743249 8342706
5.804527 -5.797238 0.621703 8342706
5.745253 -6.091154 2.500627 8342706
5.969478 -6.003504 3.137012 8342706
5.488171 -6.197472 1.933043 8342706
6.078124 -5.588343 0.141920 8342706
6.437276 -5.949402 1.237806 8342706
6.562363 -6.041522 3.867317 8342706
6.029222 -6.224942 3.281998 8342706
5.562653 -5.640783 1.945978 8342706
6.105509 -6.259115 4.439879 8342706
6.112476 -5.594876 4.645480 8342706
6.431640 -5.680285 0.221258 8342706
5.976491 -6.159261 2.711697 8342706
6.234272 -5.976173 2.431141 8342706
5.489397 -6.178646 3.672911 8342706
6.039098 -6.316619 1.985545 8342706
5.886906 -6.332945 1.015557 8342706
6.171032 -6.400368 4.428126 8342706
5.546843 -5.934602 3.871918 8342706
5.686166 -6.378617 2.527209 8342706
6.110162 -6.503572 1.404974 8342706
5.841710 -5.878199 4.557527 8342706
5.630049 -5.779345 2.343123 8342706
6.467463 -5.841924 2.609277 8342706
6.090938 -6.427320 0.595303 8342706
5.549522 -6.148900 1.896902 8342706
6.306388 -6.051486 1.871640 8342706
6.569241 -6.049767 3.634368 8342706
5.638358 -6.373864 0.614249 8342706
5.672184 -6.469522 0.770636 8342706
6.219697 -6.020669 2.571004 8342706
5.642479 -6.035650 3.293300 8342706
5.769799 -5.590661 4.706901 8342706
5.762403 -6.229275 4.016947 8342706
5.646991 -5.823094 1.207047 8342706
6.406782 -5.955432 4.432882 8342706
5.825078 -5.637442 3.502874 8342706
6.021501 -5.789529 0.922908 8342706
6.158385 -6.371554 1.777147 8342706
6.144856 -5.799794 1.603052 8342706
5.972424 -5.795520 4.080313 8342706
6.037081 -6.198292 4.588622 8342706
5.792902 -6.159128 0.228820 8342706
5.905727 -5.648601 1.669800 8342706
6.196991 -5.625156 3.882221 8342706
5.714159 -5.968697 3.100565 8342706
5.803517 -6.195272 2.583713 8342706
5.669653 -5.849488 2.913356 8342706
5.605751 -6.239204 3.718865 8342706
5.892002 -6.593800 1.081768 8342706
6.117657 -5.802652 1.669482 8342706
6.299904 -6.326072 0.542000 8342706
6.352512 -5.686142 2.290864 8342706
6.136549 -5.563423 3.077382 8342706
5.669715 -5.688394 1.227560 8342706
6.004866 -5.727189 3.697315 8342706
6.189967 -6.028886 4.419663 8342706
6.495239 -6.105958 2.701678 8342706
6.338738 -6.157422 3.349956 8342706
5.676436 -6.292789 4.710320 8342706
6.282913 -5.537796 4.647726 8342706
5.987214 -6.224842 3.549997 8342706
5.760977 -5.650374 2.603897 8342706
6.080548 -6.559583 4.508877 8342706
5.544267 -5.754948 4.266282 8342706
5.544695 -6.150020 2.904791 8342706
6.105424 -5.641604 2.458782 8342706
5.678318 -5.893964 4.035906 8342706
5.870414 -5.422630 3.057814 8342706
6.497485 -5.802999 0.112187 8342706
6.060732 -5.432083 0.430126 8342706
6.393768 -5.731120 0.052613 8342706
6.062510 -5.758239 0.508097 8342706
5.640082 -5.706354 3.078166 8342706
6.356671 -6.227376 1.523894 8342706
6.124403 -5.805053 2.478120 8342706
5.751569 -6.164109 1.618444 8342706
5.982298 -6.196692 0.122063 8342706
5.853680 -6.034626 3.741417 8342706
5.735910 -6.163350 3.394836 8342706
6.279913 -6.246051 4.590389 8342706
6.326383 -6.464776 3.359057 8342706
6.032815 -6.544456 4.159076 8342706
6.028080 -5.677895 4.226593 8342706
5.708152 -5.619427 4.234975 8342706
6.194510 -5.863467 1.890907 8342706
5.508542 -6.235476 4.663625 8342706
5.906994 -6.339198 4.726338 8342706
6.041965 -6.429654 1.315083 8342706
6.148082 -5.596666 2.045149 8342706
5.946857 -6.215538 1.699828 8342706
6.014401 -6.024852 4.542817 8342706
6.087320 -5.609231 1.155653 8342706
6.109774 -6.308029 1.581290 8342706
5.748321 -5.730715 0.150904 8342706
6.334492 -6.154573 3.047276 8342706
6.093621 -5.577473 2.633920 8342706
6.253732 -5.868615 1.005959 8342706
5.603229 -6.075183 1.908514 8342706
5.722172 -5.693242 2.244426 8342706
5.798347 -5.658938 2.585934 8342706
5.502010 -5.936537 3.593064 8342706
6.016592 -5.838415 1.879889 8342706
5.711392 -5.904585 1.453807 8342706
5.751026 -6.251655 2.817761 8342706
5.991919 -6.324342 4.893005 8342706
5.964786 -6.433884 4.822253 8342706
6.095415 -5.598469 3.838410 8342706
5.621962 -5.580276 2.003891 8342706
6.540939 -6.035565 4.244410 8342706
5.666873 -5.596375 1.945381 8342706
6.103751 -6.470441 1.698947 8342706
5.606555 -6.216584 1.855761 8342706
6.321489 -5.894824 3.512415 8342706
6.457836 -5.821912 3.835735 8342706
6.430171 -6.109194 3.861883 8342706
6.125116 -5.840711 3.362488 8342706
6.140923 -6.386189 1.037742 8342706
5.661479 -6.147906 3.349516 8342706
6.491484 -6.310256 0.122066 8342706
6.383586 -6.098936 4.949656 8342706
5.428779 -5.901062 3.764740 8342706
6.503819 -6.026277 0.224166 8342706
6.239540 -5.652782 3.727917 8342706
6.094928 -6.024066 2.470271 8342706
6.280153 -6.003131 0.698662 8342706
6.422347 -5.966506 2.429933 8342706
6.096120 -6.493828 2.792557 8342706
6.400018 -6.081950 1.377178 8342706
6.201905 -5.637766 1.093299 8342706
6.262776 -5.574265 4.336614 8342706
6.166015 -6.440875 0.721255 8342706
5.634502 -6.056934 3.180621 8342706
6.528397 -5.788683 1.088168 8342706
6.176190 -5.795509 2.592685 8342706
6.001903 -6.084305 2.532663 8342706
6.384665 -5.687947 1.821060 8342706
5.982356 -6.114197 3.835003 8342706
6.512493 -6.019487 1.585167 8342706
5.493891 -6.288754 0.747109 8342706
5.826617 -6.340158 5.001370 8342706
6.450955 -5.770114 3.983060 8342706
6.232281 -6.048256 0.127833 8342706
6.259203 -5.826529 3.584804 8342706
6.486522 -6.078797 4.558231 8342706
5.907182 -6.057930 3.135870 8342706
6.392737 -6.245189 1.764598 8342706
6.034616 -5.432202 1.975275 8342706
5.424893 -5.959171 4.251261 8342706
6.101576 -6.066289 2.959612 8342706
6.243654 -5.948576 3.252860 8342706
5.636501 -6.162077 3.365980 8342706
6.147364 -6.347095 4.395968 8342706
6.098500 -5.521452 4.112300 8342706
5.915914 -5.832645 2.922452 8342706
5.417307 -6.112625 2.065136 8342706
6.292902 -6.439345 4.882996 8342706
5.647088 -6.377777 2.942634 8342706
6.321072 -6.323753 2.381173 8342706
6.429491 -5.808293 1.064130 8342706
6.452858 -5.871153 2.290074 8342706
5.994619 -5.523908 2.081208 8342706
6.215508 -5.741130 0.477489 8342706
5.886888 -6.278789 1.574485 8342706
6.399223 -5.757998 2.453620 8342706
6.362827 -5.512539 4.111635 8342706
6.463110 -6.163461 1.477327 8342706
6.159467 -5.798349 3.253592 8342706
5.718902 -6.402977 3.108944 8342706
6.261066 -5.561368 4.477276 8342706
6.039209 -5.883629 0.775240 8342706
5.594975 -6.379818 4.403272 8342706
5.608636 -5.744577 4.277759 8342706
6.224791 -5.823359 1.384814 8342706
5.745079 -5.794373 1.060096 8342706
5.894799 -6.100175 0.616188 8342706
6.189321 -5.450167 1.172326 8342706
6.304046 -5.522147 1.165880 8342706
5.659947 -6.257800 4.281316 8342706
5.936872 -6.065002 4.940048 8342706
6.209526 -5.570053 3.770839 8342706
5.643434 -6.032035 4.268231 8342706
6.089326 -6.582438 4.293458 8342706
5.678342 -5.737766 3.973646 8342706
5.539987 -6.082119 3.784713 8342706
6.219731 -6.409352 1.046512 8342706
6.556731 -5.962251 0.486756 8342706
6.011405 -5.557219 2.908882 8342706
6.197102 -6.401860 1.636826 8342706
5.519706 -6.228494 3.921305 8342706
5.622172 -6.463981 2.817938 8342706
5.796618 -5.493192 2.255636 8342706
6.524882 -6.230313 2.072437 8342706
6.064309 -6.360446 0.545266 8342706
5.441138 -5.852336 2.609478 8342706
5.833601 -5.660017 2.530013 8342706
6.298753 -6.085579 0.239617 8342706
6.049612 -5.582301 4.359482 8342706
6.504150 -6.299168 4.426945 8342706
5.803459 -6.391014 4.432279 8342706
5.441051 -5.782654 4.333896 8342706
5.966880 -5.493749 1.509258 8342706
6.534579 -6.210000 4.015346 8342706
6.385121 -6.184299 1.412875 8342706
5.821714 -6.181414 3.751201 8342706
6.117719 -6.338675 1.912966 8342706
5.558935 -5.628591 3.386011 8342706
5.804028 -6.457034 3.544717 8342706
5.494795 -5.688465 3.930560 8342706
6.158070 -5.551650 0.051437 8342706
6.359146 -5.948846 2.642786 8342706
6.375075 -6.106727 1.746487 8342706
5.796680 -5.792192 3.230327 8342706
6.024898 -5.807493 3.189610 8342706
6.292787 -6.045051 2.041255 8342706
6.347516 -5.820518 2.218029 8342706
6.075354 -5.797093 0.098968 8342706
5.841325 -6.083280 0.108727 8342706
6.229980 -6.444903 0.879806 8342706
6.343953 -6.442913 0.746768 8342706
6.148315 -6.367804 4.234613 8342706
5.852442 -6.505557 1.818465 8342706
5.651422 -5.915496 0.983858 8342706
5.783467 -5.661025 2.694111 8342706
6.226001 -5.746480 0.411550 8342706
6.084544 -5.406679 2.072517 8342706
6.004377 -6.489874 1.087867 8342706
6.245707 -5.541265 1.280341 8342706
6.455958 -5.684555 3.635110 8342706
6.490746 -6.255762 0.332707 8342706
5.771516 -5.909245 3.996405 8342706
6.158249 -6.119606 1.744965 8342706
6.108910 -6.223856 3.243181 8342706
5.603099 -6.247091 3.704479 8342706
6.538685 -6.156582 1.832463 8342706
6.250545 -6.220857 1.689904 8342706
5.550092 -5.804672 2.475604 8342706
6.384515 -6.405524 2.009760 8342706
6.102073 -6.213386 3.569066 8342706
6.163178 -6.582466 4.292641 8342706
6.433525 -6.382744 3.666284 8342706
6.111134 -5.544592 2.020766 8342706
6.083184 -5.464148 0.901507 8342706
6.142357 -6.429472 1.147976 8342706
5.675068 -6.060596 0.144164 8342706
5.855549 -5.617411 2.618950 8342706
5.788833 -6.381937 2.639298 8342706
6.089856 -5.484603 3.494501 8342706
5.769318 -6.301674 3.360967 8342706
6.311002 -6.333550 1.085153 8342706
5.806241 -6.546098 4.761500 8342706
6.240376 -5.681908 4.922303 8342706
6.016063 -6.481082 1.852185 8342706
5.673721 -5.780227 0.305810 8342706
6.277309 -5.536891 4.276251 8342706
5.599684 -5.857915 4.360575 8342706
6.235765 -5.565785 0.485151 8342706
6.302153 -6.366389 4.016411 8342706
6.197920 -6.546408 0.564530 8342706
6.178589 -5.856050 1.012217 8342706
6.435945 -6.149474 2.769990 8342706
6.046866 -6.411274 3.720840 8342706
6.003621 -5.545862 2.050443 8342706
6.459537 -6.202263 3.278654 8342706
6.131351 -5.443533 0.235002 8342706
5.486460 -5.708721 4.398323 8342706
6.188336 -6.343606 1.684876 8342706
6.406074 -5.628243 1.850357 8342706
5.883274 -6.094481 0.924389 8342706
6.357625 -5.603786 3.713141 8342706
5.629511 -6.126202 3.748779 8342706
6.515282 -5.895686 1.178347 8342706
5.736589 -6.004313 2.431540 8342706
6.259506 -6.345869 2.947368 8342706
5.734638 -6.401858 4.084689 8342706
6.047790 -6.284204 3.901353 8342706
6.391154 -5.558306 4.966440 8342706
6.527352 -6.265198 4.671642 8342706
6.017021 -5.927219 3.877850 8342706
6.167002 -6.371017 4.347455 8342706
5.728807 -6.201742 1.995237 8342706
6.435839 -5.879272 2.121977 8342706
6.450137 -5.989048 2.195020 8342706
5.857358 -5.438246 1.053591 8342706
6.469601 -5.795046 0.289437 8342706
5.877057 -5.477323 1.400368 8342706
6.235161 -5.719429 4.824880 8342706
5.982133 -5.634153 1.230353 8342706
6.492225 -5.801408 2.251991 8342706
5.779469 -6.223558 3.699585 8342706
6.268034 -6.192045 1.517456 8342706
5.971363 -6.416473 3.978091 8342706
6.012386 -5.818637 2.287317 8342706
6.166135 -6.061147 4.121440 8342706
6.167188 -6.392956 4.346838 8342706
6.294441 -5.572652 4.742145 8342706
6.339077 -5.823935 3.595993 8342706
6.000007 -5.787642 3.164907 8342706
6.554909 -5.892347 3.047620 8342706
6.292449 -5.876533 2.854620 8342706
6.297610 -6.321119 1.980216 8342706
5.754160 -5.702391 3.630809 8342706
5.708505 -5.707602 3.065442 8342706
6.259347 -5.992431 1.472201 8342706
6.378802 -6.224355 1.096317 8342706
5.836032 -5.579538 2.970740 8342706
5.512147 -5.898870 0.100165 8342706
5.632978 -5.653288 0.431324 8342706
5.619133 -5.590589 2.871916 8342706
6.010371 -5.516391 2.128587 8342706
5.538141 -6.126256 1.874956 8342706
6.119123 -5.487519 3.469160 8342706
5.438609 -5.917341 4.606927 8342706
5.462351 -5.789585 2.926769 8342706
6.195837 -6.302437 1.842454 8342706
5.563394 -6.369039 0.853364 8342706
5.869213 -6.497293 1.611660 8342706
6.106007 -6.335097 3.436084 8342706
5.969197 -6.492354 4.618074 8342706
6.358086 -6.181202 0.800244 8342706
6.501487 -6.335521 1.455676 8342706
6.547374 -5.907768 3.396122 8342706
5.576285 -6.096948 1.098189 8342706
6.276256 -6.287439 1.958904 8342706
6.154653 -6.296485 2.949668 8342706
6.057684 -6.514931 4.942030 8342706
5.985934 -6.450583 0.624101 8342706
6.293284 -5.776995 1.759473 8342706
6.405806 -5.920569 1.302880 8342706
6.227195 -6.401826 0.483248 8342706
6.295956 -6.124103 2.886027 8342706
6.475556 -6.146268 0.105262 8342706
6.075324 -5.654443 1.227589 8342706
6.475658 -6.263227 4.289172 8342706
6.446092 -5.640787 4.799627 8342706
6.515875 -6.166358 3.616933 8342706
6.331967 -6.351836 1.594672 8342706
5.763273 -6.290622 0.425039 8342706
6.190451 -5.598373 2.717561 8342706
6.217846 -6.056786 3.852560 8342706
6.321489 -5.853202 0.381931 8342706
6.199708 -5.855793 3.963643 8342706
5.791975 -6.385190 3.278039 8342706
6.416944 -6.208523 0.015425 8342706
6.335985 -5.758654 1.359018 8342706
6.279507 -5.990975 4.211046 8342706
6.329088 -6.090704 2.034201 8342706
5.765401 -5.581862 4.377095 8342706
5.810153 -6.008847 0.875196 8342706
6.061488 -5.746044 4.169759 8342706
5.520600 -5.723372 3.983218 8342706
6.457613 -6.104075 1.765158 8342706
6.282823 -6.451685 1.721598 8342706
6.268413 -6.204990 4.629686 8342706
5.539196 -6.324966 1.231014 8342706
6.013885 -6.215202 3.451629 8342706
6.237830 -5.574785 3.779751 8342706
6.037574 -6.557014 3.673496 8342706
5.944409 -6.022052 1.754895 8342706
5.807270 -5.645949 2.745506 8342706
6.193603 -6.333117 0.933036 8342706
6.188164 -6.000914 3.887545 8342706
6.120233 -6.292646 1.973113 8342706
5.770052 -6.137883 1.035986 8342706
6.601243 -6.022491 1.754398 8342706
5.738824 -6.098131 4.315681 8342706
6.459875 -5.770544 1.033345 8342706
5.551470 -5.879045 0.766283 8342706
6.325835 -6.002865 4.992754 8342706
6.163243 -6.554974 4.122580 8342706
6.094141 -6.412879 4.704587 8342706
6.005967 -5.814519 1.399248 8342706
6.500931 -6.144941 4.977773 8342706
6.152883 -6.086112 1.659680 8342706
5.815906 -5.976173 2.073878 8342706
5.739892 -5.962760 3.046185 8342706
6.491807 -6.257759 4.087611 8342706
5.476731 -5.873540 3.590893 8342706
6.179941 -6.080417 0.992504 8342706
5.890738 -6.262935 1.897905 8342706
5.955054 -5.639607 2.380934 8342706
6.313861 -6.278224 0.090232 8342706
5.812727 -5.582821 4.560775 8342706
5.986889 -5.459264 4.060889 8342706
5.805840 -5.447261 3.558545 8342706
6.397893 -6.355950 1.562013 8342706
5.489582 -6.022359 4.724257 8342706
6.045565 -6.530396 0.127310 8342706
6.540111 -5.978255 1.512008 8342706
6.372599 -5.569158 3.376862 8342706
5.775536 -5.888670 0.819203 8342706
6.019241 -5.994358 0.870149 8342706
5.614534 -5.914625 2.224259 8342706
5.715784 -5.634981 2.282220 8342706
5.789121 -6.112535 3.530692 8342706
6.308087 -5.487414 1.130238 8342706
5.644977 -5.747174 4.825604 8342706
5.888273 -5.790089 0.073685 8342706
5.634836 -6.469606 2.452207 8342706
5.883998 -6.475172 3.624994 8342706
6.032872 -6.574040 0.558683 8342706
6.055707 -5.710289 1.733653 8342706
6.089093 -5.936906 1.790238 8342706
6.156637 -5.786693 4.160988 8342706
5.489223 -6.279100 4.955475 8342706
6.563761 -5.864846 2.146780 8342706
6.223999 -6.447813 3.903977 8342706
6.239913 -5.720897 2.529686 8342706
6.219877 -6.374658 2.388097 8342706
6.067331 -5.648272 4.496514 8342706
5.649136 -6.312581 3.468555 8342706
6.014803 -6.437776 2.711474 8342706
6.553234 -6.086424 0.467393 8342706
5.705032 -5.655053 4.801029 8342706
6.290720 -5.794041 0.294986 8342706
5.969541 -5.719755 4.701239 8342706
6.080788 -5.560078 2.421981 8342706
6.363607 -5.931130 1.840174 8342706
5.868361 -6.329719 3.405582 8342706
6.084754 -5.701797 4.245820 8342706
6.471169 -5.832937 0.462856 8342706
6.377468 -5.780396 4.614683 8342706
6.262798 -6.040201 2.760520 8342706
6.306801 -6.246267 0.722138 8342706
5.453736 -6.014380 2.414759 8342706
5.687018 -5.943202 4.311520 8342706
6.283349 -5.910842 4.802198 8342706
6.299612 -5.580220 1.387034 8342706
5.808214 -6.240156 4.042799 8342706
6.442989 -5.682181 4.609159 8342706
5.857642 -5.496584 4.357281 8342706
5.667778 -5.863442 0.478436 8342706
6.430780 -5.820276 3.473718 8342706
6.353363 -5.736103 0.645895 8342706
5.678945 -6.089336 0.734828 8342706
