# .PCD v0.7 - Point Cloud Data file format
VERSION 0.7
FIELDS x y z rgb
SIZE 4 4 4 4
TYPE F F F U
COUNT 1 1 1 1
WIDTH 1287
HEIGHT 1
VIEWPOINT 0 0 0 1 0 0 0
POINTS 1287
DATA ascii
4.036486 19.271309 1.630048 15014169
3.900798 19.803877 0.588125 15014169
3.576387 19.473522 0.631652 15014169
4.155295 19.344799 1.338765 15014169
3.851251 19.337688 1.356305 15014169
3.624896 19.791035 1.649170 15014169
4.220833 19.464285 0.340329 15014169
4.271836 19.412100 1.280176 15014169
3.822725 19.229305 1.507983 15014169
4.026195 19.712051 1.073767 15014169
4.184432 19.811991 0.327915 15014169
3.656061 19.360552 0.491133 15014169
4.057540 19.467356 1.539590 15014169
3.704484 19.476660 0.325763 15014169
4.042073 19.526476 0.473059 15014169
4.182639 19.828857 0.404858 15014169
3.605302 19.479836 1.132637 15014169
3.800205 19.677984 0.595738 15014169
3.932850 19.590429 0.917091 15014169
3.662163 19.325119 0.482565 15014169
3.801929 19.353664 1.032707 15014169
3.958750 19.489689 0.746459 15014169
3.958942 19.772860 1.480073 15014169
3.653857 19.423498 0.884645 15014169
4.045200 19.690451 0.926799 15014169
3.878071 19.759262 1.054435 15014169
4.213694 19.237537 0.818320 15014169
4.258960 19.673513 1.550835 15014169
3.760785 19.684547 0.575096 15014169
3.949499 19.356274 0.916970 15014169
4.121306 19.404173 1.169789 15014169
3.868896 19.810583 1.223195 15014169
4.018128 19.437376 1.042033 15014169
3.601849 19.253098 1.592211 15014169
3.622860 19.820814 1.295742 15014169
4.005864 19.735785 0.505612 15014169
4.137688 19.687014 1.064793 15014169
3.899937 19.514347 0.918925 15014169
4.136502 19.384727 0.382247 15014169
4.239932 19.498341 1.356242 15014169
4.048194 19.548506 0.490675 15014169
3.759006 19.500526 1.102504 15014169
4.156133 19.415051 0.838097 15014169
4.187070 19.766726 0.452186 15014169
3.681773 19.656105 1.115342 15014169
4.253071 19.701281 1.401805 15014169
3.717942 19.558842 1.189594 15014169
3.577154 19.530487 0.933659 15014169
3.809906 19.376251 1.556670 15014169
3.581743 19.430824 0.689786 15014169
4.238898 19.191496 0.932384 15014169
3.810274 19.675991 1.275123 15014169
4.037817 19.830002 1.624492 15014169
3.623456 19.263577 0.371246 15014169
4.214597 19.865520 0.826428 15014169
3.619924 19.259186 1.531273 15014169
3.889779 19.329105 1.182176 15014169
4.105038 19.509964 0.333766 15014169
3.822550 19.779125 0.446030 15014169
3.638428 19.730778 0.486712 15014169
3.657364 19.358122 0.699521 15014169
3.808785 19.744532 0.642226 15014169
3.646729 19.270378 0.815295 15014169
3.730108 19.772911 1.137476 15014169
3.752396 19.875443 0.882523 15014169
4.197640 19.386282 0.732166 15014169
4.263741 19.242800 1.538838 15014169
4.227077 19.410633 1.573059 15014169
4.197561 19.873653 0.476415 15014169
3.997952 19.742048 1.302256 15014169
4.140660 19.209923 1.627554 15014169
3.684633 19.205124 1.671334 15014169
3.695545 19.761007 0.308987 15014169
3.594052 19.238949 1.194112 15014169
3.752193 19.497787 1.659053 15014169
3.716134 19.353935 0.985646 15014169
3.756855 19.538174 0.932980 15014169
3.803534 19.185184 1.377133 15014169
4.198969 19.418869 0.961445 15014169
3.610561 19.697107 0.624246 15014169
3.648079 19.286678 0.585528 15014169
4.060734 19.505684 1.279691 15014169
3.665081 19.336029 1.455960 15014169
3.586593 19.349098 1.477932 15014169
4.048712 19.370312 1.461882 15014169
3.695436 19.566095 1.140912 15014169
4.257420 19.644714 0.779415 15014169
3.919793 19.361523 1.689664 15014169
3.860531 19.223057 1.681769 15014169
4.208387 19.554251 0.343898 15014169
4.162295 19.811230 1.197054 15014169
3.745996 19.847353 0.343756 15014169
3.784889 19.435503 1.479804 15014169
3.568105 19.631100 1.074597 15014169
3.812872 19.260403 0.497986 15014169
4.035020 19.209227 0.394817 15014169
3.888747 19.561897 0.316049 15014169
3.947842 19.279055 0.448703 15014169
4.050597 19.398094 1.381135 15014169
-1.752754 -15.787574 0.487408 1645029
-1.757196 -15.477465 1.220657 1645029
-2.286417 -15.984537 1.050577 1645029
-2.049864 -15.734567 1.014930 1645029
-1.945020 -15.678035 1.196711 1645029
-2.004110 -15.688416 1.488449 1645029
-1.987257 -15.648802 0.625847 1645029
-2.129439 -15.527638 1.262985 1645029
-1.875554 -15.703705 0.964859 1645029
-1.927662 -16.132963 0.628298 1645029
-1.430932 -15.857845 1.080560 1645029
-1.638005 -16.141003 1.272917 1645029
-2.132518 -15.861402 0.622259 1645029
-1.474429 -16.011757 1.226663 1645029
-2.083851 -15.871387 0.835915 1645029
-2.275916 -15.558690 1.151515 1645029
-2.359377 -16.104900 0.968217 1645029
-1.733064 -15.469850 1.163599 1645029
-1.642120 -15.674740 1.271830 1645029
-1.926822 -15.955537 0.902264 1645029
-1.706441 -16.047426 1.165363 1645029
-2.073854 -16.059961 1.320614 1645029
-1.761740 -15.563677 1.278934 1645029
-1.916983 -16.207529 0.665836 1645029
-1.834036 -16.298140 0.766562 1645029
-2.065364 -15.598997 1.137619 1645029
-1.818827 -16.093948 0.840864 1645029
-1.969909 -15.840421 0.932790 1645029
-1.569882 -15.826392 1.038555 1645029
-1.670053 -15.948313 1.120362 1645029
-2.102599 -16.006693 0.865922 1645029
-2.258482 -15.789073 0.643800 1645029
-2.103207 -15.806716 1.357812 1645029
-2.085670 -15.836657 0.882443 1645029
-1.538470 -16.146481 0.941244 1645029
-1.936342 -15.820306 1.064951 1645029
-1.859210 -15.438035 1.062029 1645029
-2.381351 -16.148153 1.083339 1645029
-1.869275 -15.803789 1.165531 1645029
-2.135075 -16.179770 1.103445 1645029
-2.088499 -16.022234 0.501131 1645029
-2.315307 -15.872723 0.854244 1645029
-1.670343 -16.003078 1.139121 1645029
-1.922273 -15.895840 1.210867 1645029
-2.058894 -15.713129 0.701443 1645029
-1.781011 -15.752862 0.670842 1645029
-1.785593 -15.471588 1.008104 1645029
-1.828908 -15.852573 0.901263 1645029
-2.002983 -15.866724 0.651268 1645029
-1.609251 -16.159782 0.808864 1645029
-2.010215 -16.291552 0.973112 1645029
-1.549145 -15.908083 0.970387 1645029
-1.968966 -16.018114 0.862587 1645029
-2.076188 -16.184292 1.342486 1645029
-2.007214 -15.709901 0.510302 1645029
-1.469362 -15.878001 1.271743 1645029
-2.215256 -15.540339 0.729078 1645029
-2.223578 -15.641665 0.658156 1645029
-1.799415 -16.329172 0.881687 1645029
-2.190458 -16.010559 0.860752 1645029
-1.908877 -16.298794 0.933113 1645029
-1.799343 -15.954024 0.971536 1645029
-2.207013 -15.982361 1.004904 1645029
-2.037282 -15.622445 0.888805 1645029
-2.047836 -15.388820 0.949528 1645029
-2.134698 -15.932500 1.410369 1645029
-2.036760 -15.979557 1.148542 1645029
-1.805235 -15.699161 1.246052 1645029
-1.560327 -15.765360 1.138293 1645029
-1.473236 -15.773285 0.997066 1645029
-2.243788 -16.214985 1.235461 1645029
-1.646992 -15.562535 1.046595 1645029
-1.517326 -15.876852 1.044839 1645029
-2.159001 -15.658456 0.562760 1645029
-2.009402 -15.564762 1.222218 1645029
-1.874025 -15.457131 1.075623 1645029
-1.740054 -15.646028 0.850923 1645029
-1.912764 -15.676652 0.538238 1645029
-1.617402 -15.856401 1.003971 1645029
-1.566045 -15.623194 1.219401 1645029
-4.366538 7.193290 0.453829 10053171
-5.955496 7.093317 0.432950 10053171
-4.441917 6.977838 2.355688 10053171
-5.158322 7.139219 2.893935 10053171
-3.851927 6.997854 0.274767 10053171
-6.674858 6.746100 2.495482 10053171
-4.108648 7.155157 2.552960 10053171
-3.163402 6.957735 1.362414 10053171
-4.370405 6.968657 0.502653 10053171
-3.501162 7.169953 2.566925 10053171
-3.653567 7.207696 2.493212 10053171
-3.279462 6.982080 0.852311 10053171
-4.009209 7.062665 0.159991 10053171
-4.978990 6.833249 1.155370 10053171
-6.825641 6.981110 0.188977 10053171
-4.625581 7.107179 2.186356 10053171
-6.435698 7.003185 1.206880 10053171
-4.658617 6.964311 0.457390 10053171
-6.888652 6.767338 2.823185 10053171
-6.322357 7.237994 2.888876 10053171
-6.068437 7.074054 0.771508 10053171
-6.138865 6.792854 2.801812 10053171
-3.738836 6.848475 2.225072 10053171
-4.830840 7.054165 2.538335 10053171
-6.570879 6.994738 2.651682 10053171
-6.064449 7.159929 1.111924 10053171
-3.396092 7.179579 1.450736 10053171
-4.606516 6.968696 1.332621 10053171
-6.015324 7.224834 2.391297 10053171
-6.679844 7.028848 2.954945 10053171
-6.871637 7.066357 1.107599 10053171
-5.992458 6.751975 0.162627 10053171
-6.136856 7.028365 1.953448 10053171
-3.880884 6.957619 0.585164 10053171
-4.708647 7.144370 0.130200 10053171
-5.862119 7.185373 2.071963 10053171
-4.850238 6.961949 1.399267 10053171
-5.496474 7.229479 2.734499 10053171
-5.054229 6.761290 1.294598 10053171
-6.168197 6.985173 2.548708 10053171
-4.449005 6.910267 2.145261 10053171
-4.098155 7.111463 1.125100 10053171
-3.866575 6.772415 0.874591 10053171
-4.713092 6.933534 2.246087 10053171
-5.550764 6.976767 0.649213 10053171
-3.795345 7.067191 1.180518 10053171
-3.493619 7.068590 2.138693 10053171
-4.293560 7.167853 0.694818 10053171
-4.107924 7.257584 2.554943 10053171
-5.299629 6.955742 1.604731 10053171
-6.749884 7.069376 2.613718 10053171
-5.673102 6.975368 1.214868 10053171
-5.756732 6.857895 2.797209 10053171
-3.527493 6.858441 2.683373 10053171
-3.053367 6.878399 0.629801 10053171
-5.053629 7.052785 2.166587 10053171
-3.531823 7.067089 0.812571 10053171
-5.464780 7.064412 1.621585 10053171
-3.363860 7.095406 2.179543 10053171
-6.472871 7.178880 0.021676 10053171
-6.363361 6.752306 2.602909 10053171
-4.397476 6.943118 2.933999 10053171
-6.302866 6.962961 0.879762 10053171
-3.753290 7.179220 1.061336 10053171
-3.562139 7.078219 2.682601 10053171
-4.177222 6.916496 2.147650 10053171
-6.359638 6.818037 1.071488 10053171
-3.790233 7.022666 1.916413 10053171
-3.875185 7.058434 1.236322 10053171
-5.450511 7.216161 0.715127 10053171
-5.935822 6.933363 2.519665 10053171
-3.279076 6.910518 1.493532 10053171
-6.810465 6.743975 2.271216 10053171
-3.701213 6.976607 1.009190 10053171
-6.510012 7.191288 1.598143 10053171
-5.312859 6.985949 0.863242 10053171
-6.479521 6.888104 0.440768 10053171
-4.516376 7.072924 2.282641 10053171
-6.722861 7.159923 1.125295 10053171
-4.031679 6.877425 0.233076 10053171
-5.784726 7.221926 0.689896 10053171
-6.961913 7.073189 2.919012 10053171
-3.137259 7.074829 2.187816 10053171
-4.152337 7.117798 0.032407 10053171
-4.438703 7.171338 1.336846 10053171
-6.597224 7.215519 0.431381 10053171
-5.823454 6.861858 0.178099 10053171
-3.240962 6.887239 0.172474 10053171
-6.517842 6.924006 1.317297 10053171
-5.966507 6.850655 -0.013628 10053171
-5.453794 7.058772 1.770617 10053171
-6.401429 7.013210 2.967965 10053171
-6.067913 6.832776 2.952084 10053171
-4.252067 7.209430 1.406694 10053171
-4.289180 7.094844 2.180061 10053171
-3.931230 7.197539 2.400196 10053171
-5.664642 7.207795 0.399387 10053171
-5.345624 6.915181 0.466605 10053171
-3.339652 6.959284 0.983747 10053171
-6.887845 6.948480 0.238226 10053171
-4.479529 6.796781 1.773728 10053171
-6.248652 7.221937 1.508876 10053171
-3.851172 7.173253 0.848877 10053171
-3.801779 6.969158 2.068429 10053171
-4.817719 7.136560 1.239893 10053171
-5.642311 7.243094 1.582819 10053171
-4.218224 6.953546 0.417196 10053171
-5.514575 7.218648 0.314626 10053171
-3.253464 7.073719 0.148101 10053171
-5.108455 6.792732 1.787838 10053171
-5.607832 7.060073 2.625575 10053171
-5.448883 6.872149 2.372359 10053171
-4.462527 6.928738 0.679519 10053171
-4.773624 6.920936 2.315412 10053171
-6.474543 6.968349 1.173719 10053171
-5.736751 6.798603 1.397106 10053171
-4.582147 6.903244 1.803528 10053171
-4.059030 7.062901 2.557755 10053171
-3.323898 7.047096 0.203515 10053171
-4.625269 6.751656 1.393108 10053171
-3.805026 7.218071 0.872031 10053171
-5.166037 6.867347 0.243393 10053171
-6.442728 6.777696 0.289463 10053171
-5.613886 7.010764 0.831501 10053171
-3.134890 7.176966 1.568338 10053171
-5.354069 7.060276 2.721825 10053171
-5.316105 6.922719 2.688436 10053171
-4.391205 6.894289 0.787973 10053171
-6.976965 7.100985 2.679574 10053171
-4.268981 7.044071 2.907245 10053171
-4.856134 6.976380 0.236308 10053171
-6.465237 6.904855 2.236589 10053171
-5.338107 6.922528 1.754000 10053171
-5.236953 7.060472 1.632858 10053171
-4.615565 6.840336 0.821345 10053171
-3.300303 6.820287 0.446199 10053171
-4.004999 6.964468 1.204224 10053171
-3.732910 7.230210 0.804042 10053171
-5.096238 7.053892 2.763615 10053171
-4.753339 7.201005 1.110999 10053171
-5.643752 6.788285 2.528146 10053171
-5.417054 7.175967 2.273365 10053171
-6.050324 7.014640 2.978509 10053171
-3.704473 6.935865 1.079596 10053171
-4.220351 7.082492 2.734237 10053171
-5.938599 7.044691 0.662252 10053171
-4.949265 6.825466 2.324054 10053171
-3.910074 6.807826 1.373588 10053171
-6.010454 7.207254 1.740982 10053171
-3.628108 7.174738 0.407082 10053171
-5.872547 6.943508 2.252706 10053171
-6.573240 6.866100 1.756215 10053171
-4.770666 6.768895 2.799438 10053171
-6.502236 7.171601 1.215006 10053171
-3.592689 7.006091 1.072140 10053171
-6.262871 6.835680 1.540917 10053171
-3.009252 6.852419 1.555215 10053171
-6.408843 7.220454 0.948031 10053171
-4.791862 6.970307 1.207469 10053171
-6.398383 7.104792 0.922315 10053171
-6.887397 6.872706 2.244025 10053171
-3.722422 7.203021 1.804282 10053171
-4.211570 7.189272 0.822853 10053171
-6.320632 6.789305 2.950610 10053171
-3.057336 6.777719 2.279260 10053171
-6.428721 6.925021 1.492645 10053171
-6.309567 6.995390 1.003607 10053171
-5.136884 6.768925 1.223435 10053171
-3.955333 7.145144 0.934142 10053171
-6.417933 7.088122 0.852620 10053171
-6.229240 6.749372 2.103136 10053171
-3.518978 7.054771 0.960908 10053171
-5.310673 6.975709 2.323753 10053171
-4.490364 6.769279 0.623253 10053171
-5.589971 7.218462 0.163335 10053171
-3.620581 6.926872 1.812278 10053171
-6.989442 7.189066 2.102982 10053171
-6.171230 7.171883 1.950590 10053171
-4.672815 6.891507 0.428215 10053171
-5.555956 6.953730 1.728965 10053171
-6.776828 6.774090 1.274103 10053171
-5.567992 6.829593 1.511302 10053171
-6.397322 6.855023 2.024281 10053171
-5.964532 6.795424 1.063968 10053171
-5.803578 6.775890 2.074918 10053171
-5.543692 6.789026 1.567092 10053171
-3.376616 7.079250 2.622441 10053171
-5.037596 7.031029 0.356627 10053171
-4.193758 7.190282 0.550166 10053171
-5.035134 7.149019 0.830955 10053171
-6.386059 6.890593 2.837468 10053171
-6.877807 6.814538 2.538921 10053171
-6.707875 6.751015 0.411842 10053171
-3.244600 7.078365 1.580938 10053171
-6.018815 6.764620 2.605508 10053171
-4.080596 6.932158 1.558259 10053171
-6.740870 7.239079 0.611523 10053171
-6.910630 6.950274 2.988214 10053171
-4.462838 6.933054 1.941682 10053171
-4.903683 7.068784 2.540452 10053171
-3.976371 7.120160 0.811468 10053171
-4.135456 7.244065 0.503996 10053171
-3.920080 6.783599 1.134680 10053171
-3.483048 7.220603 2.465559 10053171
-3.382139 7.179861 0.171252 10053171
-3.145842 6.774997 0.452459 10053171
-4.798853 7.210487 1.089343 10053171
-6.923540 7.106692 0.594531 10053171
-6.257496 6.767944 1.879093 10053171
-6.631285 6.933770 0.631308 10053171
-6.367733 7.180072 1.728743 10053171
-6.411397 6.812201 1.125185 10053171
-4.980872 6.838155 0.317509 10053171
-5.289509 7.028895 1.122912 10053171
-5.998549 7.081050 1.274002 10053171
-3.180261 7.018745 2.081803 10053171
-4.546121 6.907798 0.143641 10053171
-6.038028 6.824687 0.170602 10053171
-3.649537 7.153946 0.313859 10053171
-3.325819 7.194326 2.589719 10053171
-4.018074 6.915261 2.651312 10053171
-4.088023 6.852510 2.968978 10053171
-5.536808 7.116008 1.919209 10053171
-4.324080 7.165009 0.760504 10053171
-4.239959 6.938458 0.564352 10053171
-3.607454 7.180499 0.593983 10053171
-3.735042 6.927568 0.908682 10053171
-4.634403 7.026258 0.623725 10053171
-4.180834 6.938612 0.196842 10053171
-6.544759 6.789404 2.350553 10053171
-4.709953 7.149351 0.505697 10053171
-5.163354 6.975514 1.466239 10053171
-6.461831 7.240668 1.323496 10053171
-6.968548 7.011220 2.091710 10053171
-6.582663 7.239534 1.484809 10053171
-5.060675 7.109859 2.888612 10053171
-4.711202 6.846451 0.717952 10053171
-4.299369 6.910529 1.327604 10053171
-5.433371 6.816862 2.063239 10053171
-4.026323 6.774310 2.801796 10053171
-5.948376 7.009137 1.414766 10053171
-6.736876 6.764774 0.247024 10053171
-3.278886 7.147531 2.693131 10053171
-5.103111 7.057538 1.732589 10053171
-5.855075 7.180040 0.489798 10053171
-6.241155 6.905938 1.078530 10053171
-6.957035 7.075197 1.620571 10053171
-5.757405 7.227059 2.536536 10053171
-6.203105 6.919046 2.029409 10053171
-3.801168 6.959034 1.355683 10053171
-5.714439 7.169255 0.860749 10053171
-3.113684 6.815347 0.989699 10053171
-3.917442 6.834208 1.117322 10053171
-5.345339 7.190003 1.640504 10053171
-3.514319 6.756188 0.866885 10053171
-4.681686 7.250061 1.560543 10053171
-3.650451 7.010042 2.188231 10053171
-4.594214 7.134349 2.686960 10053171
-4.898622 7.084733 2.086411 10053171
-6.926006 6.796696 2.386736 10053171
-3.435129 7.103706 0.836168 10053171
-5.519255 7.040986 2.928828 10053171
-4.823974 6.924120 0.681896 10053171
-4.616160 7.017677 2.197168 10053171
-6.877000 7.029744 2.187304 10053171
-3.640236 6.882241 1.223462 10053171
-4.330703 6.926921 0.803667 10053171
-6.429659 6.780762 2.050098 10053171
-6.047640 6.793857 2.081814 10053171
-4.839120 6.770356 0.946906 10053171
-3.727677 6.873904 0.002667 10053171
-4.863770 7.123755 2.489647 10053171
-3.739415 7.005281 2.473660 10053171
-5.180814 7.065313 1.532084 10053171
-6.238100 6.863768 1.590852 10053171
-6.663065 7.163239 2.935294 10053171
-3.940821 6.930398 0.939815 10053171
-6.249484 7.049810 0.944872 10053171
-4.877271 7.154925 1.524514 10053171
-3.289138 7.196495 0.928530 10053171
-6.351142 7.081376 1.843503 10053171
-5.676178 6.809750 1.321976 10053171
-3.561223 6.905691 0.427944 10053171
-5.631360 6.793305 2.109488 10053171
-4.319523 7.245885 0.453056 10053171
-3.194828 7.010281 1.431592 10053171
-3.102055 6.942555 1.809978 10053171
-4.082472 6.762084 0.911826 10053171
-4.271801 7.217230 1.316371 10053171
-3.092718 6.884210 0.295946 10053171
-4.009072 7.118908 1.426496 10053171
-5.452355 6.902750 1.043163 10053171
-4.010944 6.950413 0.357090 10053171
-3.775219 6.943049 0.172544 10053171
-5.735489 7.253063 1.864007 10053171
-5.687201 7.224919 1.786227 10053171
-6.058754 6.745543 2.375990 10053171
-3.615835 6.953646 0.799353 10053171
-5.224270 7.122919 1.179586 10053171
-5.135101 6.831181 2.461143 10053171
-4.272892 7.167700 0.637283 10053171
-6.984117 7.227198 0.066961 10053171
-4.023925 6.810103 1.111728 10053171
-4.057792 6.794748 1.856270 10053171
-5.413700 6.848660 2.739707 10053171
-3.272291 7.059911 1.542730 10053171
-3.319561 7.216100 0.012573 10053171
-3.227267 6.815450 1.477543 10053171
-4.635511 6.961757 1.556339 10053171
-4.944438 6.857056 0.147867 10053171
-6.817026 6.840528 1.550787 10053171
-5.533901 6.924481 0.146296 10053171
-6.938768 6.908344 1.422406 10053171
-4.200796 6.742156 1.301136 10053171
-6.379912 6.923283 0.233612 10053171
-3.342721 6.751502 2.845842 10053171
-4.121245 6.803387 1.412688 10053171
-4.742732 6.840546 1.925763 10053171
-6.173975 6.778921 0.135839 10053171
-5.202129 7.140361 1.837164 10053171
-6.257516 7.114887 2.274471 10053171
-5.146001 7.077667 1.357061 10053171
-6.479165 6.917789 1.321802 10053171
-5.480032 7.092371 0.288494 10053171
-4.971106 7.189756 1.797915 10053171
-3.860851 6.994090 1.651972 10053171
-5.414793 7.080979 2.706747 10053171
-5.704466 7.067609 2.975434 10053171
-6.814444 7.143016 0.802468 10053171
-4.898499 7.168205 1.132254 10053171
-6.969796 6.939068 0.266783 10053171
-6.718531 6.982248 1.042163 10053171
-4.306515 6.789241 1.934668 10053171
-3.998998 7.162875 0.076287 10053171
-3.115810 7.035893 1.331440 10053171
-3.880371 7.035332 0.416457 10053171
-3.103930 6.753123 1.727848 10053171
-3.465315 6.861197 0.328037 10053171
-6.642715 7.093712 1.224168 10053171
-4.089100 7.141840 0.742047 10053171
-3.777453 7.023057 2.060122 10053171
-3.791275 7.015306 1.257120 10053171
-4.638911 7.127690 2.663851 10053171
-4.589964 7.214159 2.346926 10053171
-6.252897 7.134477 0.900832 10053171
-3.100878 6.890135 0.014247 10053171
-4.400157 6.764427 0.513326 10053171
-5.181781 7.037835 2.849868 10053171
-5.322370 6.999127 2.478756 10053171
-3.679385 7.236906 1.070132 10053171
-4.842827 6.784811 0.097748 10053171
-4.738166 7.132777 0.906921 10053171
-4.077511 6.875829 1.492748 10053171
-3.540011 6.969135 0.971147 10053171
-6.971578 7.123914 0.907214 10053171
-3.908076 6.936892 1.355842 10053171
-3.596141 6.932134 2.721376 10053171
-5.473264 6.845306 2.603921 10053171
-5.395673 6.767044 2.422469 10053171
-3.038276 6.809694 2.932482 10053171
-6.134112 6.823259 2.046568 10053171
-4.431242 7.142046 0.771251 10053171
-4.538480 7.026341 0.690043 10053171
-3.178571 7.213246 2.735615 10053171
-5.873958 7.217396 2.547057 10053171
-4.217183 6.890899 2.126505 10053171
-3.199377 6.933528 0.488042 10053171
-5.012381 6.832927 1.843192 10053171
-3.732761 6.965908 0.091658 10053171
-4.311673 7.213422 0.529016 10053171
-6.184997 6.863398 1.535025 10053171
-3.866559 7.192831 0.570819 10053171
-5.453693 6.789965 1.456704 10053171
-3.205198 6.811690 2.186097 10053171
-3.458695 6.962534 0.320968 10053171
-3.934773 7.261034 2.047518 10053171
-6.165256 7.202507 0.276498 10053171
-6.579787 6.899052 0.542578 10053171
-4.617195 6.884718 1.216944 10053171
-5.147675 6.789522 0.013038 10053171
-5.451844 6.816494 0.512692 10053171
-3.758519 6.781679 0.415955 10053171
-5.343716 7.204381 0.683180 10053171
-3.211355 7.182284 1.372571 10053171
-4.925388 6.770467 2.540306 10053171
-6.732562 7.141428 1.628060 10053171
-4.815994 6.795115 1.177428 10053171
-4.075547 7.048896 1.650732 10053171
-4.079796 7.027967 1.593439 10053171
-3.493591 6.930780 2.933664 10053171
-4.075984 7.152848 2.901810 10053171
-6.607143 6.911095 1.738369 10053171
-5.187019 7.037626 1.684480 10053171
-5.099956 7.166799 2.138091 10053171
-4.512959 6.875731 0.035534 10053171
-5.349953 6.754041 2.578037 10053171
-5.170743 6.780996 1.365051 10053171
-4.076551 6.878598 0.700185 10053171
-4.389660 7.053422 1.035782 10053171
-5.225680 7.130507 0.688181 10053171
-3.763312 6.769528 1.905274 10053171
-3.658634 7.255966 2.724738 10053171
-3.377527 7.118885 0.982901 10053171
-4.058624 7.206499 2.648435 10053171
-3.117476 7.168732 2.871202 10053171
-3.575822 7.020121 1.656618 10053171
-5.323020 7.114531 0.091263 10053171
-3.914518 6.934385 2.295346 10053171
-6.414117 7.034593 2.540953 10053171
-3.109688 7.102173 2.771739 10053171
-4.837682 7.177205 0.119466 10053171
-5.882933 6.883198 0.147496 10053171
-4.282463 7.058894 0.584715 10053171
-4.613785 7.143550 -0.000048 10053171
-6.621178 7.205483 1.352635 10053171
-6.030084 6.947072 0.106222 10053171
-5.819819 6.781077 2.920573 10053171
-4.467859 7.048983 2.849328 10053171
-5.623881 7.213196 2.555430 10053171
-3.119066 6.972720 0.601779 10053171
-5.758600 6.951314 0.598942 10053171
-4.083587 7.119006 1.524375 10053171
-4.672644 6.759719 1.672115 10053171
-4.958879 7.126878 1.226526 10053171
-4.431407 6.957917 0.510978 10053171
-5.289536 7.240087 0.331133 10053171
-3.866786 6.945240 0.824438 10053171
-4.253364 6.926533 2.658419 10053171
-5.241723 7.105270 1.716074 10053171
-3.030058 6.970992 0.236983 10053171
-5.442544 6.868441 1.049555 10053171
-6.603514 7.058926 2.724400 10053171
-5.117934 6.813440 1.638037 10053171
-3.040398 6.898607 0.749388 10053171
-6.563286 6.988899 1.176096 10053171
-3.075292 6.989922 0.218364 10053171
-6.270672 7.235057 1.897356 10053171
-3.685607 6.923959 1.358318 10053171
-4.164448 7.126705 0.201815 10053171
-3.854584 7.159534 1.805990 10053171
-4.162378 7.012252 1.329498 10053171
-3.110403 6.808338 0.730126 10053171
-5.585509 7.227404 0.132614 10053171
-5.680547 7.021371 2.810750 10053171
-4.811618 6.936522 1.812159 10053171
-5.951887 7.167191 2.051165 10053171
-3.332825 7.104134 0.997874 10053171
-6.488948 6.810804 0.709094 10053171
-6.578383 7.065499 1.927231 10053171
-3.747231 6.844093 0.021677 10053171
-4.630307 7.138142 2.046879 10053171
-5.606873 6.771197 2.666405 10053171
-3.988262 7.104671 0.455245 10053171
-3.917194 6.773837 1.643681 10053171
-5.388227 7.022821 0.795560 10053171
-4.829826 6.831039 1.748331 10053171
-5.785757 6.937511 1.078259 10053171
-6.619461 6.846404 0.158253 10053171
-4.506828 6.967147 1.702997 10053171
-3.705723 7.092956 2.787750 10053171
-5.707371 6.867117 0.078141 10053171
-5.669223 7.043678 0.387393 10053171
-4.242091 6.860609 0.870196 10053171
-5.868847 6.840489 2.056697 10053171
-4.912888 6.820716 2.888628 10053171
-3.168493 6.988128 2.039333 10053171
-3.605666 6.933430 1.073403 10053171
-4.802236 7.117791 2.857085 10053171
-4.529397 7.156154 1.487305 10053171
-3.456891 7.099450 1.067893 10053171
-3.132437 7.175683 0.511219 10053171
-5.406672 7.105267 0.824197 10053171
-6.665398 6.977246 2.590374 10053171
-3.279189 6.916768 2.399071 10053171
-5.846369 7.144318 2.050549 10053171
-4.689713 6.926485 1.454604 10053171
-4.285340 6.833294 2.126297 10053171
-3.020266 6.763230 2.446364 10053171
-3.047279 7.000420 1.077126 10053171
-4.378960 7.190079 0.311646 10053171
-5.492958 7.228698 2.282541 10053171
-5.612849 7.126557 1.094880 10053171
-3.874485 6.903129 1.846343 10053171
-4.669588 7.093804 2.916544 10053171
-4.727153 7.175020 2.686321 10053171
-6.291096 7.046474 1.580833 10053171
-3.114211 7.206627 0.309377 10053171
-4.517628 6.868478 2.790164 10053171
-3.038085 6.922000 1.102216 10053171
-4.440563 7.268311 2.840428 10053171
-5.011003 6.925211 2.698393 10053171
-3.204345 6.975307 0.521711 10053171
-5.981905 6.820078 0.800829 10053171
-4.678372 7.154449 0.324920 10053171
-3.015240 7.059890 0.538605 10053171
-5.440408 6.895957 1.101029 10053171
-3.919006 6.790075 0.627222 10053171
-6.070948 6.979885 2.730164 10053171
-3.301845 6.924391 0.549742 10053171
-5.733050 6.761228 2.843710 10053171
-4.183410 6.823733 0.635366 10053171
-6.597789 6.986017 2.950659 10053171
-6.933848 7.221739 2.526206 10053171
-6.907689 7.202127 0.723103 10053171
-5.268877 7.001138 2.433439 10053171
-5.216204 6.978282 1.278907 10053171
-3.180671 7.155376 1.889649 10053171
-6.394571 6.959722 1.717124 10053171
-4.061471 6.848992 0.132654 10053171
-3.515498 6.884577 0.008296 10053171
-6.095445 6.890067 1.918952 10053171
-3.107062 7.084015 0.797422 10053171
-3.565852 7.041448 2.732736 10053171
-4.248806 7.035715 2.637076 10053171
-3.435343 6.897426 2.411743 10053171
-5.120845 6.903911 2.900877 10053171
-4.441425 7.112909 1.037590 10053171
-6.603026 6.839387 2.030710 10053171
-3.832145 6.861781 2.273480 10053171
-3.538042 6.992916 1.035043 10053171
-4.277195 6.756471 0.882320 10053171
-3.859718 7.025598 1.006530 10053171
-5.357549 6.964693 2.070110 10053171
-3.232285 6.856804 0.487568 10053171
-3.405066 7.250471 0.656382 10053171
-6.353523 6.748375 1.230830 10053171
-5.817142 7.215145 1.594840 10053171
-3.790162 6.886682 0.804126 10053171
-6.552863 6.879311 1.596949 10053171
-4.358593 6.806855 0.962469 10053171
-5.638506 6.919827 0.082386 10053171
-4.398170 7.010097 1.190645 10053171
-4.188247 6.901215 2.109067 10053171
-3.252125 7.176175 1.295653 10053171
-3.765098 7.219631 2.655017 10053171
-5.887558 6.812034 0.040973 10053171
-5.668376 6.799520 1.571943 10053171
-4.943368 6.945064 2.484407 10053171
-6.075236 7.065115 1.122289 10053171
-6.768825 7.247532 2.120426 10053171
-5.483716 6.860582 1.240784 10053171
-6.175545 6.911602 2.926737 10053171
-5.554788 6.776383 2.400302 10053171
-4.515768 7.174493 1.552432 10053171
-5.288965 6.882325 0.617619 10053171
-6.027061 7.230362 1.491448 10053171
-3.510015 6.842966 2.529768 10053171
-5.673452 6.956171 2.267656 10053171
-6.068927 6.962513 1.439872 10053171
-6.578516 6.885255 1.232911 10053171
-6.773471 7.065843 2.610859 10053171
-6.551003 6.879870 1.827766 10053171
-6.057261 6.981968 2.786985 10053171
-4.214215 7.177567 2.786458 10053171
-4.896341 7.067584 2.181502 10053171
-4.861536 7.145871 0.057550 10053171
-4.085918 6.849441 1.580369 10053171
-6.985136 7.246983 0.325164 10053171
-5.479058 7.156158 0.024444 10053171
-3.514061 6.808937 0.737756 10053171
-6.071486 6.802813 0.905765 10053171
-3.545455 6.807677 2.860612 10053171
-3.546059 7.189205 0.906663 10053171
-5.210983 6.824754 2.967252 10053171
-6.950048 6.863302 2.314023 10053171
-4.314768 6.866624 0.566672 10053171
-4.574649 6.872264 0.887158 10053171
-3.498131 6.837200 0.305316 10053171
-6.416690 6.987864 1.150476 10053171
-5.290895 7.242994 1.670005 10053171
-4.218931 7.170909 1.715140 10053171
-5.724402 7.100393 0.930885 10053171
-4.624754 6.949075 2.954869 10053171
-5.842155 7.032091 1.044989 10053171
-5.184083 7.140689 0.287486 10053171
-4.823121 6.857739 2.724235 10053171
-3.329464 6.998285 0.797631 10053171
-3.894959 7.020315 1.811445 10053171
-5.772804 7.001889 1.297706 10053171
-3.323068 6.975159 1.646003 10053171
-2.986983 7.243865 0.810494 10053171
-3.184484 7.195781 2.765559 10053171
-3.165749 7.181414 2.314479 10053171
-6.061101 6.939320 2.250050 10053171
-6.819915 7.056086 2.064142 10053171
-4.071467 6.799995 1.168133 10053171
-3.179468 7.232683 1.669518 10053171
-6.923950 7.153037 1.478402 10053171
-4.304341 6.920784 1.109424 10053171
-5.302696 7.036472 0.109551 10053171
-6.813674 7.158904 2.873683 10053171
-4.204761 6.820600 2.437206 10053171
-3.455417 7.038646 2.658788 10053171
-3.074954 6.781183 1.136690 10053171
-3.501850 7.215200 0.569007 10053171
-3.465200 6.970862 2.309684 10053171
-4.104387 7.077014 2.683801 10053171
-3.733213 7.061460 2.908486 10053171
-5.757286 6.915149 0.480857 10053171
-4.750155 7.121805 1.550681 10053171
5.900696 -5.987357 1.153684 8342706
6.109605 -5.722382 1.793441 8342706
5.439056 -6.064354 3.637377 8342706
6.159520 -6.493681 0.559070 8342706
5.451494 -6.211335 3.031353 8342706
6.167353 -6.463809 4.076217 8342706
6.365510 -6.060697 4.888833 8342706
6.209366 -5.628259 0.325598 8342706
6.010637 -6.172492 4.002923 8342706
6.184033 -5.974239 0.482815 8342706
5.586284 -5.661827 2.013307 8342706
6.153122 -6.421586 3.304200 8342706
6.532948 -5.804878 4.849504 8342706
6.043028 -5.621480 2.410532 8342706
6.480860 -5.952595 1.309530 8342706
6.098765 -6.215513 2.943911 8342706
6.511137 -5.889752 0.295272 8342706
6.326950 -6.419941 2.968568 8342706
6.294967 -5.498080 2.219043 8342706
6.452594 -6.372114 2.657334 8342706
6.174183 -6.105358 2.962223 8342706
6.274523 -5.583159 2.048184 8342706
5.624377 -6.286650 3.515478 8342706
5.811161 -5.556478 0.188348 8342706
5.653064 -5.762528 0.511366 8342706
6.496650 -5.814573 1.390978 8342706
6.047566 -5.424062 0.776044 8342706
6.218434 -6.305007 1.494488 8342706
6.425840 -6.143620 1.591422 8342706
6.542455 -6.033273 3.497957 8342706
5.592591 -6.167401 3.399979 8342706
5.849530 -6.184413 4.716350 8342706
5.777334 -5.518202 2.029666 8342706
6.339928 -5.766210 2.886833 8342706
6.261188 -5.950853 3.530080 8342706
5.464132 -6.105364 0.539625 8342706
6.401252 -5.817293 1.986273 8342706
5.894167 -5.791709 1.731618 8342706
5.747424 -5.856110 3.138438 8342706
5.651700 -6.171124 1.851195 8342706
5.818841 -5.528781 0.785595 8342706
6.470487 -6.080702 0.410759 8342706
5.995192 -6.143496 4.295210 8342706
5.584014 -6.185057 4.555964 8342706
5.754360 -5.760496 4.153549 8342706
5.753201 -5.924991 3.110559 8342706
6.035221 -5.991976 1.432707 8342706
6.412833 -6.288105 2.014972 8342706
5.653403 -5.722903 3.084006 8342706
6.275856 -6.084053 3.897796 8342706
5.411413 -5.980929 4.577102 8342706
5.950942 -5.449503 4.475155 8342706
5.491739 -5.956454 3.234505 8342706
6.427996 -5.958332 1.947293 8342706
6.158579 -6.488220 4.279431 8342706
6.375818 -5.860777 1.187836 8342706
5.393682 -5.961665 2.336585 8342706
5.503538 -5.759771 4.319961 8342706
6.440085 -5.995486 3.008194 8342706
6.104584 -5.677585 4.840232 8342706
6.273251 -5.878009 2.109739 8342706
5.812200 -5.472325 2.077142 8342706
5.889020 -6.352113 3.551473 8342706
6.007802 -5.500524 3.518509 8342706
5.761474 -6.034741 4.513795 8342706
5.863472 -6.089888 1.745990 8342706
6.167699 -5.738826 1.996806 8342706
6.159461 -6.298160 1.953153 8342706
5.785812 -6.243319 1.518761 8342706
5.600677 -6.227460 1.061283 8342706
5.858677 -6.368414 1.257195 8342706
5.977039 -5.944822 3.009149 8342706
6.068325 -6.135876 4.736851 8342706
5.783000 -5.804638 0.604536 8342706
5.732839 -6.064509 2.491756 8342706
5.967896 -6.003771 3.169574 8342706
5.484737 -6.189916 1.914536 8342706
6.084872 -5.608222 0.153562 8342706
6.439215 -5.941684 1.230323 8342706
6.556588 -6.076925 3.861394 8342706
6.041247 -6.198058 3.272143 8342706
5.568863 -5.670672 1.964247 8342706
6.109896 -6.275107 4.469855 8342706
6.132390 -5.582384 4.642858 8342706
6.441673 -5.671779 0.217385 8342706
5.976129 -6.182491 2.690299 8342706
6.248930 -5.967080 2.428126 8342706
5.504869 -6.170814 3.674618 8342706
6.046160 -6.312039 2.007070 8342706
5.891655 -6.348737 1.016646 8342706
6.196766 -6.404168 4.438628 8342706
5.562915 -5.925912 3.856685 8342706
5.687919 -6.390854 2.510271 8342706
6.114317 -6.502507 1.407051 8342706
5.831734 -5.886191 4.542331 8342706
5.601120 -5.765828 2.336952 8342706
6.445871 -5.843361 2.603196 8342706
6.098188 -6.438420 0.609928 8342706
5.576489 -6.141323 1.871328 8342706
6.313890 -6.040992 1.859251 8342706
6.566309 -6.052616 3.653445 8342706
5.663386 -6.373241 0.622858 8342706
5.679934 -6.469423 0.774325 8342706
6.211994 -6.017098 2.566955 8342706
5.635078 -6.022364 3.298803 8342706
5.754667 -5.581030 4.696185 8342706
5.768047 -6.260367 4.039601 8342706
5.654600 -5.839547 1.233078 8342706
6.420240 -5.971345 4.451741 8342706
5.823083 -5.615863 3.518791 8342706
6.012197 -5.810448 0.923354 8342706
6.156526 -6.377006 1.769798 8342706
6.158126 -5.793665 1.595348 8342706
5.970173 -5.758864 4.070521 8342706
6.033740 -6.200203 4.580206 8342706
5.785587 -6.149742 0.224779 8342706
5.915372 -5.655709 1.675172 8342706
6.177189 -5.622882 3.868835 8342706
5.700407 -5.973378 3.097664 8342706
5.799576 -6.183360 2.590919 8342706
5.675037 -5.849170 2.911410 8342706
5.621836 -6.261132 3.717356 8342706
5.906282 -6.577932 1.084849 8342706
6.138541 -5.785925 1.658170 8342706
6.299546 -6.312603 0.535567 8342706
6.356619 -5.692454 2.332214 8342706
6.147435 -5.580582 3.056009 8342706
5.692960 -5.682958 1.238295 8342706
6.002118 -5.729074 3.710174 8342706
6.211409 -6.028978 4.399629 8342706
6.493036 -6.104443 2.683267 8342706
6.334039 -6.153506 3.349355 8342706
5.682880 -6.316278 4.692397 8342706
6.278833 -5.536166 4.642317 8342706
5.973672 -6.217088 3.539981 8342706
5.770292 -5.661054 2.599571 8342706
6.088267 -6.572564 4.508024 8342706
5.537885 -5.760454 4.275625 8342706
5.542142 -6.148665 2.889761 8342706
6.099319 -5.635001 2.461334 8342706
5.703872 -5.899709 4.059444 8342706
5.863869 -5.444028 3.063518 8342706
6.501753 -5.811738 0.133184 8342706
6.068761 -5.451457 0.397063 8342706
6.381251 -5.728434 0.066519 8342706
6.071469 -5.762364 0.490007 8342706
5.662322 -5.726625 3.073428 8342706
6.340190 -6.234759 1.507498 8342706
6.117576 -5.788082 2.472594 8342706
5.778949 -6.162348 1.604663 8342706
5.982311 -6.192843 0.130922 8342706
5.860843 -6.052256 3.738919 8342706
5.730352 -6.149002 3.386108 8342706
6.300166 -6.238106 4.590790 8342706
6.312870 -6.470630 3.391988 8342706
6.010691 -6.549081 4.170006 8342706
6.007724 -5.663961 4.206702 8342706
5.697394 -5.617749 4.212444 8342706
6.195252 -5.878479 1.883456 8342706
5.502096 -6.241714 4.631794 8342706
5.906211 -6.327607 4.706605 8342706
6.031632 -6.442190 1.300461 8342706
6.105880 -5.617508 2.056250 8342706
5.937280 -6.213450 1.693878 8342706
6.032012 -6.033166 4.536082 8342706
6.097556 -5.631612 1.138265 8342706
6.136438 -6.307878 1.586401 8342706
5.741727 -5.740162 0.125097 8342706
6.333721 -6.182754 3.024137 8342706
6.100008 -5.572220 2.635641 8342706
6.260240 -5.872220 1.018820 8342706
5.609424 -6.062959 1.914533 8342706
5.738058 -5.672920 2.251510 8342706
5.792825 -5.629099 2.592330 8342706
5.515070 -5.938229 3.589970 8342706
6.021492 -5.818445 1.864676 8342706
5.703943 -5.884654 1.457362 8342706
5.748711 -6.276009 2.818796 8342706
5.994349 -6.312454 4.885150 8342706
5.999390 -6.436881 4.835554 8342706
6.099373 -5.588532 3.848176 8342706
5.634995 -5.585833 2.017436 8342706
6.547117 -6.043981 4.248194 8342706
5.667323 -5.602015 1.930124 8342706
6.103001 -6.458756 1.676193 8342706
5.600503 -6.233549 1.888801 8342706
6.335019 -5.911989 3.492017 8342706
6.487603 -5.814056 3.836842 8342706
6.454649 -6.098539 3.857675 8342706
6.137044 -5.846069 3.356353 8342706
6.153339 -6.382532 1.019647 8342706
5.671113 -6.145668 3.334354 8342706
6.512021 -6.312203 0.140815 8342706
6.364121 -6.076900 4.934417 8342706
5.441937 -5.924822 3.760371 8342706
6.482222 -6.039067 0.243134 8342706
6.237355 -5.667704 3.727879 8342706
6.110117 -6.005944 2.481334 8342706
6.268965 -5.996127 0.699520 8342706
6.430828 -5.964373 2.419544 8342706
6.083971 -6.502872 2.764306 8342706
6.391438 -6.086932 1.381548 8342706
6.200991 -5.650899 1.084661 8342706
6.252912 -5.591100 4.326857 8342706
6.178564 -6.466992 0.755489 8342706
5.638511 -6.042799 3.179439 8342706
6.516206 -5.791500 1.094666 8342706
6.190386 -5.787431 2.590675 8342706
5.996644 -6.083146 2.532995 8342706
6.384872 -5.692690 1.821771 8342706
5.990169 -6.124758 3.846746 8342706
6.497584 -5.998862 1.577454 8342706
5.494308 -6.277197 0.726170 8342706
5.805602 -6.360081 4.980880 8342706
6.475544 -5.799944 3.970484 8342706
6.240489 -6.023125 0.113326 8342706
6.283941 -5.820239 3.563249 8342706
6.492453 -6.086384 4.589944 8342706
5.921596 -6.035888 3.138102 8342706
6.382513 -6.258509 1.761899 8342706
6.044262 -5.454870 1.984063 8342706
5.401582 -5.959865 4.244150 8342706
6.105596 -6.089703 2.951519 8342706
6.259251 -5.943437 3.241294 8342706
5.660389 -6.190435 3.362811 8342706
6.146062 -6.360970 4.391963 8342706
6.094931 -5.516434 4.130383 8342706
5.931476 -5.849999 2.943598 8342706
5.420839 -6.126489 2.059835 8342706
6.321796 -6.427004 4.886353 8342706
5.622686 -6.400940 2.936823 8342706
6.306362 -6.341517 2.366576 8342706
6.435575 -5.804779 1.063194 8342706
6.446301 -5.862866 2.281561 8342706
5.985995 -5.503674 2.065752 8342706
6.214593 -5.774548 0.475542 8342706
5.907043 -6.279471 1.561573 8342706
6.391010 -5.774715 2.436208 8342706
6.381145 -5.539232 4.095592 8342706
6.461847 -6.172946 1.471565 8342706
6.160291 -5.812896 3.257429 8342706
5.730479 -6.389210 3.068797 8342706
6.280638 -5.575375 4.465887 8342706
6.032376 -5.902026 0.779051 8342706
5.583540 -6.372612 4.409191 8342706
5.609982 -5.751636 4.259202 8342706
6.198222 -5.846166 1.364514 8342706
5.710367 -5.804304 1.061328 8342706
5.877476 -6.106872 0.617058 8342706
6.192638 -5.449512 1.196887 8342706
6.290487 -5.509273 1.177974 8342706
5.664573 -6.255212 4.282605 8342706
5.946254 -6.073825 4.956021 8342706
6.227326 -5.571416 3.746313 8342706
5.674546 -6.041649 4.266284 8342706
6.079675 -6.563046 4.281651 8342706
5.711027 -5.722968 3.968366 8342706
5.560225 -6.088006 3.774808 8342706
6.215695 -6.417604 1.031277 8342706
6.557709 -5.955092 0.487747 8342706
6.007660 -5.548827 2.931459 8342706
6.202692 -6.396691 1.661501 8342706
5.491395 -6.207425 3.931554 8342706
5.591646 -6.452321 2.807063 8342706
5.774930 -5.493899 2.257247 8342706
6.529208 -6.223078 2.071424 8342706
6.062002 -6.351804 0.532884 8342706
5.430299 -5.866531 2.592083 8342706
5.834828 -5.664655 2.553968 8342706
6.308950 -6.077448 0.237627 8342706
6.046443 -5.600871 4.351779 8342706
6.518547 -6.291380 4.431199 8342706
5.833071 -6.385753 4.403843 8342706
5.473080 -5.786210 4.313755 8342706
5.956883 -5.498184 1.526556 8342706
6.522726 -6.225481 4.020769 8342706
6.386302 -6.161890 1.422405 8342706
5.832188 -6.187080 3.747307 8342706
6.112168 -6.321018 1.917492 8342706
5.545434 -5.626650 3.387285 8342706
5.788217 -6.451518 3.540577 8342706
5.526403 -5.678088 3.923663 8342706
6.173264 -5.553799 0.049140 8342706
6.355075 -5.948629 2.647470 8342706
6.380864 -6.098673 1.752849 8342706
5.793498 -5.803522 3.221648 8342706
6.027236 -5.806046 3.174430 8342706
6.322083 -6.051430 2.036798 8342706
6.350945 -5.810461 2.193330 8342706
6.061676 -5.807525 0.095529 8342706
5.817921 -6.069501 0.108428 8342706
6.220688 -6.433783 0.901133 8342706
6.337667 -6.464658 0.738663 8342706
6.161475 -6.365585 4.226862 8342706
5.871740 -6.512882 1.825587 8342706
5.654379 -5.903386 0.986621 8342706
5.763970 -5.664456 2.702343 8342706
6.176643 -5.734779 0.425690 8342706
6.090548 -5.425170 2.107074 8342706
5.993508 -6.500067 1.073225 8342706
6.241588 -5.556073 1.284834 8342706
6.436753 -5.675756 3.613453 8342706
6.477901 -6.235776 0.315148 8342706
5.769446 -5.937856 4.014729 8342706
6.173214 -6.123272 1.736159 8342706
6.100325 -6.252913 3.255159 8342706
5.606187 -6.260081 3.683958 8342706
6.534057 -6.157200 1.858924 8342706
6.258451 -6.215618 1.690465 8342706
5.553417 -5.789362 2.482790 8342706
6.378118 -6.391535 2.031905 8342706
6.113753 -6.220967 3.584787 8342706
6.166308 -6.596805 4.287289 8342706
6.423347 -6.381288 3.694129 8342706
6.139229 -5.564876 2.023386 8342706
6.081922 -5.464746 0.893983 8342706
6.142013 -6.442278 1.164462 8342706
5.686616 -6.046567 0.109917 8342706
5.855647 -5.586258 2.601778 8342706
5.782705 -6.361221 2.636022 8342706
6.111917 -5.485980 3.479812 8342706
5.781450 -6.260305 3.360128 8342706
6.317270 -6.323092 1.106039 8342706
5.800235 -6.540061 4.737829 8342706
6.231658 -5.663160 4.912057 8342706
6.004643 -6.492021 1.861459 8342706
5.674662 -5.779289 0.300543 8342706
6.293543 -5.542599 4.289478 8342706
5.600698 -5.868097 4.373255 8342706
6.236685 -5.586057 0.491531 8342706
6.287498 -6.357143 4.025989 8342706
6.191792 -6.555489 0.573746 8342706
6.184339 -5.841450 1.030570 8342706
6.442642 -6.146682 2.751540 8342706
6.040194 -6.396613 3.721802 8342706
5.999840 -5.555931 2.038007 8342706
6.458284 -6.185831 3.309333 8342706
6.111830 -5.441251 0.247383 8342706
5.476116 -5.706846 4.370324 8342706
6.173683 -6.343099 1.663472 8342706
6.430017 -5.600782 1.853910 8342706
5.877503 -6.119344 0.914158 8342706
6.364341 -5.602762 3.684020 8342706
5.626279 -6.131415 3.759182 8342706
6.517876 -5.903348 1.179929 8342706
5.730908 -5.998889 2.433508 8342706
6.249921 -6.361613 2.941281 8342706
5.718866 -6.383587 4.097481 8342706
6.034165 -6.299040 3.885411 8342706
6.391112 -5.543074 4.937231 8342706
6.506172 -6.249033 4.672019 8342706
6.016634 -5.930430 3.871405 8342706
6.177796 -6.370597 4.346027 8342706
5.733342 -6.206983 2.000606 8342706
6.440100 -5.893889 2.106295 8342706
6.435311 -5.997372 2.217498 8342706
5.852998 -5.446703 1.057749 8342706
6.483955 -5.805200 0.281246 8342706
5.875129 -5.468972 1.404689 8342706
6.235541 -5.714827 4.826130 8342706
5.991059 -5.660154 1.237436 8342706
6.482440 -5.796261 2.257645 8342706
5.789454 -6.215168 3.683549 8342706
6.267787 -6.215510 1.529392 8342706
5.970005 -6.409185 3.982742 8342706
6.002313 -5.833953 2.293392 8342706
6.159596 -6.083769 4.114861 8342706
6.138784 -6.398775 4.352047 8342706
6.274478 -5.614473 4.733076 8342706
6.366422 -5.813774 3.612738 8342706
5.991345 -5.790318 3.153873 8342706
6.530515 -5.886321 3.042222 8342706
6.290014 -5.867605 2.859178 8342706
6.278473 -6.322246 1.990021 8342706
5.745153 -5.683050 3.602358 8342706
5.709507 -5.722111 3.077559 8342706
6.261343 -5.977913 1.449930 8342706
6.399567 -6.217075 1.074727 8342706
5.834775 -5.596513 2.980410 8342706
5.501911 -5.908570 0.115230 8342706
5.664280 -5.667289 0.433812 8342706
5.593542 -5.592690 2.880985 8342706
6.010956 -5.483099 2.139511 8342706
5.533339 -6.117600 1.882292 8342706
6.126729 -5.504624 3.470032 8342706
5.441425 -5.891252 4.588559 8342706
5.463183 -5.775119 2.958917 8342706
6.191498 -6.313896 1.869383 8342706
5.549625 -6.380821 0.857604 8342706
5.890315 -6.499439 1.622156 8342706
6.093334 -6.326533 3.423193 8342706
5.964430 -6.481054 4.599067 8342706
6.343087 -6.167275 0.795072 8342706
6.505325 -6.329149 1.447656 8342706
6.570284 -5.910388 3.407442 8342706
5.568533 -6.079452 1.102443 8342706
6.268949 -6.306841 1.959377 8342706
6.155361 -6.297904 2.960210 8342706
6.079287 -6.522089 4.971205 8342706
5.972078 -6.457905 0.622420 8342706
6.292555 -5.789572 1.743989 8342706
6.400034 -5.923053 1.289769 8342706
6.216196 -6.405594 0.455587 8342706
6.300114 -6.119519 2.904348 8342706
6.481464 -6.145926 0.091715 8342706
6.085588 -5.658439 1.222641 8342706
6.475897 -6.256329 4.309680 8342706
6.464146 -5.646925 4.786756 8342706
6.520188 -6.160695 3.632802 8342706
6.337083 -6.325526 1.588174 8342706
5.749481 -6.284715 0.417377 8342706
6.168733 -5.564034 2.693493 8342706
6.234841 -6.027002 3.851561 8342706
6.315450 -5.841417 0.386558 8342706
6.196472 -5.853534 3.960969 8342706
5.798014 -6.407912 3.276803 8342706
6.401844 -6.204635 0.002175 8342706
6.329370 -5.738536 1.354256 8342706
6.296676 -6.006767 4.228047 8342706
6.337002 -6.087438 2.021146 8342706
5.781302 -5.572901 4.377767 8342706
5.823804 -6.016540 0.865662 8342706
6.035404 -5.739056 4.184549 8342706
5.533929 -5.729006 3.983902 8342706
6.472188 -6.138195 1.753182 8342706
6.302691 -6.441105 1.713069 8342706
6.256872 -6.216862 4.636616 8342706
5.542947 -6.332541 1.239168 8342706
6.013253 -6.232666 3.460459 8342706
6.220521 -5.581875 3.776094 8342706
6.031553 -6.571240 3.668751 8342706
5.940054 -6.017695 1.733655 8342706
5.801683 -5.627241 2.747692 8342706
6.156350 -6.319571 0.916831 8342706
6.194241 -5.989719 3.897662 8342706
6.114716 -6.293841 1.967431 8342706
5.744811 -6.130902 1.039356 8342706
6.573719 -6.010618 1.765673 8342706
5.738166 -6.101197 4.288943 8342706
6.463437 -5.773141 1.033942 8342706
5.569069 -5.869198 0.753012 8342706
6.321160 -5.996727 5.006066 8342706
6.185324 -6.555986 4.138677 8342706
6.064217 -6.392166 4.711955 8342706
5.985757 -5.804619 1.379685 8342706
6.525399 -6.147548 4.979384 8342706
6.146328 -6.086350 1.662560 8342706
5.820655 -5.968568 2.061439 8342706
5.727074 -5.962623 3.040684 8342706
6.495650 -6.249203 4.088939 8342706
5.478071 -5.869737 3.596894 8342706
6.158120 -6.087447 0.989870 8342706
5.888628 -6.269619 1.897230 8342706
5.950062 -5.658243 2.382546 8342706
6.313493 -6.278740 0.093801 8342706
5.811318 -5.583946 4.548473 8342706
5.989229 -5.468224 4.068321 8342706
5.761319 -5.451385 3.549321 8342706
6.408649 -6.364199 1.550200 8342706
5.498287 -6.023916 4.727510 8342706
6.060061 -6.510002 0.113502 8342706
6.503796 -5.949970 1.507305 8342706
6.357584 -5.543367 3.367927 8342706
5.764153 -5.891397 0.838634 8342706
6.016942 -5.996455 0.894732 8342706
5.634817 -5.907879 2.210991 8342706
5.730502 -5.612351 2.280005 8342706
5.766253 -6.111989 3.531757 8342706
6.338436 -5.503153 1.123659 8342706
5.640233 -5.780703 4.796347 8342706
5.885730 -5.787373 0.090609 8342706
5.643954 -6.463983 2.449052 8342706
5.859549 -6.459764 3.631675 8342706
6.042963 -6.619293 0.568353 8342706
6.033482 -5.690348 1.735397 8342706
6.080182 -5.899051 1.775838 8342706
6.158058 -5.767730 4.139619 8342706
5.478436 -6.267809 4.945474 8342706
6.566741 -5.841318 2.151763 8342706
6.242416 -6.449831 3.893175 8342706
6.233316 -5.715083 2.525531 8342706
6.227562 -6.351559 2.397563 8342706
6.073872 -5.636699 4.502484 8342706
5.636110 -6.297668 3.461406 8342706
5.980292 -6.442284 2.704728 8342706
6.581128 -6.095559 0.443730 8342706
5.701438 -5.661393 4.779832 8342706
6.296670 -5.778265 0.271305 8342706
5.946103 -5.738104 4.686115 8342706
6.061887 -5.547960 2.411834 8342706
6.370596 -5.935188 1.857381 8342706
5.869609 -6.318427 3.405630 8342706
6.080546 -5.695850 4.224640 8342706
6.456445 -5.814427 0.475399 8342706
6.384298 -5.760649 4.593432 8342706
6.263535 -6.044703 2.741455 8342706
6.334387 -6.242210 0.705238 8342706
5.449417 -6.023855 2.425200 8342706
5.700441 -5.934923 4.316028 8342706
6.267285 -5.907060 4.813230 8342706
6.292210 -5.558590 1.376379 8342706
5.829153 -6.262587 4.065208 8342706
6.437689 -5.696183 4.614492 8342706
5.863789 -5.503377 4.358535 8342706
5.687198 -5.852620 0.472267 8342706
6.420717 -5.831002 3.454424 8342706
6.364734 -5.750798 0.655613 8342706
5.686275 -6.094435 0.757253 8342706
