# .PCD v0.7 - Point Cloud Data file format
VERSION 0.7
FIELDS x y z rgb
SIZE 4 4 4 4
TYPE F F F U
COUNT 1 1 1 1
WIDTH 1287
HEIGHT 1
VIEWPOINT 0 0 0 1 0 0 0
POINTS 1287
DATA ascii
0.796576 13.498562 1.640907 15014169
0.668805 14.024368 0.599466 15014169
0.363324 13.707118 0.614518 15014169
0.913052 13.560728 1.336630 15014169
0.605256 13.553354 1.335804 15014169
0.383922 14.032372 1.634702 15014169
0.979572 13.703158 0.311810 15014169
1.022821 13.651723 1.288004 15014169
0.596313 13.424204 1.490949 15014169
0.789955 13.956599 1.064729 15014169
0.938749 14.061309 0.315478 15014169
0.382823 13.584430 0.487425 15014169
0.811189 13.711286 1.537675 15014169
0.452888 13.719263 0.328483 15014169
0.818307 13.759099 0.495319 15014169
0.943837 14.065458 0.401848 15014169
0.351047 13.736519 1.145723 15014169
0.544387 13.885319 0.618183 15014169
0.693690 13.805689 0.921690 15014169
0.438715 13.573487 0.499224 15014169
0.545883 13.591370 1.045396 15014169
0.711581 13.740539 0.739429 15014169
0.720149 14.014391 1.489891 15014169
0.418239 13.633954 0.870216 15014169
0.812675 13.919501 0.937580 15014169
0.604183 13.983207 1.047524 15014169
0.982386 13.467002 0.818446 15014169
1.015481 13.909697 1.549406 15014169
0.499618 13.932701 0.577376 15014169
0.707823 13.597521 0.917140 15014169
0.887729 13.648081 1.186682 15014169
0.636195 14.054564 1.235403 15014169
0.781913 13.684539 1.031643 15014169
0.365914 13.484924 1.607763 15014169
0.397123 14.063029 1.301785 15014169
0.755105 13.952383 0.490340 15014169
0.891573 13.932996 1.077737 15014169
0.673103 13.765507 0.927810 15014169
0.898109 13.609956 0.417736 15014169
0.997782 13.747883 1.358695 15014169
0.817093 13.805118 0.493936 15014169
0.506653 13.746678 1.073494 15014169
0.890810 13.623151 0.847940 15014169
0.964375 14.020049 0.445168 15014169
0.447241 13.874250 1.094417 15014169
1.020380 13.952847 1.430771 15014169
0.498726 13.788998 1.181718 15014169
0.342431 13.790317 0.935940 15014169
0.589834 13.621535 1.567320 15014169
0.350442 13.655418 0.710172 15014169
0.993676 13.421024 0.942915 15014169
0.571277 13.888945 1.268917 15014169
0.802951 14.040238 1.619634 15014169
0.384039 13.498865 0.349236 15014169
0.969680 14.112521 0.835949 15014169
0.402938 13.509375 1.545883 15014169
0.640731 13.566416 1.177240 15014169
0.884834 13.752818 0.359215 15014169
0.589523 14.011921 0.454550 15014169
0.397336 13.965470 0.497145 15014169
0.423123 13.612854 0.717354 15014169
0.581843 13.965364 0.658579 15014169
0.415663 13.503407 0.778042 15014169
0.485639 14.005903 1.152950 15014169
0.527463 14.122971 0.891544 15014169
0.953409 13.623420 0.729191 15014169
1.021343 13.489682 1.529400 15014169
0.992645 13.650246 1.574480 15014169
0.973564 14.129693 0.457356 15014169
0.736764 13.980350 1.321456 15014169
0.910953 13.440504 1.618708 15014169
0.421359 13.437470 1.706952 15014169
0.471931 13.999218 0.303622 15014169
0.354917 13.459048 1.189259 15014169
0.482742 13.734921 1.631214 15014169
0.489313 13.563692 0.965267 15014169
0.519548 13.795848 0.925241 15014169
0.544292 13.435601 1.351597 15014169
0.934827 13.658447 0.954204 15014169
0.382567 13.950149 0.627926 15014169
0.428729 13.520924 0.589619 15014169
0.833195 13.737747 1.264507 15014169
0.444845 13.568084 1.446109 15014169
0.325107 13.576763 1.483217 15014169
0.826505 13.602254 1.457433 15014169
0.439698 13.806458 1.160057 15014169
1.009655 13.890322 0.781598 15014169
0.696892 13.583311 1.670989 15014169
0.619751 13.484487 1.665928 15014169
0.956383 13.804635 0.349370 15014169
0.923072 14.059084 1.195525 15014169
0.525945 14.078821 0.327662 15014169
0.547917 13.678167 1.480725 15014169
0.330224 13.880756 1.087760 15014169
0.572063 13.480650 0.501101 15014169
0.798391 13.441900 0.398298 15014169
0.642272 13.792120 0.324279 15014169
0.723418 13.493052 0.462307 15014169
0.812497 13.641133 1.406627 15014169
1.474727 -10.622738 0.464767 1645029
1.477611 -10.313133 1.229423 1645029
0.985948 -10.842162 1.046453 1645029
1.197970 -10.582685 1.017781 1645029
1.274761 -10.516032 1.206932 1645029
1.226929 -10.531374 1.491614 1645029
1.242935 -10.482332 0.615749 1645029
1.137885 -10.355763 1.265602 1645029
1.359103 -10.561762 0.933321 1645029
1.301900 -10.994699 0.607094 1645029
1.842338 -10.728364 1.066885 1645029
1.613675 -10.958382 1.268139 1645029
1.130720 -10.723064 0.591578 1645029
1.785897 -10.849625 1.218164 1645029
1.163357 -10.696410 0.836714 1645029
0.968997 -10.425755 1.139716 1645029
0.882306 -10.946439 0.955327 1645029
1.495907 -10.337294 1.158032 1645029
1.590714 -10.501175 1.317447 1645029
1.344932 -10.793194 0.898935 1645029
1.550641 -10.905653 1.160082 1645029
1.140750 -10.905786 1.322224 1645029
1.481391 -10.400730 1.275230 1645029
1.293866 -11.028816 0.692115 1645029
1.427699 -11.142307 0.778013 1645029
1.200148 -10.457758 1.139882 1645029
1.427030 -10.941397 0.853959 1645029
1.255080 -10.667609 0.912874 1645029
1.658398 -10.650219 1.035565 1645029
1.591412 -10.781363 1.125175 1645029
1.143016 -10.861680 0.846319 1645029
0.979407 -10.660335 0.646874 1645029
1.128129 -10.656432 1.325679 1645029
1.155030 -10.663896 0.912750 1645029
1.696821 -10.977229 0.948601 1645029
1.318130 -10.666822 1.058049 1645029
1.382964 -10.288591 1.073647 1645029
0.852093 -10.979780 1.070454 1645029
1.367734 -10.641876 1.167112 1645029
1.113701 -11.017250 1.091534 1645029
1.143929 -10.860169 0.502661 1645029
0.931377 -10.728512 0.864653 1645029
1.571464 -10.858439 1.130931 1645029
1.338820 -10.759896 1.213624 1645029
1.192363 -10.550681 0.670932 1645029
1.462300 -10.590296 0.671592 1645029
1.454679 -10.314639 1.008758 1645029
1.421709 -10.681343 0.876189 1645029
1.239898 -10.710420 0.668397 1645029
1.609574 -11.002353 0.807728 1645029
1.212458 -11.124484 0.966368 1645029
1.712046 -10.763207 0.973093 1645029
1.274951 -10.872988 0.826030 1645029
1.157241 -11.007929 1.360006 1645029
1.257225 -10.577241 0.501456 1645029
1.760237 -10.738704 1.273312 1645029
1.030160 -10.393622 0.751543 1645029
1.025793 -10.519180 0.667336 1645029
1.414213 -11.154670 0.893828 1645029
1.065130 -10.868325 0.869566 1645029
1.335552 -11.141051 0.948688 1645029
1.453974 -10.795098 0.962445 1645029
1.039679 -10.829042 1.004552 1645029
1.187334 -10.469855 0.914069 1645029
1.189646 -10.232347 0.955962 1645029
1.103393 -10.781047 1.436385 1645029
1.199523 -10.841944 1.142913 1645029
1.445021 -10.556249 1.234503 1645029
1.666100 -10.600441 1.133677 1645029
1.786149 -10.622835 1.015623 1645029
1.019693 -11.048106 1.230438 1645029
1.578681 -10.384288 1.049197 1645029
1.719179 -10.712341 1.032313 1645029
1.077936 -10.495156 0.564020 1645029
1.222952 -10.388149 1.211884 1645029
1.359461 -10.312701 1.077262 1645029
1.507248 -10.534150 0.860606 1645029
1.317935 -10.553368 0.553203 1645029
1.629392 -10.692100 1.016057 1645029
1.662279 -10.469787 1.242026 1645029
-4.384696 7.168526 0.476920 10053171
-5.968555 7.089866 0.429544 10053171
-4.436675 6.971655 2.354783 10053171
-5.153059 7.181258 2.887025 10053171
-3.848885 6.981787 0.274880 10053171
-6.682229 6.767244 2.488224 10053171
-4.129247 7.167758 2.573206 10053171
-3.157675 6.964168 1.341772 10053171
-4.374732 6.992880 0.489451 10053171
-3.510194 7.201014 2.556702 10053171
-3.663223 7.186646 2.503820 10053171
-3.259173 6.990306 0.837488 10053171
-4.010690 7.082583 0.157943 10053171
-4.974627 6.812275 1.154422 10053171
-6.821329 6.973954 0.173331 10053171
-4.604510 7.112018 2.205388 10053171
-6.423947 6.978516 1.199844 10053171
-4.672333 6.948359 0.455285 10053171
-6.887891 6.756324 2.826743 10053171
-6.293050 7.226177 2.894224 10053171
-6.066914 7.042491 0.769110 10053171
-6.147765 6.796983 2.805096 10053171
-3.749212 6.857465 2.232628 10053171
-4.830916 7.058280 2.526201 10053171
-6.558007 7.020984 2.683565 10053171
-6.049207 7.135724 1.119541 10053171
-3.419702 7.136882 1.456625 10053171
-4.599932 6.975204 1.338248 10053171
-6.009417 7.222126 2.409423 10053171
-6.679952 7.023118 2.945282 10053171
-6.857814 7.042530 1.093188 10053171
-5.965746 6.753010 0.147154 10053171
-6.137394 7.011901 1.970053 10053171
-3.844922 6.950572 0.607676 10053171
-4.705405 7.158475 0.101925 10053171
-5.863990 7.168921 2.069830 10053171
-4.832360 6.957258 1.422490 10053171
-5.493958 7.241930 2.737100 10053171
-5.060296 6.773429 1.311548 10053171
-6.174451 7.001875 2.522153 10053171
-4.469182 6.922214 2.115604 10053171
-4.096500 7.127210 1.111380 10053171
-3.865785 6.750856 0.899149 10053171
-4.706897 6.933456 2.237222 10053171
-5.570519 6.971284 0.651577 10053171
-3.800773 7.060323 1.159930 10053171
-3.490028 7.084561 2.122732 10053171
-4.292335 7.181064 0.702032 10053171
-4.108343 7.246847 2.577877 10053171
-5.304738 6.966446 1.603338 10053171
-6.759809 7.073637 2.596751 10053171
-5.649399 6.975052 1.222927 10053171
-5.761445 6.853837 2.794954 10053171
-3.548429 6.860877 2.696113 10053171
-3.072144 6.890619 0.609141 10053171
-5.035312 7.047577 2.161326 10053171
-3.503133 7.050961 0.823892 10053171
-5.455075 7.054538 1.612393 10053171
-3.332102 7.073741 2.188916 10053171
-6.484628 7.182073 0.018505 10053171
-6.374779 6.759622 2.588530 10053171
-4.377737 6.952582 2.946196 10053171
-6.318528 6.956637 0.857886 10053171
-3.767540 7.172541 1.047561 10053171
-3.533052 7.062355 2.699825 10053171
-4.176519 6.922396 2.146899 10053171
-6.352420 6.817993 1.051411 10053171
-3.786046 7.006927 1.940740 10053171
-3.883443 7.065245 1.225648 10053171
-5.434526 7.206369 0.693225 10053171
-5.920354 6.947906 2.518836 10053171
-3.273203 6.917828 1.510561 10053171
-6.827646 6.760643 2.291561 10053171
-3.698429 6.991978 0.995460 10053171
-6.504142 7.196863 1.563681 10053171
-5.298697 6.980303 0.864918 10053171
-6.465107 6.879403 0.434087 10053171
-4.532759 7.096095 2.282186 10053171
-6.735298 7.171680 1.142010 10053171
-4.033362 6.867491 0.255762 10053171
-5.784520 7.201549 0.680956 10053171
-6.966421 7.074469 2.924345 10053171
-3.131707 7.085633 2.186530 10053171
-4.150706 7.097559 0.027791 10053171
-4.443195 7.155228 1.349376 10053171
-6.612502 7.207012 0.413800 10053171
-5.839988 6.867846 0.157168 10053171
-3.234728 6.867247 0.161710 10053171
-6.530528 6.918346 1.328262 10053171
-5.969267 6.871274 0.002095 10053171
-5.457003 7.050225 1.780416 10053171
-6.391649 7.000816 2.957211 10053171
-6.054837 6.842336 2.939730 10053171
-4.258116 7.222132 1.394157 10053171
-4.292071 7.092390 2.202523 10053171
-3.923873 7.213094 2.399872 10053171
-5.686074 7.208191 0.401127 10053171
-5.347445 6.912039 0.443645 10053171
-3.329468 6.962458 0.986557 10053171
-6.863946 6.974852 0.244188 10053171
-4.488061 6.823766 1.773724 10053171
-6.236254 7.232667 1.524045 10053171
-3.840502 7.197354 0.862184 10053171
-3.788112 6.967260 2.099200 10053171
-4.806154 7.127241 1.228728 10053171
-5.635327 7.231395 1.598655 10053171
-4.231643 6.971448 0.416434 10053171
-5.518069 7.197760 0.313633 10053171
-3.289767 7.090059 0.141941 10053171
-5.114745 6.788817 1.797493 10053171
-5.614042 7.049288 2.630066 10053171
-5.442623 6.877040 2.397448 10053171
-4.468400 6.916699 0.685963 10053171
-4.780490 6.952393 2.327752 10053171
-6.477698 6.973922 1.168659 10053171
-5.739913 6.775613 1.384703 10053171
-4.577801 6.911053 1.780745 10053171
-4.054532 7.058397 2.541549 10053171
-3.325560 7.029396 0.187771 10053171
-4.642157 6.749242 1.400226 10053171
-3.809983 7.222784 0.844113 10053171
-5.173923 6.860158 0.230182 10053171
-6.431090 6.763649 0.303056 10053171
-5.594495 7.020661 0.824782 10053171
-3.138928 7.192357 1.547975 10053171
-5.376678 7.054131 2.724211 10053171
-5.320934 6.918293 2.725138 10053171
-4.381103 6.903308 0.757913 10053171
-6.977532 7.117983 2.647938 10053171
-4.289811 7.047520 2.902415 10053171
-4.891657 6.959266 0.246872 10053171
-6.503015 6.900973 2.238966 10053171
-5.362665 6.914698 1.726258 10053171
-5.257228 7.044716 1.628380 10053171
-4.659344 6.846542 0.834746 10053171
-3.282811 6.843766 0.435476 10053171
-4.014571 6.959399 1.212101 10053171
-3.748175 7.223986 0.786504 10053171
-5.120856 7.058974 2.743219 10053171
-4.747899 7.200875 1.095608 10053171
-5.643927 6.774807 2.524711 10053171
-5.417937 7.162912 2.274780 10053171
-6.060012 6.999676 2.968236 10053171
-3.716472 6.947542 1.084355 10053171
-4.241029 7.079114 2.734343 10053171
-5.904153 7.048141 0.641881 10053171
-4.964839 6.825890 2.320735 10053171
-3.917864 6.805422 1.387805 10053171
-6.011550 7.203648 1.734805 10053171
-3.635388 7.203459 0.395775 10053171
-5.863693 6.918122 2.251535 10053171
-6.564867 6.862287 1.732091 10053171
-4.773524 6.781031 2.796087 10053171
-6.493505 7.164473 1.210605 10053171
-3.579068 6.997746 1.101926 10053171
-6.262755 6.836441 1.562039 10053171
-3.014667 6.860970 1.562676 10053171
-6.399957 7.234543 0.940407 10053171
-4.796616 6.999783 1.226880 10053171
-6.410038 7.098923 0.927635 10053171
-6.897630 6.887225 2.256109 10053171
-3.710958 7.222748 1.833632 10053171
-4.233310 7.171634 0.799512 10053171
-6.311921 6.796631 2.935414 10053171
-3.042006 6.772097 2.277608 10053171
-6.417891 6.927117 1.474301 10053171
-6.300334 7.005635 0.996374 10053171
-5.145876 6.782177 1.204540 10053171
-3.950639 7.177056 0.944703 10053171
-6.431312 7.087687 0.866464 10053171
-6.214671 6.752259 2.108087 10053171
-3.528065 7.036826 0.948727 10053171
-5.340610 6.972576 2.322503 10053171
-4.492506 6.746693 0.632593 10053171
-5.583300 7.207551 0.161121 10053171
-3.596540 6.925384 1.823414 10053171
-7.010518 7.157586 2.107567 10053171
-6.183219 7.174939 1.942773 10053171
-4.698446 6.921154 0.429304 10053171
-5.571994 6.960093 1.759489 10053171
-6.759730 6.779347 1.267575 10053171
-5.586113 6.810865 1.511988 10053171
-6.415357 6.880836 2.028483 10053171
-5.971744 6.765832 1.058337 10053171
-5.789382 6.784493 2.071456 10053171
-5.557593 6.805808 1.561004 10053171
-3.390197 7.076594 2.639734 10053171
-5.042757 7.011829 0.357285 10053171
-4.196762 7.183512 0.547849 10053171
-5.041378 7.149973 0.851869 10053171
-6.388048 6.915286 2.858870 10053171
-6.866607 6.818666 2.549807 10053171
-6.701832 6.781293 0.426758 10053171
-3.237926 7.084680 1.582395 10053171
-6.016949 6.755661 2.616051 10053171
-4.059920 6.935335 1.548528 10053171
-6.726017 7.216877 0.610105 10053171
-6.913286 6.938622 2.954642 10053171
-4.470748 6.921942 1.941164 10053171
-4.897326 7.081902 2.551027 10053171
-3.971588 7.108506 0.796121 10053171
-4.129427 7.238544 0.495849 10053171
-3.910998 6.768798 1.153909 10053171
-3.466463 7.207000 2.479767 10053171
-3.384822 7.170084 0.193456 10053171
-3.129710 6.782080 0.450077 10053171
-4.803626 7.201990 1.098603 10053171
-6.915652 7.099134 0.584664 10053171
-6.268817 6.761520 1.872548 10053171
-6.644357 6.921889 0.635648 10053171
-6.348021 7.180160 1.735175 10053171
-6.411449 6.813108 1.125242 10053171
-4.954833 6.831965 0.297148 10053171
-5.294608 7.040144 1.135241 10053171
-5.992865 7.068162 1.255915 10053171
-3.142358 7.005663 2.063783 10053171
-4.534903 6.909348 0.162784 10053171
-6.048204 6.849885 0.165475 10053171
-3.635121 7.147580 0.319175 10053171
-3.311291 7.192806 2.605372 10053171
-4.012911 6.903494 2.664656 10053171
-4.109613 6.848760 2.969934 10053171
-5.532065 7.113069 1.909515 10053171
-4.338601 7.148712 0.741692 10053171
-4.241179 6.943390 0.591331 10053171
-3.613149 7.137589 0.602222 10053171
-3.734529 6.939432 0.910851 10053171
-4.636606 7.013343 0.618744 10053171
-4.194599 6.947385 0.181768 10053171
-6.527809 6.791714 2.352903 10053171
-4.730937 7.156110 0.501984 10053171
-5.136333 6.995154 1.447719 10053171
-6.444218 7.232234 1.326198 10053171
-6.984426 7.023602 2.093796 10053171
-6.594678 7.231688 1.481928 10053171
-5.031903 7.127389 2.884978 10053171
-4.724005 6.837467 0.730193 10053171
-4.296966 6.915459 1.303301 10053171
-5.451231 6.817225 2.062026 10053171
-3.974747 6.760993 2.805179 10053171
-5.955990 7.014995 1.414509 10053171
-6.721673 6.753890 0.262367 10053171
-3.296413 7.133172 2.688777 10053171
-5.101646 7.063396 1.747300 10053171
-5.860789 7.186600 0.510484 10053171
-6.238159 6.874195 1.060892 10053171
-6.957027 7.085957 1.611787 10053171
-5.738138 7.209148 2.551588 10053171
-6.218392 6.945981 2.038662 10053171
-3.786688 6.949130 1.351319 10053171
-5.706668 7.159489 0.868978 10053171
-3.108171 6.803963 0.986537 10053171
-3.911090 6.850612 1.104107 10053171
-5.366324 7.172044 1.633348 10053171
-3.509854 6.749314 0.849036 10053171
-4.698995 7.230211 1.560262 10053171
-3.633980 7.008835 2.204226 10053171
-4.579162 7.114782 2.697905 10053171
-4.917807 7.065248 2.105818 10053171
-6.911639 6.810221 2.385861 10053171
-3.424865 7.123926 0.850443 10053171
-5.533274 7.057888 2.911837 10053171
-4.817566 6.927240 0.676671 10053171
-4.604695 7.009842 2.162065 10053171
-6.921558 7.043268 2.202840 10053171
-3.647997 6.859099 1.235428 10053171
-4.335757 6.919969 0.836775 10053171
-6.436219 6.784023 2.081456 10053171
-6.029377 6.780479 2.070741 10053171
-4.842866 6.748708 0.958741 10053171
-3.740550 6.844591 0.006876 10053171
-4.857878 7.115694 2.491674 10053171
-3.746919 6.997547 2.470121 10053171
-5.174687 7.095348 1.520853 10053171
-6.244499 6.853999 1.611841 10053171
-6.661014 7.162027 2.925242 10053171
-3.947409 6.922703 0.932430 10053171
-6.239114 7.051460 0.959258 10053171
-4.877642 7.143622 1.518280 10053171
-3.271669 7.224432 0.945246 10053171
-6.362627 7.076659 1.865454 10053171
-5.679509 6.805745 1.328450 10053171
-3.556917 6.918230 0.403973 10053171
-5.641856 6.794543 2.111943 10053171
-4.303141 7.240154 0.444968 10053171
-3.210654 7.022762 1.467857 10053171
-3.104810 6.951140 1.832387 10053171
-4.102567 6.753531 0.910117 10053171
-4.262221 7.207844 1.313451 10053171
-3.100958 6.852752 0.307371 10053171
-4.024248 7.109071 1.436618 10053171
-5.442021 6.917234 1.070714 10053171
-3.991471 6.974337 0.353532 10053171
-3.792682 6.956553 0.167655 10053171
-5.717135 7.252059 1.848290 10053171
-5.717947 7.186374 1.775280 10053171
-6.040273 6.737811 2.365241 10053171
-3.601057 6.945320 0.818695 10053171
-5.216613 7.128504 1.176586 10053171
-5.127819 6.833157 2.475004 10053171
-4.270408 7.202047 0.642749 10053171
-6.982728 7.207430 0.056295 10053171
-4.009596 6.805756 1.112449 10053171
-4.062326 6.785361 1.834939 10053171
-5.391589 6.854086 2.715166 10053171
-3.273555 7.036641 1.530942 10053171
-3.339078 7.219863 -0.002177 10053171
-3.249928 6.808639 1.488950 10053171
-4.640526 6.940749 1.559486 10053171
-4.971293 6.855998 0.132588 10053171
-6.796915 6.842508 1.568552 10053171
-5.542729 6.932366 0.151351 10053171
-6.909029 6.909740 1.409582 10053171
-4.215205 6.768650 1.294850 10053171
-6.385083 6.908001 0.236103 10053171
-3.362308 6.766296 2.837881 10053171
-4.129609 6.800500 1.391216 10053171
-4.722554 6.834909 1.918879 10053171
-6.167531 6.801161 0.130407 10053171
-5.204725 7.149642 1.833992 10053171
-6.274302 7.126214 2.240374 10053171
-5.144060 7.082961 1.402957 10053171
-6.466504 6.945948 1.325547 10053171
-5.464301 7.095213 0.286897 10053171
-4.942406 7.159917 1.798120 10053171
-3.847870 6.996872 1.635782 10053171
-5.427578 7.088866 2.727029 10053171
-5.705246 7.054824 2.974234 10053171
-6.806652 7.141757 0.797501 10053171
-4.915181 7.168937 1.123159 10053171
-6.968750 6.934464 0.271176 10053171
-6.739649 6.956129 1.028741 10053171
-4.311381 6.784655 1.932120 10053171
-3.975504 7.162845 0.084678 10053171
-3.118139 7.025832 1.312110 10053171
-3.871184 7.033615 0.432184 10053171
-3.103665 6.754606 1.738097 10053171
-3.470938 6.876879 0.333439 10053171
-6.631408 7.093480 1.215064 10053171
-4.087883 7.135546 0.753584 10053171
-3.781959 6.985313 2.061554 10053171
-3.784851 7.016819 1.235347 10053171
-4.640614 7.162460 2.669582 10053171
-4.592419 7.217535 2.364121 10053171
-6.249134 7.124409 0.879475 10053171
-3.114174 6.889875 0.016742 10053171
-4.388896 6.755881 0.519925 10053171
-5.182184 7.008069 2.852843 10053171
-5.332479 6.996466 2.481683 10053171
-3.659823 7.236899 1.072674 10053171
-4.826189 6.759057 0.084030 10053171
-4.742285 7.123425 0.910390 10053171
-4.072398 6.850342 1.516366 10053171
-3.553710 6.960913 0.992905 10053171
-6.944183 7.125906 0.878261 10053171
-3.916480 6.942500 1.364849 10053171
-3.583556 6.943795 2.732311 10053171
-5.500219 6.852339 2.615846 10053171
-5.390889 6.773778 2.398118 10053171
-3.035789 6.802183 2.927928 10053171
-6.147471 6.826888 2.029043 10053171
-4.447600 7.138090 0.778374 10053171
-4.526035 7.043096 0.706642 10053171
-3.190789 7.221379 2.727994 10053171
-5.878609 7.207045 2.552566 10053171
-4.223376 6.903227 2.131565 10053171
-3.212395 6.943402 0.504210 10053171
-5.011343 6.830326 1.822950 10053171
-3.727596 6.971686 0.069010 10053171
-4.323289 7.215423 0.552897 10053171
-6.185610 6.894404 1.543379 10053171
-3.864438 7.201261 0.584658 10053171
-5.438676 6.790267 1.467830 10053171
-3.203193 6.834317 2.193033 10053171
-3.451940 6.960626 0.316586 10053171
-3.960055 7.252081 2.052550 10053171
-6.183661 7.184381 0.265431 10053171
-6.571227 6.902702 0.517294 10053171
-4.627687 6.899640 1.248139 10053171
-5.141521 6.800093 -0.004427 10053171
-5.438918 6.822439 0.520040 10053171
-3.775408 6.784140 0.393619 10053171
-5.332662 7.206848 0.696897 10053171
-3.179689 7.176635 1.371040 10053171
-4.940285 6.743091 2.556113 10053171
-6.746534 7.148667 1.638990 10053171
-4.823766 6.778263 1.166437 10053171
-4.079205 7.030443 1.640972 10053171
-4.072373 7.032157 1.611744 10053171
-3.492070 6.938572 2.919554 10053171
-4.087749 7.155806 2.884420 10053171
-6.607293 6.896667 1.729074 10053171
-5.177192 7.064563 1.683166 10053171
-5.105395 7.173980 2.155179 10053171
-4.510373 6.851664 0.025317 10053171
-5.342490 6.746928 2.580103 10053171
-5.179327 6.761338 1.377274 10053171
-4.067224 6.886874 0.715901 10053171
-4.383653 7.057685 1.053957 10053171
-5.225163 7.119710 0.686965 10053171
-3.759722 6.781670 1.895519 10053171
-3.638688 7.247413 2.751062 10053171
-3.360998 7.143614 0.993988 10053171
-4.071055 7.201171 2.639857 10053171
-3.092507 7.159111 2.859725 10053171
-3.565489 7.044617 1.663724 10053171
-5.330220 7.115551 0.093341 10053171
-3.930676 6.934055 2.285616 10053171
-6.401406 7.056566 2.544875 10053171
-3.112313 7.078102 2.781483 10053171
-4.844617 7.170926 0.124457 10053171
-5.889180 6.884196 0.146236 10053171
-4.284530 7.057316 0.558661 10053171
-4.616526 7.146391 0.012116 10053171
-6.620784 7.229160 1.376935 10053171
-6.060869 6.925003 0.116029 10053171
-5.828176 6.764798 2.911357 10053171
-4.489197 7.046815 2.827007 10053171
-5.614698 7.214155 2.562210 10053171
-3.135423 6.954067 0.607949 10053171
-5.740036 6.955405 0.594994 10053171
-4.079296 7.106039 1.564017 10053171
-4.685494 6.767300 1.654923 10053171
-4.991495 7.138419 1.210664 10053171
-4.397223 6.961432 0.499129 10053171
-5.285416 7.224222 0.307278 10053171
-3.860573 6.950228 0.841646 10053171
-4.244170 6.943342 2.670622 10053171
-5.246096 7.113602 1.722389 10053171
-3.013365 6.970566 0.256612 10053171
-5.445859 6.852085 1.050698 10053171
-6.600046 7.081907 2.723839 10053171
-5.094534 6.803373 1.646586 10053171
-3.027756 6.918514 0.756050 10053171
-6.582118 6.988415 1.141612 10053171
-3.071910 6.994738 0.216626 10053171
-6.291698 7.223580 1.905015 10053171
-3.684928 6.927035 1.370122 10053171
-4.181270 7.113267 0.204030 10053171
-3.835689 7.149779 1.798093 10053171
-4.175296 7.015389 1.332176 10053171
-3.092969 6.815144 0.742386 10053171
-5.594361 7.214051 0.128975 10053171
-5.669223 7.011384 2.810572 10053171
-4.777827 6.953846 1.818714 10053171
-5.929372 7.134950 2.046946 10053171
-3.318297 7.086621 1.013984 10053171
-6.495713 6.816761 0.734125 10053171
-6.589950 7.054584 1.915208 10053171
-3.752940 6.842922 0.037232 10053171
-4.629450 7.113850 2.025289 10053171
-5.592583 6.755131 2.674282 10053171
-3.980678 7.090693 0.425555 10053171
-3.924443 6.786992 1.647188 10053171
-5.387144 7.013693 0.783082 10053171
-4.827539 6.815709 1.744014 10053171
-5.766148 6.952929 1.081531 10053171
-6.605857 6.861545 0.188600 10053171
-4.515525 6.976912 1.709402 10053171
-3.721467 7.103045 2.807266 10053171
-5.705477 6.856483 0.095014 10053171
-5.666085 7.033378 0.376597 10053171
-4.253765 6.868213 0.865574 10053171
-5.872159 6.855934 2.053337 10053171
-4.907955 6.830134 2.912384 10053171
-3.162979 7.000991 2.039817 10053171
-3.637806 6.904305 1.067395 10053171
-4.795405 7.135807 2.865241 10053171
-4.531021 7.147618 1.484172 10053171
-3.469850 7.096746 1.059382 10053171
-3.140598 7.166509 0.496885 10053171
-5.425921 7.099340 0.825083 10053171
-6.652037 6.965754 2.568990 10053171
-3.308787 6.903645 2.381792 10053171
-5.851054 7.125919 2.059587 10053171
-4.667149 6.943330 1.470272 10053171
-4.305156 6.832475 2.128188 10053171
-3.025842 6.743612 2.455475 10053171
-3.019996 6.980574 1.083095 10053171
-4.378556 7.200371 0.317868 10053171
-5.470398 7.227608 2.296178 10053171
-5.617737 7.107871 1.116509 10053171
-3.868734 6.909288 1.849518 10053171
-4.672445 7.091770 2.931997 10053171
-4.739444 7.175844 2.682671 10053171
-6.261844 7.038269 1.579210 10053171
-3.130872 7.185615 0.328015 10053171
-4.495880 6.870662 2.785010 10053171
-3.040962 6.928905 1.110974 10053171
-4.452843 7.241486 2.842345 10053171
-5.021938 6.931578 2.695882 10053171
-3.205661 6.976128 0.516193 10053171
-6.007262 6.803558 0.793916 10053171
-4.698548 7.145229 0.325051 10053171
-3.004776 7.053173 0.559538 10053171
-5.438738 6.908174 1.094347 10053171
-3.923822 6.798477 0.645390 10053171
-6.049290 6.961550 2.697675 10053171
-3.321701 6.925129 0.547987 10053171
-5.745678 6.753261 2.840012 10053171
-4.188834 6.867502 0.607622 10053171
-6.591140 6.985182 2.931516 10053171
-6.897251 7.239580 2.522898 10053171
-6.900237 7.215870 0.751638 10053171
-5.268970 6.984978 2.444960 10053171
-5.198547 6.950654 1.268554 10053171
-3.166453 7.145955 1.909083 10053171
-6.381085 6.953706 1.713827 10053171
-4.072703 6.848814 0.139052 10053171
-3.513023 6.886346 0.018861 10053171
-6.094662 6.890707 1.888865 10053171
-3.122384 7.081335 0.783389 10053171
-3.554218 7.034214 2.744952 10053171
-4.221862 7.041714 2.640707 10053171
-3.425516 6.899715 2.436006 10053171
-5.118513 6.911340 2.871627 10053171
-4.450300 7.118651 1.077443 10053171
-6.584068 6.838966 2.036119 10053171
-3.835709 6.880204 2.272294 10053171
-3.573427 6.980612 1.028801 10053171
-4.286355 6.769317 0.853218 10053171
-3.884212 7.013494 1.012664 10053171
-5.352864 6.973707 2.083240 10053171
-3.231984 6.844518 0.498694 10053171
-3.415777 7.231350 0.634363 10053171
-6.370169 6.745587 1.232364 10053171
-5.801699 7.239079 1.590636 10053171
-3.783943 6.894927 0.805386 10053171
-6.577177 6.880942 1.589428 10053171
-4.362506 6.799276 0.966131 10053171
-5.651122 6.922697 0.066766 10053171
-4.394218 7.017001 1.171150 10053171
-4.195890 6.898916 2.104593 10053171
-3.266558 7.176903 1.308670 10053171
-3.737661 7.217121 2.647949 10053171
-5.892406 6.811344 0.043615 10053171
-5.653373 6.792722 1.581423 10053171
-4.938817 6.952902 2.478176 10053171
-6.093250 7.065981 1.109416 10053171
-6.786722 7.251870 2.114684 10053171
-5.463547 6.892779 1.240512 10053171
-6.173203 6.924453 2.923420 10053171
-5.577630 6.788144 2.404387 10053171
-4.522879 7.170197 1.525507 10053171
-5.291160 6.881869 0.623546 10053171
-6.035321 7.234221 1.490289 10053171
-3.517858 6.831614 2.498899 10053171
-5.661201 6.943016 2.292039 10053171
-6.065506 6.982542 1.441137 10053171
-6.577050 6.885757 1.251841 10053171
-6.781243 7.054771 2.607474 10053171
-6.559220 6.887793 1.829821 10053171
-6.068108 6.996003 2.776371 10053171
-4.207541 7.172241 2.767458 10053171
-4.901081 7.067393 2.188246 10053171
-4.873212 7.141125 0.043662 10053171
-4.094458 6.862055 1.563639 10053171
-6.979611 7.246445 0.309765 10053171
-5.502871 7.167214 0.041864 10053171
-3.517246 6.814189 0.738008 10053171
-6.074625 6.802460 0.907912 10053171
-3.539712 6.798232 2.838869 10053171
-3.531900 7.169791 0.897776 10053171
-5.205302 6.826011 2.952483 10053171
-6.959005 6.860543 2.332619 10053171
-4.316145 6.857210 0.573106 10053171
-4.573312 6.855360 0.855662 10053171
-3.498273 6.820820 0.291023 10053171
-6.445826 6.995211 1.154099 10053171
-5.289688 7.207030 1.657669 10053171
-4.216221 7.163426 1.718432 10053171
-5.735935 7.140714 0.947656 10053171
-4.624495 6.952016 2.948978 10053171
-5.843560 7.028270 1.049062 10053171
-5.197771 7.147408 0.274728 10053171
-4.806921 6.859540 2.731144 10053171
-3.328118 6.992359 0.784008 10053171
-3.907352 7.026200 1.821017 10053171
-5.800119 7.003719 1.300295 10053171
-3.320310 6.973264 1.641128 10053171
-3.008742 7.224789 0.791364 10053171
-3.217565 7.197516 2.780623 10053171
-3.195377 7.180322 2.303349 10053171
-6.063976 6.935287 2.244183 10053171
-6.821980 7.045301 2.072400 10053171
-4.065337 6.800652 1.179409 10053171
-3.208049 7.238338 1.686577 10053171
-6.910130 7.151066 1.475921 10053171
-4.299166 6.892004 1.096339 10053171
-5.308049 7.037610 0.116041 10053171
-6.798772 7.136834 2.874538 10053171
-4.217206 6.836422 2.441656 10053171
-3.455207 7.038720 2.661584 10053171
-3.064068 6.781153 1.147266 10053171
-3.511282 7.200531 0.559318 10053171
-3.460385 6.942676 2.295392 10053171
-4.093655 7.077471 2.694785 10053171
-3.747879 7.047154 2.907543 10053171
-5.742042 6.922268 0.468681 10053171
-4.735828 7.123581 1.568647 10053171
5.886430 -5.982935 1.134410 8342706
6.130276 -5.725797 1.789660 8342706
5.449645 -6.102747 3.617975 8342706
6.178195 -6.471617 0.559239 8342706
5.436483 -6.207067 3.054318 8342706
6.186783 -6.460189 4.083762 8342706
6.337742 -6.065506 4.897680 8342706
6.199098 -5.628983 0.331856 8342706
6.004510 -6.168103 3.993434 8342706
6.186944 -5.984972 0.486642 8342706
5.560199 -5.647123 2.014626 8342706
6.163776 -6.426018 3.318848 8342706
6.526820 -5.804001 4.822391 8342706
6.064980 -5.625336 2.397542 8342706
6.460148 -5.965544 1.311566 8342706
6.093134 -6.219307 2.941540 8342706
6.534447 -5.877101 0.287801 8342706
6.347727 -6.415398 2.963481 8342706
6.325105 -5.510702 2.205343 8342706
6.471697 -6.359709 2.690030 8342706
6.209701 -6.111922 2.966357 8342706
6.269392 -5.593658 2.066298 8342706
5.632357 -6.281091 3.513083 8342706
5.826117 -5.559566 0.194266 8342706
5.651894 -5.765387 0.504640 8342706
6.507415 -5.783709 1.420037 8342706
6.044366 -5.434795 0.757469 8342706
6.218966 -6.325999 1.485103 8342706
6.437003 -6.137352 1.606569 8342706
6.542523 -6.044080 3.468422 8342706
5.620389 -6.189562 3.369699 8342706
5.841496 -6.186180 4.701544 8342706
5.785266 -5.528111 2.045530 8342706
6.332911 -5.766753 2.903232 8342706
6.244417 -5.942238 3.548907 8342706
5.454840 -6.097828 0.541782 8342706
6.398273 -5.815310 1.966051 8342706
5.904735 -5.784953 1.715735 8342706
5.753311 -5.871013 3.158670 8342706
5.663208 -6.173923 1.860467 8342706
5.808741 -5.531499 0.793454 8342706
6.462101 -6.087099 0.391457 8342706
5.994191 -6.142332 4.291642 8342706
5.582102 -6.200342 4.547596 8342706
5.738242 -5.751040 4.135930 8342706
5.759959 -5.921210 3.112325 8342706
6.038613 -5.988960 1.423693 8342706
6.410181 -6.278270 1.998420 8342706
5.663910 -5.714456 3.096537 8342706
6.275939 -6.086616 3.913758 8342706
5.413894 -5.997034 4.592105 8342706
5.957623 -5.477741 4.483195 8342706
5.509110 -5.976808 3.235576 8342706
6.417038 -5.954708 1.930360 8342706
6.162924 -6.473817 4.292671 8342706
6.391713 -5.890835 1.194264 8342706
5.399521 -5.945857 2.358267 8342706
5.506057 -5.759286 4.319540 8342706
6.448729 -5.987823 3.004007 8342706
6.098868 -5.663142 4.859200 8342706
6.260292 -5.875183 2.120085 8342706
5.809208 -5.462327 2.074236 8342706
5.870067 -6.342363 3.547419 8342706
5.986700 -5.510096 3.536468 8342706
5.760949 -6.038056 4.519777 8342706
5.855815 -6.084694 1.721041 8342706
6.167168 -5.746727 1.994349 8342706
6.172922 -6.284844 1.944933 8342706
5.764265 -6.225043 1.530566 8342706
5.595033 -6.251003 1.047834 8342706
5.854798 -6.406876 1.250417 8342706
5.962328 -5.951018 3.025516 8342706
6.062377 -6.131468 4.758088 8342706
5.795981 -5.818457 0.597079 8342706
5.733281 -6.073088 2.500853 8342706
5.965240 -5.989884 3.150753 8342706
5.487256 -6.199872 1.919616 8342706
6.086924 -5.597107 0.153544 8342706
6.438687 -5.943251 1.243378 8342706
6.568355 -6.069366 3.873457 8342706
6.042649 -6.209667 3.281651 8342706
5.568281 -5.640907 1.954561 8342706
6.105501 -6.281761 4.436680 8342706
6.102387 -5.581566 4.620691 8342706
6.431147 -5.671684 0.198312 8342706
5.955918 -6.189606 2.686726 8342706
6.232324 -5.975564 2.419351 8342706
5.511871 -6.196271 3.684389 8342706
6.042227 -6.314063 2.004915 8342706
5.884216 -6.335231 1.005322 8342706
6.190350 -6.402093 4.433933 8342706
5.536961 -5.928486 3.862685 8342706
5.704394 -6.393673 2.521698 8342706
6.097125 -6.491328 1.410560 8342706
5.847518 -5.884378 4.538533 8342706
5.609018 -5.774983 2.352408 8342706
6.468981 -5.836941 2.604835 8342706
6.086714 -6.438348 0.589312 8342706
5.554780 -6.155129 1.866555 8342706
6.327829 -6.048522 1.872924 8342706
6.560233 -6.070698 3.647388 8342706
5.667673 -6.384750 0.613775 8342706
5.682095 -6.454265 0.776000 8342706
6.230391 -6.016870 2.566867 8342706
5.629158 -6.024625 3.307260 8342706
5.779802 -5.583167 4.705990 8342706
5.767815 -6.243189 4.018157 8342706
5.655179 -5.853733 1.238097 8342706
6.404249 -5.962782 4.451225 8342706
5.831834 -5.615409 3.518930 8342706
6.032098 -5.789388 0.947226 8342706
6.156441 -6.353246 1.754841 8342706
6.155394 -5.798006 1.572669 8342706
5.964006 -5.771445 4.066147 8342706
6.047862 -6.200822 4.597878 8342706
5.764496 -6.155056 0.221924 8342706
5.891830 -5.652903 1.677501 8342706
6.200792 -5.615459 3.857190 8342706
5.702281 -5.980143 3.110821 8342706
5.798098 -6.206429 2.604696 8342706
5.676866 -5.836459 2.899938 8342706
5.617901 -6.232253 3.729382 8342706
5.905182 -6.596636 1.082058 8342706
6.108101 -5.791317 1.672417 8342706
6.297566 -6.307560 0.559136 8342706
6.359424 -5.700246 2.296896 8342706
6.130359 -5.569566 3.057710 8342706
5.665166 -5.695445 1.212889 8342706
6.014600 -5.725335 3.705472 8342706
6.203309 -6.030807 4.376232 8342706
6.516872 -6.101228 2.679839 8342706
6.350845 -6.151175 3.353223 8342706
5.674249 -6.312230 4.727937 8342706
6.270093 -5.513232 4.621785 8342706
6.004961 -6.225967 3.559099 8342706
5.766173 -5.652202 2.597933 8342706
6.069335 -6.566566 4.492645 8342706
5.553212 -5.761587 4.272100 8342706
5.530064 -6.135861 2.891255 8342706
6.095574 -5.638523 2.477232 8342706
5.681866 -5.882041 4.058780 8342706
5.882121 -5.423066 3.051048 8342706
6.498815 -5.817517 0.127327 8342706
6.064672 -5.448296 0.411350 8342706
6.392668 -5.724935 0.060162 8342706
6.062716 -5.738865 0.512518 8342706
5.664985 -5.709239 3.093799 8342706
6.350701 -6.225441 1.518714 8342706
6.139922 -5.812147 2.477394 8342706
5.757524 -6.142270 1.608638 8342706
5.989310 -6.203616 0.133612 8342706
5.864548 -6.030293 3.736921 8342706
5.721196 -6.150321 3.388768 8342706
6.312982 -6.225584 4.587151 8342706
6.322050 -6.449548 3.372865 8342706
6.026354 -6.547209 4.190272 8342706
6.008996 -5.685134 4.219365 8342706
5.683948 -5.620234 4.224546 8342706
6.205490 -5.884257 1.891622 8342706
5.518835 -6.222499 4.651759 8342706
5.924695 -6.333906 4.697209 8342706
6.031733 -6.444045 1.312267 8342706
6.135848 -5.620187 2.028592 8342706
5.957793 -6.193114 1.685649 8342706
6.044508 -6.029586 4.541898 8342706
6.083544 -5.628229 1.130539 8342706
6.133255 -6.293647 1.573842 8342706
5.741650 -5.734541 0.099600 8342706
6.352212 -6.168268 3.050677 8342706
6.105776 -5.581364 2.629792 8342706
6.258181 -5.836951 1.028569 8342706
5.615631 -6.091388 1.900824 8342706
5.726219 -5.667665 2.235101 8342706
5.801747 -5.673950 2.586963 8342706
5.513893 -5.927884 3.584872 8342706
6.005181 -5.840140 1.881167 8342706
5.715535 -5.870806 1.476025 8342706
5.738857 -6.264802 2.841017 8342706
5.987813 -6.311656 4.884903 8342706
5.987980 -6.441505 4.820483 8342706
6.075624 -5.603721 3.825840 8342706
5.621474 -5.546675 1.990745 8342706
6.546307 -6.043391 4.263830 8342706
5.670178 -5.598411 1.917610 8342706
6.098260 -6.469034 1.702704 8342706
5.592204 -6.242547 1.883262 8342706
6.309060 -5.896133 3.521544 8342706
6.491511 -5.831165 3.815927 8342706
6.449284 -6.098080 3.863827 8342706
6.141890 -5.851178 3.354384 8342706
6.147868 -6.411726 1.018701 8342706
5.669705 -6.153740 3.342420 8342706
6.512936 -6.311393 0.135259 8342706
6.369294 -6.085220 4.913807 8342706
5.425481 -5.884775 3.766484 8342706
6.499389 -6.039104 0.230785 8342706
6.243966 -5.661330 3.722822 8342706
6.096596 -6.011151 2.450711 8342706
6.266857 -5.971162 0.698149 8342706
6.414681 -5.968871 2.410775 8342706
6.088975 -6.493766 2.781314 8342706
6.389775 -6.092978 1.379937 8342706
6.215780 -5.631610 1.088449 8342706
6.256242 -5.564728 4.335685 8342706
6.174261 -6.464168 0.726898 8342706
5.629793 -6.057113 3.205250 8342706
6.539161 -5.799650 1.087197 8342706
6.147138 -5.797474 2.607688 8342706
5.971916 -6.068143 2.540937 8342706
6.371966 -5.677566 1.802181 8342706
5.965363 -6.120720 3.833116 8342706
6.490243 -6.007379 1.569388 8342706
5.486901 -6.269858 0.734832 8342706
5.812938 -6.352526 4.987076 8342706
6.471585 -5.766476 3.978633 8342706
6.223588 -6.014882 0.136382 8342706
6.280057 -5.811791 3.591276 8342706
6.499674 -6.076879 4.585150 8342706
5.941261 -6.061307 3.131067 8342706
6.384627 -6.254866 1.754954 8342706
6.012333 -5.442482 1.995645 8342706
5.417127 -5.947047 4.250453 8342706
6.079900 -6.063555 2.984253 8342706
6.249534 -5.942338 3.229777 8342706
5.641015 -6.190368 3.348110 8342706
6.121439 -6.382002 4.414525 8342706
6.078009 -5.532647 4.115456 8342706
5.923418 -5.834429 2.921016 8342706
5.420709 -6.090220 2.064570 8342706
6.313142 -6.413001 4.873152 8342706
5.622092 -6.381373 2.935824 8342706
6.329052 -6.355083 2.374501 8342706
6.434969 -5.817159 1.049777 8342706
6.445459 -5.891323 2.277433 8342706
6.007443 -5.517190 2.057745 8342706
6.217019 -5.747231 0.478369 8342706
5.895480 -6.288008 1.571088 8342706
6.404964 -5.756495 2.466969 8342706
6.388199 -5.522789 4.097551 8342706
6.464725 -6.165487 1.493792 8342706
6.171318 -5.810402 3.243267 8342706
5.718840 -6.388522 3.089444 8342706
6.272489 -5.533267 4.470630 8342706
6.039154 -5.896036 0.767398 8342706
5.572435 -6.375608 4.395416 8342706
5.591809 -5.730904 4.265660 8342706
6.208262 -5.837399 1.368208 8342706
5.730132 -5.803968 1.066562 8342706
5.864908 -6.107258 0.627685 8342706
6.175635 -5.434312 1.177020 8342706
6.296947 -5.542737 1.182645 8342706
5.652222 -6.274459 4.276912 8342706
5.913542 -6.071436 4.923504 8342706
6.210245 -5.573750 3.757480 8342706
5.643914 -6.029607 4.256315 8342706
6.095349 -6.576506 4.287261 8342706
5.679369 -5.726867 3.961935 8342706
5.556531 -6.101519 3.763817 8342706
6.205538 -6.413460 1.038949 8342706
6.571896 -5.949690 0.483291 8342706
6.006050 -5.554513 2.933935 8342706
6.217805 -6.392060 1.665592 8342706
5.503431 -6.225075 3.906759 8342706
5.627509 -6.455901 2.801422 8342706
5.802874 -5.511338 2.272264 8342706
6.531952 -6.209948 2.071712 8342706
6.067833 -6.362946 0.543198 8342706
5.450746 -5.861578 2.603587 8342706
5.838377 -5.671587 2.545922 8342706
6.301263 -6.075878 0.228697 8342706
6.061355 -5.618842 4.334180 8342706
6.512969 -6.294733 4.419539 8342706
5.811591 -6.388814 4.405281 8342706
5.443384 -5.767440 4.331252 8342706
5.967307 -5.478344 1.516628 8342706
6.528699 -6.191217 4.006517 8342706
6.380411 -6.163112 1.426755 8342706
5.830514 -6.199126 3.739082 8342706
6.108085 -6.329391 1.930291 8342706
5.534069 -5.621012 3.377703 8342706
5.793995 -6.449829 3.529110 8342706
5.510391 -5.689997 3.930161 8342706
6.154545 -5.558209 0.039664 8342706
6.360195 -5.942786 2.646416 8342706
6.397865 -6.094689 1.746830 8342706
5.802752 -5.795364 3.221086 8342706
6.034215 -5.812228 3.185275 8342706
6.302430 -6.048495 2.044220 8342706
6.350864 -5.803731 2.205252 8342706
6.063240 -5.796918 0.113408 8342706
5.842634 -6.086228 0.094050 8342706
6.231709 -6.456095 0.888624 8342706
6.340664 -6.478912 0.744431 8342706
6.148793 -6.356229 4.229732 8342706
5.887900 -6.526766 1.809307 8342706
5.643449 -5.893642 0.985883 8342706
5.776152 -5.675562 2.675135 8342706
6.217931 -5.761940 0.416891 8342706
6.078556 -5.414659 2.087922 8342706
6.011052 -6.496996 1.069466 8342706
6.246340 -5.568723 1.284804 8342706
6.442880 -5.674834 3.594886 8342706
6.493320 -6.270327 0.343723 8342706
5.775777 -5.940623 4.026899 8342706
6.166101 -6.108702 1.735891 8342706
6.102051 -6.222088 3.253091 8342706
5.594082 -6.263483 3.694867 8342706
6.531961 -6.143468 1.846327 8342706
6.260561 -6.212718 1.698102 8342706
5.554646 -5.812859 2.487274 8342706
6.383974 -6.408426 2.021588 8342706
6.119003 -6.204526 3.580179 8342706
6.159405 -6.559670 4.293632 8342706
6.444479 -6.383999 3.658920 8342706
6.124531 -5.545517 2.007512 8342706
6.085206 -5.458765 0.887351 8342706
6.116680 -6.433267 1.172289 8342706
5.668266 -6.076625 0.136253 8342706
5.825023 -5.608720 2.627042 8342706
5.803542 -6.393344 2.629146 8342706
6.092009 -5.486232 3.478496 8342706
5.763493 -6.278196 3.376010 8342706
6.317739 -6.329039 1.086439 8342706
5.804873 -6.547350 4.780294 8342706
6.268495 -5.665523 4.914249 8342706
6.015293 -6.483694 1.863957 8342706
5.690487 -5.770691 0.293008 8342706
6.303324 -5.525301 4.296418 8342706
5.603152 -5.853065 4.381124 8342706
6.208546 -5.584845 0.502910 8342706
6.274004 -6.378101 4.028706 8342706
6.179364 -6.545671 0.563207 8342706
6.191891 -5.857328 1.022655 8342706
6.435168 -6.153277 2.764620 8342706
6.043391 -6.389582 3.732528 8342706
5.982193 -5.535590 2.038603 8342706
6.456645 -6.182704 3.303889 8342706
6.119097 -5.437877 0.232086 8342706
5.481709 -5.718021 4.404470 8342706
6.182528 -6.357821 1.663401 8342706
6.417111 -5.590056 1.850022 8342706
5.885042 -6.097292 0.917497 8342706
6.354264 -5.603105 3.679055 8342706
5.619185 -6.131817 3.757742 8342706
6.511906 -5.917170 1.177171 8342706
5.732798 -5.998453 2.410346 8342706
6.279467 -6.345643 2.942548 8342706
5.710624 -6.403296 4.109838 8342706
6.056835 -6.288542 3.896688 8342706
6.397237 -5.552312 4.949751 8342706
6.533321 -6.284398 4.648932 8342706
6.034347 -5.924722 3.877450 8342706
6.167076 -6.384538 4.327526 8342706
5.717815 -6.195345 2.026258 8342706
6.432899 -5.878142 2.102870 8342706
6.428424 -5.982066 2.213206 8342706
5.852881 -5.433059 1.049828 8342706
6.465217 -5.793569 0.294123 8342706
5.864680 -5.470349 1.402466 8342706
6.223125 -5.675270 4.844963 8342706
5.975062 -5.635709 1.221301 8342706
6.477675 -5.806262 2.270083 8342706
5.765443 -6.220830 3.672957 8342706
6.268511 -6.185010 1.537145 8342706
5.985342 -6.407140 3.983728 8342706
6.002876 -5.808031 2.299176 8342706
6.152941 -6.049951 4.108364 8342706
6.170091 -6.417522 4.338947 8342706
6.292843 -5.586881 4.740401 8342706
6.356480 -5.806344 3.620265 8342706
5.981108 -5.807129 3.166708 8342706
6.540933 -5.872408 3.065088 8342706
6.279745 -5.865295 2.866298 8342706
6.279383 -6.321383 1.987950 8342706
5.765156 -5.712721 3.605477 8342706
5.712742 -5.730457 3.075748 8342706
6.268321 -5.984552 1.474252 8342706
6.375652 -6.224706 1.091438 8342706
5.831886 -5.580935 2.962365 8342706
5.506166 -5.893093 0.118267 8342706
5.639525 -5.642174 0.437415 8342706
5.609391 -5.581897 2.848224 8342706
5.994599 -5.512901 2.123881 8342706
5.515325 -6.122813 1.873248 8342706
6.112699 -5.495555 3.489758 8342706
5.433460 -5.920700 4.573582 8342706
5.441253 -5.810137 2.922454 8342706
6.189987 -6.317603 1.832801 8342706
5.565326 -6.384060 0.834348 8342706
5.875331 -6.509348 1.632200 8342706
6.097054 -6.345190 3.429535 8342706
5.974006 -6.482571 4.605661 8342706
6.346248 -6.172439 0.804752 8342706
6.503566 -6.339448 1.449177 8342706
6.555730 -5.899802 3.396460 8342706
5.573061 -6.074460 1.108396 8342706
6.256477 -6.305387 1.942239 8342706
6.173557 -6.281535 2.961872 8342706
6.079607 -6.521887 4.980349 8342706
5.980359 -6.450484 0.610402 8342706
6.288675 -5.771595 1.749690 8342706
6.398291 -5.936671 1.293612 8342706
6.227851 -6.399375 0.475358 8342706
6.294415 -6.140947 2.884714 8342706
6.488205 -6.144707 0.080886 8342706
6.084538 -5.655376 1.229323 8342706
6.480066 -6.271363 4.291780 8342706
6.451845 -5.649518 4.801945 8342706
6.502121 -6.162381 3.611990 8342706
6.316614 -6.348436 1.608604 8342706
5.743475 -6.281956 0.428601 8342706
6.171535 -5.587728 2.702616 8342706
6.222594 -6.045868 3.860671 8342706
6.326972 -5.843729 0.398054 8342706
6.205464 -5.857510 3.939976 8342706
5.764328 -6.402161 3.287500 8342706
6.405710 -6.195623 0.020657 8342706
6.358374 -5.762220 1.360937 8342706
6.286767 -6.024343 4.233587 8342706
6.348438 -6.083261 2.020603 8342706
5.774387 -5.582806 4.387767 8342706
5.832520 -6.007219 0.853028 8342706
6.046837 -5.759423 4.175913 8342706
5.497739 -5.729312 4.004846 8342706
6.484244 -6.119082 1.757893 8342706
6.281935 -6.473441 1.708981 8342706
6.268862 -6.219650 4.637257 8342706
5.529728 -6.326749 1.228468 8342706
5.994004 -6.221417 3.455228 8342706
6.225030 -5.589732 3.769118 8342706
6.039583 -6.575583 3.663595 8342706
5.928834 -6.029620 1.741122 8342706
5.810482 -5.645428 2.751451 8342706
6.182280 -6.305839 0.922835 8342706
6.168917 -5.992096 3.880888 8342706
6.114291 -6.286978 1.973888 8342706
5.764685 -6.148556 1.029622 8342706
6.582078 -6.010113 1.751271 8342706
5.726429 -6.094823 4.307346 8342706
6.436500 -5.781760 1.025117 8342706
5.560684 -5.854986 0.772992 8342706
6.313308 -6.002950 4.984730 8342706
6.186208 -6.579609 4.124245 8342706
6.091548 -6.415582 4.703576 8342706
5.986269 -5.830057 1.412217 8342706
6.510210 -6.154451 4.997000 8342706
6.147186 -6.074514 1.679354 8342706
5.831836 -5.980197 2.081858 8342706
5.740835 -5.948585 3.037801 8342706
6.500982 -6.249992 4.095309 8342706
5.485862 -5.886627 3.563528 8342706
6.170473 -6.105379 0.980993 8342706
5.865319 -6.265091 1.890605 8342706
5.948197 -5.647208 2.398855 8342706
6.327307 -6.293561 0.087023 8342706
5.808255 -5.571150 4.540183 8342706
5.964030 -5.481503 4.066785 8342706
5.775048 -5.446945 3.562822 8342706
6.411983 -6.366921 1.533470 8342706
5.487803 -6.016005 4.720694 8342706
6.047581 -6.512506 0.132381 8342706
6.555624 -5.951831 1.497172 8342706
6.364387 -5.546515 3.370274 8342706
5.789277 -5.896633 0.825548 8342706
6.016181 -6.002347 0.892543 8342706
5.659651 -5.940855 2.229631 8342706
5.719821 -5.640294 2.261828 8342706
5.782506 -6.108833 3.546165 8342706
6.327178 -5.495362 1.134207 8342706
5.668636 -5.765274 4.830166 8342706
5.889800 -5.795202 0.076395 8342706
5.636855 -6.464834 2.462632 8342706
5.871368 -6.449677 3.640349 8342706
6.040724 -6.612664 0.549996 8342706
6.042668 -5.709871 1.736663 8342706
6.123038 -5.912768 1.785352 8342706
6.170795 -5.781361 4.158009 8342706
5.490118 -6.271296 4.961392 8342706
6.563592 -5.839272 2.165586 8342706
6.229045 -6.450299 3.902701 8342706
6.228988 -5.718572 2.532342 8342706
6.225484 -6.368386 2.372082 8342706
6.069963 -5.633532 4.493082 8342706
5.641023 -6.298101 3.483198 8342706
6.011103 -6.437728 2.731916 8342706
6.591160 -6.075586 0.468952 8342706
5.704330 -5.657919 4.800226 8342706
6.293828 -5.796157 0.290464 8342706
5.961435 -5.730515 4.692781 8342706
6.064192 -5.545472 2.427424 8342706
6.351810 -5.934311 1.853433 8342706
5.849177 -6.315966 3.437695 8342706
6.086754 -5.686332 4.238359 8342706
6.471264 -5.842730 0.474827 8342706
6.378176 -5.776806 4.611422 8342706
6.232522 -6.043769 2.750930 8342706
6.328965 -6.250678 0.714999 8342706
5.453346 -6.019790 2.422693 8342706
5.686576 -5.932244 4.321206 8342706
6.270743 -5.900908 4.818903 8342706
6.302297 -5.570515 1.367271 8342706
5.817880 -6.244538 4.054550 8342706
6.422351 -5.675773 4.593890 8342706
5.864285 -5.502854 4.345465 8342706
5.673913 -5.848044 0.491514 8342706
6.405389 -5.824898 3.463171 8342706
6.363127 -5.743591 0.653294 8342706
5.657557 -6.091731 0.742424 8342706
