# .PCD v0.7 - Point Cloud Data file format
VERSION 0.7
FIELDS x y z rgb
SIZE 4 4 4 4
TYPE F F F U
COUNT 1 1 1 1
WIDTH 1262
HEIGHT 1
VIEWPOINT 0 0 0 1 0 0 0
POINTS 1262
DATA ascii
25.234787 -5.743019 0.614943 1690649
24.940350 -6.191395 0.770940 1690649
25.170282 -6.153017 0.706362 1690649
24.583002 -6.204866 1.307770 1690649
25.272266 -6.017991 0.486004 1690649
24.979668 -5.977520 0.583804 1690649
25.206875 -6.050989 1.023694 1690649
24.935827 -6.144668 1.078496 1690649
25.438137 -6.135135 1.315043 1690649
24.787163 -6.085611 0.939118 1690649
25.426100 -5.976490 0.517870 1690649
25.084986 -6.208146 1.738057 1690649
24.993603 -6.440943 0.169720 1690649
24.724598 -5.867779 1.072544 1690649
25.105206 -5.758865 1.038745 1690649
25.227798 -6.401759 1.137661 1690649
25.433712 -6.177496 1.024481 1690649
24.857672 -6.230474 0.584959 1690649
25.185703 -5.963219 1.395321 1690649
25.121521 -6.116983 1.148946 1690649
25.124399 -5.686724 1.735977 1690649
25.118780 -6.452280 1.155230 1690649
24.620461 -6.235000 0.860083 1690649
24.603254 -6.256039 0.906214 1690649
24.743187 -5.699552 1.526304 1690649
25.174372 -6.173067 1.845929 1690649
24.682730 -6.174476 1.414708 1690649
25.193146 -5.745180 1.824047 1690649
25.028214 -6.392699 0.650400 1690649
25.254234 -5.834187 1.251643 1690649
24.859045 -5.724494 1.421060 1690649
24.867744 -5.922318 1.624503 1690649
25.387026 -6.256323 0.965711 1690649
24.827545 -5.960908 0.759167 1690649
25.039608 -6.189435 1.077878 1690649
25.300581 -5.697544 1.092089 1690649
24.603979 -6.037171 0.545213 1690649
25.083260 -5.858870 0.612896 1690649
24.717468 -6.185712 1.277634 1690649
25.073322 -5.782967 1.866897 1690649
25.176954 -5.930487 1.085000 1690649
24.857672 -6.372501 0.348415 1690649
25.142744 -5.902207 1.902111 1690649
25.017097 -6.361189 0.994141 1690649
24.768135 -5.741273 1.893716 1690649
25.231169 -6.222225 1.144693 1690649
25.048634 -6.375971 1.443572 1690649
24.980055 -5.888419 0.998974 1690649
24.863525 -5.642103 1.032094 1690649
24.985546 -5.723442 1.368743 1690649
24.828251 -5.917353 1.227008 1690649
25.161303 -5.631051 0.420468 1690649
25.390301 -5.926847 1.493677 1690649
24.809975 -5.844295 1.004571 1690649
24.611336 -6.230905 1.847930 1690649
24.943747 -6.389258 1.709327 1690649
24.840202 -6.142333 0.796643 1690649
24.841124 -5.929363 0.575557 1690649
25.354918 -6.305089 0.926800 1690649
24.993481 -6.099591 1.453984 1690649
24.679090 -6.083710 0.930997 1690649
25.153696 -6.036008 0.137783 1690649
24.777294 -5.904180 0.189975 1690649
25.050339 -6.438813 0.170046 1690649
24.990543 -5.801787 0.990484 1690649
25.120733 -6.263032 1.732353 1690649
24.846394 -6.346705 1.668230 1690649
25.057360 -6.498629 1.793643 1690649
24.779631 -5.900013 0.204592 1690649
24.699965 -6.204869 0.348310 1690649
24.810572 -5.941965 1.333392 1690649
25.161879 -6.193196 0.654759 1690649
24.835588 -6.302358 1.644968 1690649
25.396688 -6.107732 1.139600 1690649
25.166611 -6.082514 0.107794 1690649
24.982630 -5.697185 1.215151 1690649
25.067472 -5.889212 0.220594 1690649
24.991652 -6.399065 1.117136 1690649
25.297049 -6.091279 0.703505 1690649
25.187880 -5.781972 1.184574 1690649
24.944668 -5.639002 0.220484 1690649
25.007746 -6.254185 0.477067 1690649
25.103262 -5.874080 0.907362 1690649
24.865374 -6.002566 1.776127 1690649
24.659145 -5.947944 0.677995 1690649
25.113867 -6.415708 0.183106 1690649
24.981110 -6.414171 1.464726 1690649
24.821608 -6.337927 0.141123 1690649
25.245750 -5.878664 1.495417 1690649
25.303591 -6.268493 1.266346 1690649
25.020697 -5.746481 1.704168 1690649
24.951595 -5.734201 1.115632 1690649
25.228823 -5.749835 0.760323 1690649
24.812788 -6.134604 0.199161 1690649
24.791878 -5.720364 1.253621 1690649
25.311829 -6.340432 0.596147 1690649
24.816629 -5.915234 1.659853 1690649
24.934866 -6.020556 1.904227 1690649
25.279644 -5.877739 0.500349 1690649
24.897984 -6.270469 1.642307 1690649
24.665680 -6.267733 0.965873 1690649
24.915646 -5.756758 1.732451 1690649
24.846586 -6.299109 1.475082 1690649
24.709658 -5.825323 0.636083 1690649
24.797260 -5.854897 0.126661 1690649
24.683151 -6.371912 1.110961 1690649
24.793968 -5.833529 0.612694 1690649
24.829889 -5.816055 1.039406 1690649
24.678619 -6.265169 0.788105 1690649
24.797083 -6.190444 1.285357 1690649
25.336828 -6.341873 0.141560 1690649
25.011957 -5.647607 1.892625 1690649
25.420172 -5.973558 0.959422 1690649
25.199289 -6.447058 1.810569 1690649
25.390272 -5.968595 1.457074 1690649
25.173948 -6.319539 1.039274 1690649
25.275543 -5.866880 1.352223 1690649
25.061409 -6.377429 1.143326 1690649
24.953817 -5.714943 0.760453 1690649
25.050924 -6.450413 0.158417 1690649
24.638515 -6.088432 0.948888 1690649
24.708221 -5.798669 0.295802 1690649
25.305830 -5.910079 1.319504 1690649
25.239902 -6.336731 0.115209 1690649
24.786903 -6.073891 1.069156 1690649
25.072954 -6.264678 0.259490 1690649
24.651913 -6.107075 0.945166 1690649
25.018219 -6.345118 0.484162 1690649
25.384867 -5.871010 0.696131 1690649
24.713490 -5.968412 1.863250 1690649
24.893948 -5.919674 0.243661 1690649
25.132938 -6.069554 0.453459 1690649
25.328354 -6.382165 0.895750 1690649
24.613586 -5.889014 1.413137 1690649
24.797792 -5.967364 1.527398 1690649
24.827232 -6.052388 0.327290 1690649
25.210695 -6.324405 1.469629 1690649
24.939878 -6.102859 0.508086 1690649
25.248060 -6.200555 1.353330 1690649
25.158422 -5.842842 0.215420 1690649
24.646051 -6.092817 0.649980 1690649
25.423790 -6.176967 0.751633 1690649
25.327705 -5.931689 1.304999 1690649
24.886976 -5.982283 0.899386 1690649
24.730526 -6.052546 0.628177 1690649
25.433199 -5.922001 1.192017 1690649
25.061214 -6.180720 1.305256 1690649
24.852034 -5.945053 1.671413 1690649
25.040686 -5.666823 1.192033 1690649
25.410692 -6.047311 1.279927 1690649
25.228239 -6.249302 0.508736 1690649
24.793966 -6.062326 1.018412 1690649
25.115852 -6.040075 1.225947 1690649
25.175882 -6.160302 0.686973 1690649
-4.354885 7.181523 0.477958 10053171
-5.951986 7.112341 0.421836 10053171
-4.432898 6.962509 2.373328 10053171
-5.151897 7.175068 2.878617 10053171
-3.840703 7.004918 0.288432 10053171
-6.685742 6.756661 2.476840 10053171
-4.094944 7.141993 2.547229 10053171
-3.146837 6.960336 1.343340 10053171
-4.377373 6.966598 0.505791 10053171
-3.484751 7.190249 2.580615 10053171
-3.668710 7.203331 2.492904 10053171
-3.271940 6.954741 0.834003 10053171
-3.993753 7.062249 0.158160 10053171
-4.978692 6.819515 1.160698 10053171
-6.814186 6.978517 0.194762 10053171
-4.608175 7.108917 2.204794 10053171
-6.418468 6.975959 1.214905 10053171
-4.661771 6.949728 0.458207 10053171
-6.905917 6.759111 2.825765 10053171
-6.306623 7.229583 2.882907 10053171
-6.086904 7.074862 0.752405 10053171
-6.138431 6.793436 2.804471 10053171
-3.740909 6.849730 2.210623 10053171
-4.824772 7.064164 2.511921 10053171
-6.587418 7.003894 2.661756 10053171
-6.063844 7.155224 1.105794 10053171
-3.419307 7.148417 1.447924 10053171
-4.628200 6.957900 1.348042 10053171
-6.016767 7.233087 2.398801 10053171
-6.681100 7.024267 2.960917 10053171
-6.862115 7.074265 1.111934 10053171
-5.968653 6.758362 0.151894 10053171
-6.127510 7.008231 1.958842 10053171
-3.864191 6.963242 0.579396 10053171
-4.723743 7.149930 0.106926 10053171
-5.866105 7.160798 2.092734 10053171
-4.847389 6.957818 1.396558 10053171
-5.509056 7.251765 2.729253 10053171
-5.063387 6.760509 1.311269 10053171
-6.168644 6.972811 2.531982 10053171
-4.479642 6.928573 2.130223 10053171
-4.107908 7.104002 1.110727 10053171
-3.849598 6.757317 0.897853 10053171
-4.729942 6.940018 2.247328 10053171
-5.543209 6.958386 0.651475 10053171
-3.798819 7.056215 1.169351 10053171
-3.481985 7.070533 2.111504 10053171
-4.281034 7.182224 0.711076 10053171
-4.104313 7.252007 2.554958 10053171
-5.277789 6.966447 1.602363 10053171
-6.757679 7.054516 2.616154 10053171
-5.653276 6.992857 1.230755 10053171
-5.775466 6.853379 2.795396 10053171
-3.563884 6.868904 2.678664 10053171
-3.059734 6.879063 0.636432 10053171
-5.036274 7.046347 2.160877 10053171
-3.515475 7.060975 0.807965 10053171
-5.447120 7.051932 1.607413 10053171
-3.352847 7.081387 2.171013 10053171
-6.462100 7.191748 0.046371 10053171
-6.356316 6.765905 2.590249 10053171
-4.405654 6.943923 2.933876 10053171
-6.323076 6.946723 0.862284 10053171
-3.762006 7.173231 1.032550 10053171
-3.578607 7.071321 2.672419 10053171
-4.174519 6.907472 2.139026 10053171
-6.356092 6.810488 1.055174 10053171
-3.769563 7.016693 1.948240 10053171
-3.883758 7.059602 1.240980 10053171
-5.433669 7.220938 0.687012 10053171
-5.918586 6.956065 2.522889 10053171
-3.288568 6.922091 1.495022 10053171
-6.809316 6.771436 2.305069 10053171
-3.700704 6.996366 1.006073 10053171
-6.521714 7.198493 1.598230 10053171
-5.318539 6.982232 0.850861 10053171
-6.489401 6.872673 0.459689 10053171
-4.524688 7.082625 2.277246 10053171
-6.740067 7.184137 1.147017 10053171
-4.028213 6.877218 0.247826 10053171
-5.783745 7.204894 0.690822 10053171
-6.969497 7.063323 2.902877 10053171
-3.121977 7.054731 2.166476 10053171
-4.148195 7.095933 0.035527 10053171
-4.444693 7.171484 1.354176 10053171
-6.603574 7.237668 0.404263 10053171
-5.830425 6.877547 0.158437 10053171
-3.278641 6.887910 0.168969 10053171
-6.540690 6.917102 1.328231 10053171
-5.956138 6.837589 0.007414 10053171
-5.447522 7.045393 1.755629 10053171
-6.383570 7.006621 2.947950 10053171
-6.080033 6.838397 2.958654 10053171
-4.244738 7.222041 1.419810 10053171
-4.296779 7.106613 2.197434 10053171
-3.924322 7.193554 2.401473 10053171
-5.667906 7.217910 0.399559 10053171
-5.347610 6.903074 0.436234 10053171
-3.349859 6.939778 0.983977 10053171
-6.868988 6.963972 0.246756 10053171
-4.481338 6.797305 1.763823 10053171
-6.236748 7.212577 1.523038 10053171
-3.840657 7.192945 0.869899 10053171
-3.797426 6.965202 2.087725 10053171
-4.795599 7.121624 1.229166 10053171
-5.637888 7.258045 1.588084 10053171
-4.205833 6.979919 0.406831 10053171
-5.498710 7.187738 0.320246 10053171
-3.270934 7.056332 0.147995 10053171
-5.135687 6.774332 1.791185 10053171
-5.631461 7.056700 2.641331 10053171
-5.441331 6.871591 2.370484 10053171
-4.454347 6.918826 0.689366 10053171
-4.777149 6.931060 2.315216 10053171
-6.456502 6.959951 1.169124 10053171
-5.743037 6.795438 1.374524 10053171
-4.587147 6.921154 1.766016 10053171
-4.053802 7.057665 2.549740 10053171
-3.328148 7.027901 0.189016 10053171
-4.607128 6.749585 1.401585 10053171
-3.812855 7.212862 0.852224 10053171
-5.166678 6.865268 0.220829 10053171
-6.446132 6.771266 0.301503 10053171
-5.581393 7.015427 0.829164 10053171
-3.137208 7.195875 1.569937 10053171
-5.372912 7.081050 2.736520 10053171
-5.313532 6.919426 2.694371 10053171
-4.380015 6.888393 0.762878 10053171
-6.973516 7.104725 2.658614 10053171
-4.284823 7.064424 2.901411 10053171
-4.871225 6.971514 0.252465 10053171
-6.503345 6.899049 2.221952 10053171
-5.357738 6.924975 1.752990 10053171
-5.270930 7.055144 1.646190 10053171
-4.652642 6.841483 0.838910 10053171
-3.267851 6.829768 0.429223 10053171
-4.025003 6.955697 1.196906 10053171
-3.754727 7.222367 0.778009 10053171
-5.088123 7.021492 2.779039 10053171
-4.753399 7.166563 1.102360 10053171
-5.655483 6.769937 2.545676 10053171
-5.406536 7.167222 2.294025 10053171
-6.051862 7.003510 2.973702 10053171
-3.717342 6.935561 1.061512 10053171
-4.232520 7.093382 2.735476 10053171
-5.918476 7.070558 0.658185 10053171
-4.976563 6.815216 2.310963 10053171
-3.930054 6.783897 1.379777 10053171
-6.012535 7.198265 1.751034 10053171
-3.606872 7.199068 0.402419 10053171
-5.862136 6.927172 2.267867 10053171
-6.556514 6.901974 1.756665 10053171
-4.759633 6.821730 2.787328 10053171
-6.489542 7.166528 1.226438 10053171
-3.569042 6.996400 1.082374 10053171
-6.256994 6.809458 1.534825 10053171
-3.022038 6.843365 1.552684 10053171
-6.380530 7.223753 0.934512 10053171
-4.803286 6.987886 1.229359 10053171
-6.411331 7.099497 0.941630 10053171
-6.876169 6.885053 2.276298 10053171
-3.711503 7.210429 1.812941 10053171
-4.236063 7.177007 0.815402 10053171
-6.322334 6.793486 2.929906 10053171
-3.030119 6.777634 2.267114 10053171
-6.423800 6.912526 1.502651 10053171
-6.283825 6.986379 0.990990 10053171
-5.139196 6.778940 1.225437 10053171
-3.947901 7.163545 0.934422 10053171
-6.415122 7.075793 0.849088 10053171
-6.219268 6.741611 2.104194 10053171
-3.518147 7.032818 0.951160 10053171
-5.321920 6.977759 2.329545 10053171
-4.486756 6.764512 0.624327 10053171
-5.579531 7.209971 0.155711 10053171
-3.621040 6.916167 1.817443 10053171
-6.976977 7.162818 2.100060 10053171
-6.184809 7.146100 1.958427 10053171
-4.708308 6.922013 0.443399 10053171
-5.534208 6.939990 1.748398 10053171
-6.744712 6.762596 1.262869 10053171
-5.559845 6.801098 1.491665 10053171
-6.416032 6.896365 2.029128 10053171
-5.984788 6.779657 1.069979 10053171
-5.787526 6.771840 2.066739 10053171
-5.552612 6.815781 1.583930 10053171
-3.371728 7.080185 2.618128 10053171
-5.058807 7.038919 0.363031 10053171
-4.189103 7.191616 0.563515 10053171
-5.036528 7.137414 0.816052 10053171
-6.417067 6.910645 2.861484 10053171
-6.869483 6.822446 2.544341 10053171
-6.709810 6.753749 0.432628 10053171
-3.257021 7.084888 1.575740 10053171
-6.031662 6.755712 2.612026 10053171
-4.058783 6.924158 1.548437 10053171
-6.728013 7.235848 0.623636 10053171
-6.908676 6.949177 2.970084 10053171
-4.476779 6.933683 1.921244 10053171
-4.895722 7.083397 2.542208 10053171
-3.965477 7.095934 0.787640 10053171
-4.118289 7.241507 0.510875 10053171
-3.920312 6.791705 1.152758 10053171
-3.476418 7.222347 2.489937 10053171
-3.392275 7.175451 0.183309 10053171
-3.146910 6.775417 0.454094 10053171
-4.807322 7.202055 1.098610 10053171
-6.926032 7.088293 0.552245 10053171
-6.248686 6.760776 1.866385 10053171
-6.664065 6.931913 0.634811 10053171
-6.358605 7.177009 1.718640 10053171
-6.414662 6.840579 1.129831 10053171
-4.968063 6.830411 0.301118 10053171
-5.287391 7.030881 1.106962 10053171
-5.988967 7.070148 1.255980 10053171
-3.195769 7.012185 2.088418 10053171
-4.526998 6.910764 0.158423 10053171
-6.060010 6.828541 0.167473 10053171
-3.642898 7.146459 0.320642 10053171
-3.343690 7.184185 2.605649 10053171
-4.001699 6.894621 2.652734 10053171
-4.123551 6.849732 2.961581 10053171
-5.524757 7.086297 1.934036 10053171
-4.349325 7.161299 0.745315 10053171
-4.259630 6.952961 0.567547 10053171
-3.608765 7.153940 0.607643 10053171
-3.734786 6.935013 0.907628 10053171
-4.632806 7.013508 0.615204 10053171
-4.198216 6.954786 0.216981 10053171
-6.548568 6.785285 2.363312 10053171
-4.718204 7.157421 0.492379 10053171
-5.167202 6.989492 1.458627 10053171
-6.467634 7.260149 1.341433 10053171
-6.981046 7.016715 2.076930 10053171
-6.602779 7.256170 1.473353 10053171
-5.014962 7.132539 2.880046 10053171
-4.729346 6.837829 0.734471 10053171
-4.283757 6.924526 1.317810 10053171
-5.427983 6.822856 2.060564 10053171
-4.028919 6.758961 2.790710 10053171
-5.950624 7.018200 1.393457 10053171
-6.735347 6.759670 0.268061 10053171
-3.269706 7.137707 2.703705 10053171
-5.108908 7.074677 1.739398 10053171
-5.863361 7.193486 0.512019 10053171
-6.234134 6.898936 1.095853 10053171
-6.934023 7.091121 1.626062 10053171
-5.740493 7.211334 2.567464 10053171
-6.229789 6.946751 2.023762 10053171
-3.791201 6.962333 1.370552 10053171
-5.708759 7.146307 0.852840 10053171
-3.129798 6.820781 0.977654 10053171
-3.898387 6.846463 1.104608 10053171
-5.335921 7.177118 1.635862 10053171
-3.493749 6.765229 0.867613 10053171
-4.680968 7.232574 1.548166 10053171
-3.651171 7.013340 2.208562 10053171
-4.585355 7.143346 2.690843 10053171
-4.912113 7.085107 2.093205 10053171
-6.906059 6.808544 2.392692 10053171
-3.417016 7.102791 0.835400 10053171
-5.521055 7.059898 2.911073 10053171
-4.828730 6.931578 0.685257 10053171
-4.589904 7.001606 2.171901 10053171
-6.912251 7.009611 2.203768 10053171
-3.642208 6.876593 1.226391 10053171
-4.342101 6.924552 0.836422 10053171
-6.434062 6.782120 2.073060 10053171
-6.056860 6.777435 2.085157 10053171
-4.848235 6.786242 0.957537 10053171
-3.724180 6.850679 -0.005261 10053171
-4.863072 7.109390 2.477770 10053171
-3.748731 7.004967 2.493367 10053171
-5.175958 7.086979 1.511800 10053171
-6.225296 6.858234 1.606062 10053171
-6.664813 7.166131 2.941074 10053171
-3.953118 6.916189 0.955523 10053171
-6.232860 7.049942 0.941972 10053171
-4.888755 7.162923 1.520283 10053171
-3.294292 7.215315 0.922070 10053171
-6.348472 7.084030 1.857421 10053171
-5.701613 6.811442 1.329108 10053171
-3.549193 6.912023 0.408080 10053171
-5.643911 6.799024 2.121485 10053171
-4.304570 7.253206 0.444642 10053171
-3.204446 7.023056 1.444827 10053171
-3.123641 6.959468 1.809769 10053171
-4.073365 6.761486 0.922027 10053171
-4.284976 7.217264 1.339051 10053171
-3.079996 6.874506 0.307574 10053171
-4.005975 7.106287 1.438263 10053171
-5.427787 6.924358 1.055363 10053171
-3.983440 6.980098 0.379304 10053171
-3.772385 6.939799 0.166641 10053171
-5.713361 7.217118 1.849025 10053171
-5.689669 7.214454 1.794752 10053171
-6.041412 6.759731 2.376783 10053171
-3.605898 6.945627 0.806596 10053171
-5.214482 7.102108 1.177575 10053171
-5.120828 6.827299 2.481254 10053171
-4.287627 7.199343 0.633546 10053171
-6.961702 7.222223 0.063902 10053171
-4.021155 6.803391 1.121469 10053171
-4.072690 6.790514 1.852278 10053171
-5.402691 6.849251 2.732594 10053171
-3.274483 7.032240 1.504195 10053171
-3.305359 7.202035 -0.008290 10053171
-3.211015 6.830608 1.475556 10053171
-4.639737 6.945279 1.555234 10053171
-4.945735 6.840930 0.157833 10053171
-6.791568 6.837993 1.557320 10053171
-5.561875 6.936422 0.143824 10053171
-6.923849 6.923067 1.413975 10053171
-4.185790 6.774384 1.310078 10053171
-6.387860 6.920709 0.225679 10053171
-3.377224 6.750662 2.827929 10053171
-4.113381 6.790900 1.412234 10053171
-4.736026 6.811761 1.929267 10053171
-6.180003 6.791001 0.128718 10053171
-5.183568 7.143708 1.818821 10053171
-6.265622 7.115987 2.249654 10053171
-5.156549 7.077194 1.377748 10053171
-6.481325 6.927886 1.309037 10053171
-5.465866 7.087690 0.280666 10053171
-4.949866 7.169767 1.779156 10053171
-3.865769 6.960987 1.646131 10053171
-5.444942 7.055907 2.711760 10053171
-5.700975 7.043079 2.978093 10053171
-6.850543 7.132479 0.780731 10053171
-4.905025 7.169157 1.136899 10053171
-6.964764 6.948655 0.260042 10053171
-6.720385 6.990270 1.044203 10053171
-4.309227 6.799189 1.925752 10053171
-3.999947 7.162240 0.080816 10053171
-3.110778 7.052249 1.341481 10053171
-3.874379 7.034430 0.419365 10053171
-3.107131 6.742493 1.733088 10053171
-3.469702 6.859156 0.317797 10053171
-6.623101 7.098230 1.226218 10053171
-4.088328 7.134816 0.766628 10053171
-3.790587 7.002616 2.076921 10053171
-3.777404 7.028565 1.243868 10053171
-4.638818 7.152789 2.652053 10053171
-4.593723 7.201073 2.366141 10053171
-6.248461 7.166368 0.864670 10053171
-3.081890 6.898409 0.032685 10053171
-4.384993 6.752831 0.515403 10053171
-5.193929 7.011261 2.844971 10053171
-5.314086 7.012053 2.483284 10053171
-3.647620 7.222954 1.084277 10053171
-4.847095 6.789770 0.100558 10053171
-4.743228 7.120958 0.885530 10053171
-4.061664 6.888453 1.518459 10053171
-3.552603 6.959103 0.973698 10053171
-6.968463 7.118030 0.910448 10053171
-3.916889 6.930150 1.356131 10053171
-3.584869 6.941254 2.724006 10053171
-5.493012 6.847802 2.600035 10053171
-5.417663 6.792770 2.397226 10053171
-3.038062 6.816458 2.940615 10053171
-6.140214 6.836763 2.044552 10053171
-4.426188 7.138347 0.777395 10053171
-4.540847 7.033599 0.686145 10053171
-3.187511 7.238107 2.711500 10053171
-5.887162 7.220031 2.542799 10053171
-4.239853 6.903397 2.145196 10053171
-3.191683 6.932636 0.501188 10053171
-5.009534 6.840816 1.827335 10053171
-3.729323 6.967932 0.098794 10053171
-4.318117 7.220428 0.523055 10053171
-6.191068 6.875191 1.522615 10053171
-3.878375 7.219485 0.574019 10053171
-5.442872 6.772931 1.459489 10053171
-3.208333 6.811718 2.167485 10053171
-3.466396 6.979925 0.337110 10053171
-3.935729 7.249942 2.069235 10053171
-6.186306 7.192812 0.279547 10053171
-6.552478 6.898713 0.531659 10053171
-4.621075 6.889968 1.232931 10053171
-5.122361 6.790077 -0.000101 10053171
-5.448537 6.830498 0.520593 10053171
-3.747648 6.794508 0.410037 10053171
-5.372870 7.200130 0.685771 10053171
-3.189971 7.187035 1.385763 10053171
-4.947021 6.773518 2.537155 10053171
-6.734945 7.144243 1.609046 10053171
-4.821974 6.785944 1.185913 10053171
-4.070751 7.043579 1.637182 10053171
-4.076973 7.026334 1.609571 10053171
-3.499613 6.913370 2.914357 10053171
-4.070395 7.152404 2.904282 10053171
-6.621161 6.901233 1.744428 10053171
-5.207173 7.058657 1.702774 10053171
-5.096569 7.168039 2.150712 10053171
-4.514215 6.852300 0.037224 10053171
-5.346756 6.764757 2.607502 10053171
-5.186746 6.752530 1.377876 10053171
-4.065717 6.860270 0.719625 10053171
-4.364887 7.053147 1.048119 10053171
-5.222846 7.120780 0.696762 10053171
-3.774901 6.770583 1.890839 10053171
-3.669679 7.248263 2.737096 10053171
-3.360981 7.140458 0.995008 10053171
-4.070635 7.197421 2.637966 10053171
-3.074203 7.189641 2.866623 10053171
-3.571950 7.014387 1.663211 10053171
-5.323900 7.111498 0.093508 10053171
-3.925933 6.942752 2.312645 10053171
-6.411737 7.045190 2.554212 10053171
-3.119384 7.095577 2.788237 10053171
-4.871204 7.155682 0.121763 10053171
-5.888880 6.901322 0.144555 10053171
-4.290361 7.037732 0.566996 10053171
-4.636286 7.121463 -0.008481 10053171
-6.616444 7.215590 1.369542 10053171
-6.053284 6.919284 0.091874 10053171
-5.824090 6.749785 2.908841 10053171
-4.463106 7.044253 2.820677 10053171
-5.613132 7.208364 2.551754 10053171
-3.119571 6.945365 0.626786 10053171
-5.756660 6.938491 0.607975 10053171
-4.086967 7.106455 1.536438 10053171
-4.676369 6.766612 1.654305 10053171
-4.974287 7.126081 1.213644 10053171
-4.415658 6.975745 0.511726 10053171
-5.286846 7.250298 0.322239 10053171
-3.878989 6.938317 0.817330 10053171
-4.241002 6.935233 2.671372 10053171
-5.258793 7.091548 1.728697 10053171
-3.033160 6.962030 0.255542 10053171
-5.422910 6.840850 1.047957 10053171
-6.581958 7.052426 2.710703 10053171
-5.099296 6.805942 1.638243 10053171
-3.026849 6.898839 0.767266 10053171
-6.594070 6.982672 1.155048 10053171
-3.065442 6.985398 0.196720 10053171
-6.267411 7.213129 1.894319 10053171
-3.693784 6.933204 1.370470 10053171
-4.167536 7.119508 0.195656 10053171
-3.860047 7.150547 1.799973 10053171
-4.169260 7.033137 1.336699 10053171
-3.091025 6.842727 0.715107 10053171
-5.602591 7.236863 0.135751 10053171
-5.659544 7.002596 2.783676 10053171
-4.802408 6.941836 1.800900 10053171
-5.933408 7.159708 2.050694 10053171
-3.331186 7.109448 0.988119 10053171
-6.474605 6.823805 0.733667 10053171
-6.597979 7.062069 1.924979 10053171
-3.728752 6.855857 0.022899 10053171
-4.624129 7.115008 2.056392 10053171
-5.579869 6.749834 2.653723 10053171
-3.948492 7.082702 0.443476 10053171
-3.905456 6.792960 1.647888 10053171
-5.387478 7.025589 0.801529 10053171
-4.819670 6.851943 1.750071 10053171
-5.783675 6.942786 1.087058 10053171
-6.616999 6.861948 0.184824 10053171
-4.518428 6.958575 1.703470 10053171
-3.724980 7.116035 2.802233 10053171
-5.712249 6.850782 0.071994 10053171
-5.654223 7.056835 0.382149 10053171
-4.233968 6.857342 0.858069 10053171
-5.873499 6.868993 2.065695 10053171
-4.918849 6.837574 2.920357 10053171
-3.185560 7.003510 2.017699 10053171
-3.603063 6.904653 1.085689 10053171
-4.789686 7.150924 2.838016 10053171
-4.502001 7.162708 1.482993 10053171
-3.450380 7.094812 1.080152 10053171
-3.144655 7.155934 0.496002 10053171
-5.419226 7.110696 0.819008 10053171
-6.655783 6.967717 2.575020 10053171
-3.281316 6.896585 2.383032 10053171
-5.853622 7.125327 2.065546 10053171
-4.677866 6.930528 1.467979 10053171
-4.286387 6.844745 2.119641 10053171
-3.030681 6.763668 2.468592 10053171
-3.032369 6.994652 1.070618 10053171
-4.381718 7.198749 0.288038 10053171
-5.491653 7.222433 2.275979 10053171
-5.617805 7.129570 1.114052 10053171
-3.875849 6.897230 1.862141 10053171
-4.661365 7.099682 2.928223 10053171
-4.728876 7.181025 2.657464 10053171
-6.267245 7.045827 1.585288 10053171
-3.126010 7.193401 0.320275 10053171
-4.501547 6.871782 2.793947 10053171
-3.056997 6.917436 1.115379 10053171
-4.455674 7.261514 2.852686 10053171
-5.033898 6.935779 2.705234 10053171
-3.208490 6.968280 0.525982 10053171
-5.996060 6.809451 0.790031 10053171
-4.698784 7.125077 0.301361 10053171
-3.007567 7.068526 0.535861 10053171
-5.450429 6.906302 1.096285 10053171
-3.919181 6.815257 0.630148 10053171
-6.052710 6.993074 2.710653 10053171
-3.328583 6.922502 0.552641 10053171
-5.728675 6.737720 2.836888 10053171
-4.220551 6.842018 0.652522 10053171
-6.604618 6.988544 2.924257 10053171
-6.925103 7.237975 2.521798 10053171
-6.914946 7.220429 0.734825 10053171
-5.284664 6.995330 2.463680 10053171
-5.215838 6.958638 1.263337 10053171
-3.182803 7.145053 1.906595 10053171
-6.378220 6.954576 1.706282 10053171
-4.090094 6.839526 0.114300 10053171
-3.511878 6.896885 0.016675 10053171
-6.105334 6.899889 1.917129 10053171
-3.118912 7.074747 0.773165 10053171
-3.560859 7.026369 2.735868 10053171
-4.234964 7.051694 2.650226 10053171
-3.449268 6.899846 2.420982 10053171
-5.090148 6.901124 2.874784 10053171
-4.451141 7.131752 1.045524 10053171
-6.601090 6.853779 2.049690 10053171
-3.828978 6.874733 2.291553 10053171
-3.575211 6.982952 1.039014 10053171
-4.264030 6.748037 0.883324 10053171
-3.834878 7.013995 1.012350 10053171
-5.354189 6.961738 2.082200 10053171
-3.243672 6.847357 0.502816 10053171
-3.407869 7.266438 0.640587 10053171
-6.373549 6.741908 1.218361 10053171
-5.831413 7.239065 1.588814 10053171
-3.784937 6.900178 0.798189 10053171
-6.552068 6.863945 1.591770 10053171
-4.348705 6.794313 0.961289 10053171
-5.659951 6.946524 0.054256 10053171
-4.424074 7.009858 1.196228 10053171
-4.204597 6.914649 2.101386 10053171
-3.279202 7.175635 1.301536 10053171
-3.746185 7.235489 2.656008 10053171
-5.890025 6.821890 0.027582 10053171
-5.672284 6.801096 1.559982 10053171
-4.928114 6.952266 2.457270 10053171
-6.072833 7.065119 1.122406 10053171
-6.771979 7.222472 2.113753 10053171
-5.451627 6.862695 1.232697 10053171
-6.194354 6.905684 2.919172 10053171
-5.538713 6.755484 2.421433 10053171
-4.540444 7.174878 1.523097 10053171
-5.286667 6.885375 0.634447 10053171
-6.024658 7.231440 1.490080 10053171
-3.528045 6.860734 2.502871 10053171
-5.669613 6.935352 2.277670 10053171
-6.058112 6.958471 1.448080 10053171
-6.566038 6.848595 1.255962 10053171
-6.777292 7.053640 2.618398 10053171
-6.577843 6.874928 1.848458 10053171
-6.066157 6.990181 2.783191 10053171
-4.212630 7.175337 2.753848 10053171
-4.910255 7.072958 2.197341 10053171
-4.869908 7.132126 0.057594 10053171
-4.073195 6.834322 1.575261 10053171
-6.991210 7.253299 0.317928 10053171
-5.491176 7.148613 0.038796 10053171
-3.492017 6.803344 0.743511 10053171
-6.075797 6.802639 0.885002 10053171
-3.544097 6.823606 2.827886 10053171
-3.546010 7.174949 0.922434 10053171
-5.204106 6.826204 2.948139 10053171
-6.948305 6.866734 2.330265 10053171
-4.320696 6.854642 0.593822 10053171
-4.574521 6.858864 0.862523 10053171
-3.478378 6.826962 0.289545 10053171
-6.441252 6.992083 1.144741 10053171
-5.298033 7.225727 1.679599 10053171
-4.224664 7.195756 1.719947 10053171
-5.757722 7.111650 0.943664 10053171
-4.638211 6.956203 2.947320 10053171
-5.846084 7.017346 1.035660 10053171
-5.183314 7.142820 0.298138 10053171
-4.801663 6.852749 2.723475 10053171
-3.338660 7.011238 0.780754 10053171
-3.892563 7.041444 1.818702 10053171
-5.802208 7.012436 1.294075 10053171
-3.320977 6.967576 1.656667 10053171
-2.978502 7.220607 0.781751 10053171
-3.203431 7.211561 2.776047 10053171
-3.165892 7.182907 2.304543 10053171
-6.054116 6.934101 2.226372 10053171
-6.801616 7.049985 2.043347 10053171
-4.053100 6.790249 1.189367 10053171
-3.206573 7.225986 1.701011 10053171
-6.923715 7.144053 1.459651 10053171
-4.295537 6.884784 1.091206 10053171
-5.309721 7.027783 0.091764 10053171
-6.800885 7.147585 2.894890 10053171
-4.216330 6.823126 2.428608 10053171
-3.460158 7.020194 2.655957 10053171
-3.084656 6.775434 1.149421 10053171
-3.493886 7.231341 0.571544 10053171
-3.464691 6.943816 2.303117 10053171
-4.111174 7.084158 2.698469 10053171
-3.746002 7.056144 2.908920 10053171
-5.762805 6.931692 0.488482 10053171
-4.741545 7.095460 1.545163 10053171
5.904158 -5.986257 1.153977 8342706
6.122950 -5.727611 1.811605 8342706
5.460586 -6.092578 3.632785 8342706
6.177054 -6.465417 0.568666 8342706
5.458199 -6.214164 3.020828 8342706
6.186192 -6.437366 4.081935 8342706
6.363043 -6.053761 4.908620 8342706
6.201600 -5.620389 0.308522 8342706
5.994741 -6.156626 3.991251 8342706
6.173896 -5.996558 0.473042 8342706
5.562627 -5.641995 2.024378 8342706
6.181193 -6.441229 3.296658 8342706
6.560016 -5.781219 4.835199 8342706
6.079388 -5.631008 2.396855 8342706
6.467982 -5.973266 1.331147 8342706
6.087094 -6.234987 2.932423 8342706
6.535340 -5.879300 0.296847 8342706
6.334426 -6.431067 2.974290 8342706
6.325542 -5.529085 2.221632 8342706
6.449582 -6.365017 2.671272 8342706
6.197490 -6.096467 2.956084 8342706
6.279189 -5.580797 2.058557 8342706
5.621044 -6.291026 3.512295 8342706
5.822598 -5.557982 0.198270 8342706
5.642285 -5.774243 0.531438 8342706
6.503921 -5.796542 1.408834 8342706
6.025117 -5.410853 0.757375 8342706
6.215664 -6.324568 1.512752 8342706
6.436008 -6.151803 1.599723 8342706
6.548677 -6.040916 3.482772 8342706
5.624066 -6.177982 3.379323 8342706
5.826024 -6.187375 4.711168 8342706
5.780889 -5.548462 2.032278 8342706
6.328926 -5.776307 2.916421 8342706
6.259284 -5.917531 3.519930 8342706
5.465368 -6.113742 0.543875 8342706
6.393773 -5.811687 1.991014 8342706
5.911274 -5.769091 1.715654 8342706
5.751938 -5.859130 3.138784 8342706
5.654481 -6.165959 1.842197 8342706
5.775882 -5.523071 0.778947 8342706
6.447716 -6.094697 0.391553 8342706
6.001200 -6.140930 4.300035 8342706
5.574942 -6.186816 4.576815 8342706
5.730774 -5.744122 4.152857 8342706
5.733869 -5.927776 3.118481 8342706
6.030137 -5.990245 1.430369 8342706
6.415885 -6.288799 2.014816 8342706
5.653635 -5.722432 3.098450 8342706
6.279517 -6.090301 3.899274 8342706
5.409136 -5.994571 4.572474 8342706
5.960176 -5.474271 4.504039 8342706
5.508100 -5.969890 3.227082 8342706
6.445149 -5.921437 1.942981 8342706
6.168281 -6.495745 4.290757 8342706
6.390244 -5.868990 1.190088 8342706
5.414296 -5.950055 2.328039 8342706
5.505919 -5.754718 4.323452 8342706
6.419080 -6.015437 3.004692 8342706
6.101500 -5.672034 4.829821 8342706
6.289627 -5.871942 2.110804 8342706
5.814780 -5.468860 2.078414 8342706
5.865516 -6.337863 3.537418 8342706
6.001709 -5.505485 3.517073 8342706
5.739997 -6.019597 4.520516 8342706
5.839139 -6.076194 1.735402 8342706
6.163486 -5.749641 1.990631 8342706
6.165663 -6.287731 1.951092 8342706
5.778085 -6.239771 1.542115 8342706
5.617718 -6.253115 1.050345 8342706
5.860170 -6.391002 1.236795 8342706
5.957146 -5.957011 3.011444 8342706
6.068769 -6.125284 4.759933 8342706
5.801045 -5.813148 0.630815 8342706
5.737004 -6.082060 2.506180 8342706
5.944931 -5.987745 3.153786 8342706
5.484087 -6.205771 1.918509 8342706
6.089366 -5.601258 0.169551 8342706
6.426864 -5.943912 1.225563 8342706
6.547592 -6.055984 3.861721 8342706
6.034809 -6.205309 3.305778 8342706
5.560645 -5.665735 1.961330 8342706
6.110935 -6.266482 4.453942 8342706
6.106587 -5.585998 4.629471 8342706
6.426932 -5.674868 0.222468 8342706
5.963414 -6.168032 2.698167 8342706
6.245917 -5.992187 2.431724 8342706
5.495286 -6.162541 3.673438 8342706
6.046086 -6.320581 1.992935 8342706
5.882235 -6.345517 1.019410 8342706
6.201437 -6.408902 4.432630 8342706
5.564078 -5.930100 3.858289 8342706
5.699267 -6.378215 2.538832 8342706
6.095645 -6.500179 1.401173 8342706
5.841931 -5.890132 4.525009 8342706
5.591442 -5.765719 2.342167 8342706
6.446473 -5.848068 2.618365 8342706
6.108385 -6.418304 0.582213 8342706
5.569482 -6.144343 1.877764 8342706
6.308002 -6.024508 1.860154 8342706
6.558606 -6.053223 3.640383 8342706
5.651700 -6.383269 0.626875 8342706
5.671082 -6.462911 0.773814 8342706
6.210326 -6.009716 2.561289 8342706
5.639490 -6.021710 3.321398 8342706
5.750230 -5.586985 4.681308 8342706
5.772766 -6.244884 4.037823 8342706
5.665922 -5.825190 1.225424 8342706
6.434532 -5.964726 4.430581 8342706
5.825696 -5.621339 3.507701 8342706
6.028919 -5.792882 0.934286 8342706
6.177947 -6.361027 1.762035 8342706
6.150154 -5.791426 1.583436 8342706
5.956366 -5.786065 4.077818 8342706
6.026774 -6.206376 4.588551 8342706
5.788621 -6.142027 0.237702 8342706
5.920267 -5.645041 1.665788 8342706
6.193304 -5.631127 3.870087 8342706
5.709380 -5.970062 3.100661 8342706
5.810298 -6.197988 2.609472 8342706
5.671422 -5.844950 2.909003 8342706
5.608644 -6.220116 3.725927 8342706
5.905583 -6.583211 1.080432 8342706
6.127848 -5.790705 1.658429 8342706
6.302098 -6.308434 0.562627 8342706
6.375041 -5.693191 2.294981 8342706
6.144690 -5.583197 3.073654 8342706
5.684523 -5.702645 1.234113 8342706
6.005745 -5.712852 3.705611 8342706
6.208496 -6.027637 4.412726 8342706
6.520213 -6.112714 2.690889 8342706
6.344989 -6.162367 3.350043 8342706
5.685088 -6.304873 4.700291 8342706
6.289352 -5.548498 4.637029 8342706
5.972220 -6.227780 3.557517 8342706
5.762515 -5.657405 2.589849 8342706
6.067977 -6.552302 4.480103 8342706
5.536510 -5.763680 4.269624 8342706
5.533160 -6.148810 2.896574 8342706
6.108002 -5.641220 2.478246 8342706
5.691241 -5.891626 4.035733 8342706
5.873313 -5.424392 3.046377 8342706
6.497242 -5.834156 0.119522 8342706
6.057130 -5.437848 0.406849 8342706
6.395809 -5.722954 0.059622 8342706
6.053830 -5.767351 0.514510 8342706
5.666229 -5.706210 3.091949 8342706
6.343868 -6.232459 1.518139 8342706
6.143544 -5.789955 2.478887 8342706
5.796624 -6.165792 1.611983 8342706
5.977893 -6.213642 0.125945 8342706
5.855585 -6.049090 3.747912 8342706
5.715957 -6.153974 3.377241 8342706
6.295482 -6.255997 4.594047 8342706
6.318189 -6.445245 3.374904 8342706
6.030758 -6.568947 4.189240 8342706
6.005582 -5.653353 4.222154 8342706
5.694831 -5.628090 4.231760 8342706
6.217220 -5.882032 1.873769 8342706
5.505945 -6.227762 4.641188 8342706
5.909362 -6.344488 4.699693 8342706
6.046252 -6.438493 1.315788 8342706
6.127731 -5.619908 2.036325 8342706
5.955870 -6.193592 1.702986 8342706
6.021024 -6.010059 4.529649 8342706
6.095152 -5.640675 1.165373 8342706
6.137873 -6.289477 1.583273 8342706
5.732687 -5.737960 0.142350 8342706
6.343097 -6.161695 3.030168 8342706
6.098293 -5.571585 2.634555 8342706
6.245871 -5.856919 1.025996 8342706
5.615209 -6.084807 1.907464 8342706
5.721214 -5.670815 2.264125 8342706
5.799044 -5.638631 2.595430 8342706
5.513959 -5.915939 3.611530 8342706
6.017378 -5.830018 1.871638 8342706
5.710739 -5.882757 1.449990 8342706
5.745497 -6.252289 2.825788 8342706
5.996786 -6.320942 4.899167 8342706
5.985513 -6.458564 4.828261 8342706
6.092597 -5.621238 3.857852 8342706
5.622633 -5.572752 2.000414 8342706
6.540695 -6.018650 4.255591 8342706
5.658886 -5.587331 1.938954 8342706
6.098153 -6.441235 1.688084 8342706
5.591308 -6.237746 1.859827 8342706
6.336937 -5.916270 3.519854 8342706
6.466853 -5.833574 3.826993 8342706
6.425341 -6.102937 3.865340 8342706
6.120360 -5.848051 3.363816 8342706
6.157533 -6.386906 1.013248 8342706
5.663230 -6.166164 3.335105 8342706
6.494583 -6.315526 0.131779 8342706
6.390435 -6.087855 4.931722 8342706
5.428522 -5.923484 3.797292 8342706
6.491769 -6.026913 0.228181 8342706
6.240494 -5.661040 3.719924 8342706
6.104933 -6.003027 2.466066 8342706
6.271789 -5.967328 0.690977 8342706
6.438385 -5.965010 2.422728 8342706
6.095809 -6.508014 2.768339 8342706
6.402590 -6.085360 1.388230 8342706
6.218681 -5.647045 1.099204 8342706
6.263809 -5.580379 4.317538 8342706
6.162123 -6.453733 0.725775 8342706
5.624631 -6.048531 3.163931 8342706
6.547675 -5.789884 1.089602 8342706
6.173582 -5.779456 2.590326 8342706
5.999237 -6.078585 2.549310 8342706
6.386648 -5.684204 1.814818 8342706
5.960640 -6.114396 3.842783 8342706
6.487571 -6.012345 1.578506 8342706
5.493427 -6.279266 0.722386 8342706
5.812206 -6.367226 5.009254 8342706
6.474661 -5.770632 3.973716 8342706
6.239755 -6.029096 0.114268 8342706
6.278307 -5.813725 3.591463 8342706
6.497339 -6.059408 4.562634 8342706
5.898848 -6.046100 3.142347 8342706
6.389451 -6.236609 1.761281 8342706
6.012840 -5.451301 1.968088 8342706
5.409401 -5.965034 4.255926 8342706
6.086367 -6.082752 2.988548 8342706
6.262711 -5.940625 3.246425 8342706
5.641362 -6.182130 3.348343 8342706
6.151026 -6.362401 4.401279 8342706
6.090905 -5.518308 4.113116 8342706
5.931734 -5.844200 2.928874 8342706
5.417041 -6.104531 2.055248 8342706
6.308691 -6.422086 4.855108 8342706
5.631107 -6.391732 2.935535 8342706
6.312087 -6.337423 2.368052 8342706
6.445105 -5.802944 1.050370 8342706
6.455807 -5.875381 2.284895 8342706
5.991185 -5.490065 2.056312 8342706
6.235929 -5.755726 0.470558 8342706
5.887892 -6.270214 1.573239 8342706
6.408162 -5.768602 2.435652 8342706
6.366105 -5.533588 4.095188 8342706
6.466748 -6.184393 1.480180 8342706
6.172155 -5.801342 3.257684 8342706
5.727170 -6.402369 3.118295 8342706
6.269837 -5.545306 4.494786 8342706
6.022907 -5.901114 0.777063 8342706
5.587154 -6.365863 4.384017 8342706
5.604324 -5.743186 4.262650 8342706
6.212055 -5.824877 1.383552 8342706
5.726769 -5.795017 1.058794 8342706
5.872257 -6.080779 0.618295 8342706
6.197001 -5.463982 1.177682 8342706
6.277867 -5.549962 1.163520 8342706
5.641760 -6.249608 4.288133 8342706
5.937869 -6.064932 4.951519 8342706
6.223039 -5.575639 3.770298 8342706
5.649322 -6.034160 4.250074 8342706
6.090508 -6.568208 4.292511 8342706
5.674052 -5.742101 3.975599 8342706
5.558051 -6.085226 3.757360 8342706
6.229249 -6.407002 1.037004 8342706
6.564384 -5.942687 0.500616 8342706
5.991019 -5.554639 2.909508 8342706
6.206716 -6.393946 1.661478 8342706
5.519891 -6.214441 3.928336 8342706
5.608790 -6.456516 2.797737 8342706
5.797318 -5.493169 2.250380 8342706
6.540040 -6.239429 2.070616 8342706
6.078658 -6.373042 0.519354 8342706
5.439146 -5.870956 2.604843 8342706
5.827672 -5.664095 2.559129 8342706
6.294587 -6.082832 0.239585 8342706
6.029290 -5.609026 4.333096 8342706
6.516292 -6.283586 4.421433 8342706
5.816687 -6.393496 4.419209 8342706
5.471117 -5.776795 4.320799 8342706
5.949901 -5.476257 1.506678 8342706
6.531885 -6.208086 4.018319 8342706
6.398695 -6.166804 1.427131 8342706
5.836427 -6.182211 3.733339 8342706
6.115250 -6.339587 1.922265 8342706
5.555695 -5.615887 3.383676 8342706
5.787455 -6.461245 3.542447 8342706
5.512309 -5.679641 3.925304 8342706
6.181433 -5.551926 0.047411 8342706
6.360658 -5.943942 2.653360 8342706
6.370503 -6.082089 1.763208 8342706
5.783948 -5.797301 3.202759 8342706
5.989634 -5.826471 3.171529 8342706
6.327203 -6.060897 2.025270 8342706
6.356595 -5.824556 2.215223 8342706
6.063041 -5.798871 0.099974 8342706
5.797776 -6.065811 0.116083 8342706
6.238176 -6.467123 0.878203 8342706
6.353811 -6.444810 0.745601 8342706
6.155516 -6.354700 4.231036 8342706
5.872244 -6.529521 1.819621 8342706
5.656537 -5.899424 0.987586 8342706
5.766121 -5.677694 2.715509 8342706
6.199391 -5.727176 0.406468 8342706
6.093415 -5.423236 2.093136 8342706
6.004151 -6.507982 1.069048 8342706
6.255002 -5.551907 1.302109 8342706
6.452020 -5.693216 3.621074 8342706
6.461106 -6.257558 0.319397 8342706
5.760657 -5.931990 4.019454 8342706
6.192165 -6.097892 1.737508 8342706
6.112352 -6.232382 3.244135 8342706
5.594630 -6.241184 3.704252 8342706
6.535260 -6.165096 1.853695 8342706
6.261510 -6.218670 1.694149 8342706
5.554033 -5.787579 2.480548 8342706
6.388512 -6.386981 2.035361 8342706
6.114110 -6.206134 3.579948 8342706
6.163392 -6.568400 4.301124 8342706
6.441790 -6.371855 3.678437 8342706
6.117927 -5.547440 2.019048 8342706
6.086658 -5.450173 0.890887 8342706
6.139729 -6.434311 1.154667 8342706
5.674850 -6.074054 0.125023 8342706
5.858814 -5.605074 2.618554 8342706
5.794842 -6.388360 2.640199 8342706
6.068217 -5.489266 3.473911 8342706
5.765679 -6.285022 3.355979 8342706
6.331382 -6.333348 1.078958 8342706
5.799149 -6.528624 4.751192 8342706
6.256220 -5.661236 4.911097 8342706
5.998479 -6.478012 1.865699 8342706
5.676734 -5.786182 0.296741 8342706
6.315759 -5.506790 4.286487 8342706
5.588739 -5.832558 4.357362 8342706
6.228754 -5.584486 0.512878 8342706
6.281570 -6.360865 4.006235 8342706
6.190474 -6.549342 0.567344 8342706
6.172677 -5.848746 1.041732 8342706
6.426491 -6.144817 2.777710 8342706
6.036124 -6.397265 3.729270 8342706
6.009963 -5.547479 2.040412 8342706
6.447445 -6.191994 3.296525 8342706
6.119762 -5.436016 0.244950 8342706
5.476920 -5.719720 4.388025 8342706
6.166488 -6.328056 1.669669 8342706
6.421632 -5.588239 1.844680 8342706
5.887695 -6.100178 0.921165 8342706
6.362224 -5.603120 3.694151 8342706
5.643288 -6.143968 3.740270 8342706
6.501023 -5.908126 1.177611 8342706
5.740812 -6.003582 2.439375 8342706
6.248824 -6.341154 2.944327 8342706
5.731892 -6.380721 4.085992 8342706
6.062290 -6.301388 3.890277 8342706
6.393409 -5.559491 4.953791 8342706
6.507808 -6.262150 4.655617 8342706
6.025357 -5.939338 3.879409 8342706
6.175193 -6.391561 4.339692 8342706
5.736620 -6.204686 2.005941 8342706
6.438595 -5.864726 2.095658 8342706
6.456056 -5.977474 2.224914 8342706
5.858599 -5.418965 1.052370 8342706
6.482913 -5.785628 0.286872 8342706
5.837789 -5.450055 1.385190 8342706
6.244599 -5.712267 4.824084 8342706
5.962118 -5.650860 1.242020 8342706
6.494351 -5.792058 2.258201 8342706
5.796472 -6.223505 3.680644 8342706
6.278274 -6.185718 1.536463 8342706
5.978628 -6.385095 3.981229 8342706
5.984912 -5.825732 2.276866 8342706
6.150462 -6.051383 4.092364 8342706
6.161335 -6.407095 4.332114 8342706
6.293684 -5.614689 4.745448 8342706
6.355379 -5.791058 3.603949 8342706
5.998888 -5.784524 3.160527 8342706
6.540435 -5.862424 3.052717 8342706
6.275922 -5.868935 2.848564 8342706
6.294019 -6.314901 1.984929 8342706
5.754523 -5.708802 3.617607 8342706
5.720863 -5.717994 3.070927 8342706
6.254833 -5.988716 1.442808 8342706
6.371271 -6.238776 1.107971 8342706
5.816428 -5.604284 2.974683 8342706
5.486423 -5.909123 0.124415 8342706
5.644094 -5.653287 0.442840 8342706
5.620003 -5.585738 2.872725 8342706
6.010152 -5.503151 2.145826 8342706
5.508077 -6.111570 1.880792 8342706
6.121363 -5.478522 3.481051 8342706
5.440325 -5.910226 4.610654 8342706
5.450831 -5.803280 2.912955 8342706
6.199891 -6.301756 1.851540 8342706
5.555499 -6.365644 0.847092 8342706
5.882412 -6.506096 1.627828 8342706
6.107567 -6.351725 3.441152 8342706
5.963645 -6.475376 4.605265 8342706
6.374773 -6.172315 0.791701 8342706
6.510801 -6.323399 1.465534 8342706
6.554346 -5.929256 3.396511 8342706
5.593087 -6.100742 1.114814 8342706
6.279049 -6.281687 1.944566 8342706
6.166068 -6.306525 2.927881 8342706
6.078973 -6.518183 4.956051 8342706
5.986159 -6.455847 0.610719 8342706
6.298275 -5.776991 1.746134 8342706
6.395405 -5.932931 1.295547 8342706
6.218048 -6.393707 0.477089 8342706
6.296296 -6.118576 2.890045 8342706
6.481089 -6.140521 0.093811 8342706
6.089352 -5.663597 1.226043 8342706
6.495666 -6.274090 4.297604 8342706
6.444746 -5.647315 4.803180 8342706
6.519651 -6.161578 3.629411 8342706
6.320474 -6.326378 1.600030 8342706
5.758014 -6.302691 0.417330 8342706
6.178204 -5.582651 2.706391 8342706
6.247943 -6.032196 3.868738 8342706
6.326455 -5.846565 0.377865 8342706
6.208654 -5.837642 3.942516 8342706
5.792024 -6.418957 3.293769 8342706
6.395004 -6.223908 0.006422 8342706
6.356476 -5.753692 1.364349 8342706
6.282140 -6.012118 4.241964 8342706
6.365173 -6.084084 2.044126 8342706
5.785879 -5.595147 4.382617 8342706
5.841277 -6.031036 0.837625 8342706
6.052693 -5.749105 4.192052 8342706
5.511004 -5.725792 3.987728 8342706
6.448577 -6.123315 1.768790 8342706
6.287039 -6.459364 1.693903 8342706
6.275194 -6.223611 4.629032 8342706
5.559240 -6.328434 1.240697 8342706
6.007722 -6.227770 3.462913 8342706
6.236259 -5.560490 3.777371 8342706
6.026831 -6.591071 3.685539 8342706
5.936085 -6.007529 1.748980 8342706
5.803819 -5.647764 2.738880 8342706
6.189895 -6.317830 0.909821 8342706
6.173931 -5.982783 3.878881 8342706
6.129877 -6.281134 1.966711 8342706
5.766906 -6.131486 1.020474 8342706
6.580886 -6.014894 1.763216 8342706
5.748580 -6.103172 4.323924 8342706
6.471375 -5.779251 1.023907 8342706
5.557380 -5.878955 0.785140 8342706
6.317883 -5.996915 5.010610 8342706
6.181832 -6.548562 4.107580 8342706
6.079411 -6.405198 4.692093 8342706
6.004310 -5.827395 1.386166 8342706
6.512192 -6.172682 4.989353 8342706
6.150589 -6.060313 1.676555 8342706
5.813425 -5.959236 2.093976 8342706
5.757758 -5.973899 3.039475 8342706
6.495532 -6.254217 4.086035 8342706
5.508056 -5.878502 3.593149 8342706
6.172006 -6.080101 0.991992 8342706
5.860051 -6.268774 1.910493 8342706
5.955995 -5.641943 2.378341 8342706
6.299842 -6.277323 0.093989 8342706
5.817566 -5.581402 4.546637 8342706
6.003212 -5.464767 4.044414 8342706
5.767524 -5.439353 3.549081 8342706
6.414589 -6.353711 1.562071 8342706
5.499533 -6.016966 4.722922 8342706
6.050816 -6.524500 0.113920 8342706
6.534909 -5.952762 1.502887 8342706
6.356387 -5.537190 3.360181 8342706
5.781619 -5.887858 0.847007 8342706
5.999158 -5.994769 0.889225 8342706
5.643504 -5.912119 2.205920 8342706
5.732638 -5.608361 2.266762 8342706
5.784865 -6.126688 3.532982 8342706
6.341819 -5.482220 1.141431 8342706
5.652438 -5.755570 4.839181 8342706
5.886508 -5.784676 0.066991 8342706
5.642293 -6.470775 2.418602 8342706
5.881928 -6.463727 3.630515 8342706
6.006097 -6.599000 0.593801 8342706
6.064360 -5.688985 1.750320 8342706
6.097039 -5.898641 1.779560 8342706
6.163568 -5.774891 4.147573 8342706
5.485772 -6.256393 4.945572 8342706
6.555298 -5.855498 2.155266 8342706
6.212705 -6.453716 3.895871 8342706
6.236391 -5.712671 2.539151 8342706
6.215758 -6.367393 2.418503 8342706
6.090965 -5.644755 4.489169 8342706
5.638159 -6.294651 3.466754 8342706
5.991195 -6.437158 2.726722 8342706
6.580162 -6.088129 0.453806 8342706
5.705517 -5.653295 4.802980 8342706
6.291556 -5.799970 0.288238 8342706
5.961443 -5.734988 4.693077 8342706
6.074594 -5.532880 2.431349 8342706
6.334672 -5.948396 1.869334 8342706
5.841609 -6.322771 3.430346 8342706
6.108730 -5.699533 4.242753 8342706
6.457494 -5.828389 0.475394 8342706
6.379575 -5.775254 4.627328 8342706
6.252769 -6.049363 2.768856 8342706
6.327651 -6.246019 0.699339 8342706
5.451642 -6.002134 2.418695 8342706
5.677215 -5.927802 4.311518 8342706
6.274672 -5.893733 4.817576 8342706
6.286756 -5.577433 1.389611 8342706
5.817897 -6.262671 4.073229 8342706
6.452448 -5.684358 4.593725 8342706
5.859414 -5.499993 4.354540 8342706
5.676738 -5.860465 0.487181 8342706
6.415854 -5.812937 3.471994 8342706
6.371811 -5.758131 0.663015 8342706
5.691923 -6.076927 0.756718 8342706
