# .PCD v0.7 - Point Cloud Data file format
VERSION 0.7
FIELDS x y z rgb
SIZE 4 4 4 4
TYPE F F F U
COUNT 1 1 1 1
WIDTH 1302
HEIGHT 1
VIEWPOINT 0 0 0 1 0 0 0
POINTS 1302
DATA ascii
-3.796743 -19.506815 0.495031 1645029
-3.804269 -19.231689 1.210787 1645029
-4.299565 -19.760296 1.055054 1645029
-4.073059 -19.495766 1.035909 1645029
-4.000604 -19.406572 1.186994 1645029
-4.060029 -19.428427 1.478853 1645029
-4.030037 -19.398994 0.608692 1645029
-4.168035 -19.292913 1.251850 1645029
-3.920567 -19.460598 0.968526 1645029
-3.968199 -19.875406 0.631882 1645029
-3.445859 -19.612829 1.076369 1645029
-3.653371 -19.893156 1.283945 1645029
-4.160212 -19.611706 0.623554 1645029
-3.508482 -19.753372 1.224923 1645029
-4.126850 -19.606821 0.837828 1645029
-4.320055 -19.336300 1.148165 1645029
-4.400597 -19.840437 0.957877 1645029
-3.785689 -19.231049 1.156226 1645029
-3.711480 -19.420248 1.281777 1645029
-3.929743 -19.696581 0.886149 1645029
-3.747262 -19.806749 1.163029 1645029
-4.128463 -19.793379 1.336287 1645029
-3.803222 -19.290277 1.287938 1645029
-3.944887 -19.944902 0.656795 1645029
-3.843438 -20.029854 0.784554 1645029
-4.097793 -19.362335 1.127967 1645029
-3.875679 -19.862753 0.846620 1645029
-4.015971 -19.576527 0.918930 1645029
-3.614881 -19.573067 1.026413 1645029
-3.688240 -19.676048 1.119475 1645029
-4.129028 -19.763428 0.848033 1645029
-4.288600 -19.545773 0.651049 1645029
-4.143874 -19.564310 1.342860 1645029
-4.140567 -19.588923 0.885643 1645029
-3.586958 -19.868925 0.936595 1645029
-3.980827 -19.575182 1.074242 1645029
-3.908099 -19.196350 1.072890 1645029
-4.423932 -19.893362 1.078110 1645029
-3.912578 -19.549494 1.166232 1645029
-4.183165 -19.920393 1.084381 1645029
-4.138752 -19.758005 0.534623 1645029
-4.342019 -19.641291 0.873960 1645029
-3.720643 -19.752016 1.140013 1645029
-3.945720 -19.667454 1.218529 1645029
-4.105552 -19.455755 0.677085 1645029
-3.829065 -19.497019 0.667854 1645029
-3.818954 -19.226658 1.004608 1645029
-3.855800 -19.587379 0.885003 1645029
-4.041949 -19.620155 0.645525 1645029
-3.644734 -19.896547 0.814561 1645029
-4.057621 -20.062384 0.944078 1645029
-3.575336 -19.677151 0.994338 1645029
-3.996456 -19.774828 0.842558 1645029
-4.103952 -19.918907 1.333996 1645029
-4.057508 -19.474361 0.516328 1645029
-3.537662 -19.649609 1.288163 1645029
-4.265543 -19.284746 0.739902 1645029
-4.235527 -19.409887 0.663191 1645029
-3.864668 -20.073673 0.911360 1645029
-4.230814 -19.752432 0.855694 1645029
-3.946877 -20.023130 0.943050 1645029
-3.827553 -19.696337 0.985330 1645029
-4.260723 -19.715467 1.007240 1645029
-4.079422 -19.377920 0.900158 1645029
-4.079418 -19.111485 0.948057 1645029
-4.170497 -19.704348 1.399958 1645029
-4.073627 -19.731508 1.153849 1645029
-3.832573 -19.459457 1.245145 1645029
-3.620166 -19.507782 1.152206 1645029
-3.520438 -19.519037 1.013137 1645029
-4.263785 -19.962086 1.223325 1645029
-3.693647 -19.302155 1.040316 1645029
-3.574897 -19.625862 1.033113 1645029
-4.207849 -19.394501 0.581878 1645029
-4.081144 -19.299471 1.224313 1645029
-3.944869 -19.198572 1.056362 1645029
-3.756988 -19.419073 0.855339 1645029
-3.958739 -19.441771 0.559996 1645029
-3.652959 -19.599566 1.036841 1645029
-3.610810 -19.378794 1.205637 1645029
19.382883 -5.579737 0.607782 1690649
19.105968 -6.019296 0.775836 1690649
19.306370 -5.979730 0.690432 1690649
18.753695 -6.035468 1.291290 1690649
19.405497 -5.849374 0.488084 1690649
19.131489 -5.770203 0.602860 1690649
19.363756 -5.861577 1.017459 1690649
19.106373 -5.960950 1.079527 1690649
19.600641 -5.948750 1.299334 1690649
18.941122 -5.896997 0.942203 1690649
19.563480 -5.791666 0.530000 1690649
19.215652 -6.005624 1.756799 1690649
19.149775 -6.253929 0.181469 1690649
18.864008 -5.671134 1.067568 1690649
19.274290 -5.568943 1.022849 1690649
19.372267 -6.210701 1.148909 1690649
19.558727 -6.014338 1.024528 1690649
18.999109 -6.053442 0.585135 1690649
19.347412 -5.777798 1.397842 1690649
19.267668 -5.962457 1.126319 1690649
19.272463 -5.521257 1.729587 1690649
19.269686 -6.290250 1.165764 1690649
18.747311 -6.068147 0.858801 1690649
18.743778 -6.050656 0.893155 1690649
18.890635 -5.516233 1.538083 1690649
19.326412 -5.981546 1.848873 1690649
18.844088 -5.990639 1.410107 1690649
19.329367 -5.574166 1.813487 1690649
19.189476 -6.196071 0.625866 1690649
19.410206 -5.633308 1.230302 1690649
19.003445 -5.547520 1.422564 1690649
18.999714 -5.748682 1.597373 1690649
19.547476 -6.088353 0.985079 1690649
18.986359 -5.777780 0.768943 1690649
19.187185 -6.003609 1.054714 1690649
19.447266 -5.535763 1.102762 1690649
18.755222 -5.868649 0.539110 1690649
19.232979 -5.670152 0.606723 1690649
18.854986 -6.012302 1.282850 1690649
19.197704 -5.641045 1.885703 1690649
19.338116 -5.715572 1.071329 1690649
19.010841 -6.189095 0.346126 1690649
19.310234 -5.735804 1.891683 1690649
19.149446 -6.177056 0.988071 1690649
18.896811 -5.556295 1.895313 1690649
19.378111 -6.059141 1.155651 1690649
19.202654 -6.190714 1.449082 1690649
19.131155 -5.715357 1.005793 1690649
19.002516 -5.484331 1.047632 1690649
19.124922 -5.512873 1.377991 1690649
18.985037 -5.725189 1.230663 1690649
19.316587 -5.467402 0.408094 1690649
19.551107 -5.762464 1.512108 1690649
18.956207 -5.667061 1.029336 1690649
18.775253 -6.051769 1.834481 1690649
19.080671 -6.237259 1.712032 1690649
18.992416 -5.973671 0.805755 1690649
18.998549 -5.724622 0.593846 1690649
19.504017 -6.128053 0.919814 1690649
19.144938 -5.929542 1.465590 1690649
18.815506 -5.907080 0.929983 1690649
19.308645 -5.844860 0.113814 1690649
18.952099 -5.726095 0.212318 1690649
19.218191 -6.266768 0.200608 1690649
19.149364 -5.612915 0.975469 1690649
19.293646 -6.081309 1.728563 1690649
18.985157 -6.156126 1.654272 1690649
19.228577 -6.304465 1.773417 1690649
18.946569 -5.730034 0.214344 1690649
18.855183 -6.014072 0.341248 1690649
18.977369 -5.746889 1.336408 1690649
19.302912 -6.029164 0.653365 1690649
18.996302 -6.128244 1.622899 1690649
19.537609 -5.950145 1.152614 1690649
19.306982 -5.890212 0.103401 1690649
19.121937 -5.508665 1.215425 1690649
19.227573 -5.714491 0.224209 1690649
19.154766 -6.231461 1.109091 1690649
19.479851 -5.912534 0.711205 1690649
19.353634 -5.603668 1.191801 1690649
19.101553 -5.434909 0.237059 1690649
19.132786 -6.080173 0.459857 1690649
19.244043 -5.691648 0.890185 1690649
19.012115 -5.848104 1.775228 1690649
18.798136 -5.781904 0.687488 1690649
19.267300 -6.231772 0.225021 1690649
19.162680 -6.266732 1.457006 1690649
18.968096 -6.173814 0.151886 1690649
19.366014 -5.683308 1.510314 1690649
19.457371 -6.092302 1.259242 1690649
19.181950 -5.584650 1.689576 1690649
19.105091 -5.541151 1.112612 1690649
19.373089 -5.582748 0.759453 1690649
18.974909 -5.980376 0.184152 1690649
18.954659 -5.557042 1.266375 1690649
19.453194 -6.161053 0.563982 1690649
18.958181 -5.745803 1.658409 1690649
19.107512 -5.837397 1.883731 1690649
19.462418 -5.708928 0.500013 1690649
19.036333 -6.098335 1.626942 1690649
18.812098 -6.091548 0.983679 1690649
19.053459 -5.570910 1.731963 1690649
19.019239 -6.124354 1.466155 1690649
18.861097 -5.654214 0.622461 1690649
18.967356 -5.642041 0.156602 1690649
18.855028 -6.206137 1.128523 1690649
18.935638 -5.642229 0.623828 1690649
18.978071 -5.646915 1.066421 1690649
18.822041 -6.100239 0.777892 1690649
18.967457 -6.014265 1.261007 1690649
19.488344 -6.168076 0.143347 1690649
19.173941 -5.471450 1.880750 1690649
19.568722 -5.790859 0.960046 1690649
19.356386 -6.264171 1.844366 1690649
19.570250 -5.781816 1.462752 1690649
19.299788 -6.128930 1.047819 1690649
19.423241 -5.695629 1.360932 1690649
19.194313 -6.200009 1.147108 1690649
19.099609 -5.535119 0.756519 1690649
19.234968 -6.253770 0.141609 1690649
18.785295 -5.909401 0.979282 1690649
18.874767 -5.639466 0.289581 1690649
19.458763 -5.760732 1.311658 1690649
19.387991 -6.163334 0.104330 1690649
18.954098 -5.895230 1.093633 1690649
19.214907 -6.096665 0.247984 1690649
18.816122 -5.923615 0.953117 1690649
19.160383 -6.172708 0.481539 1690649
19.535479 -5.707854 0.690032 1690649
18.838348 -5.772725 1.872370 1690649
19.057934 -5.754647 0.235498 1690649
19.283684 -5.920436 0.467198 1690649
19.483753 -6.183817 0.896463 1690649
18.751656 -5.718385 1.419579 1690649
18.921122 -5.786206 1.513104 1690649
18.987446 -5.897221 0.327249 1690649
19.333666 -6.177752 1.455848 1690649
19.079857 -5.927880 0.511153 1690649
19.386353 -6.027571 1.346490 1690649
19.322887 -5.667455 0.204389 1690649
18.797144 -5.913786 0.664449 1690649
19.583694 -6.004869 0.762390 1690649
19.466326 -5.759603 1.293004 1690649
19.058231 -5.794990 0.905625 1690649
18.858385 -5.880675 0.655228 1690649
19.597357 -5.717050 1.215680 1690649
19.231525 -6.009077 1.291487 1690649
19.016539 -5.786298 1.673093 1690649
19.204983 -5.486363 1.189778 1690649
19.568104 -5.869092 1.283305 1690649
19.371700 -6.074150 0.493319 1690649
18.932768 -5.884034 1.015506 1690649
19.260969 -5.865892 1.226923 1690649
19.340307 -5.967867 0.697221 1690649
-4.384232 7.194026 0.481814 10053171
-5.967357 7.089881 0.420736 10053171
-4.447045 6.972480 2.359098 10053171
-5.171554 7.154912 2.892880 10053171
-3.825175 7.011598 0.298058 10053171
-6.686962 6.755867 2.481305 10053171
-4.122868 7.160775 2.556983 10053171
-3.169088 6.971777 1.330815 10053171
-4.395361 6.984038 0.504196 10053171
-3.507756 7.200073 2.574050 10053171
-3.674336 7.208561 2.482297 10053171
-3.269109 6.979328 0.845632 10053171
-4.006484 7.072499 0.173391 10053171
-4.953366 6.811862 1.141890 10053171
-6.835901 6.957507 0.188090 10053171
-4.606757 7.115534 2.211215 10053171
-6.415916 6.971918 1.207852 10053171
-4.645825 6.936807 0.452385 10053171
-6.893234 6.748409 2.814484 10053171
-6.303260 7.226124 2.877465 10053171
-6.068609 7.064353 0.767174 10053171
-6.137154 6.807698 2.803628 10053171
-3.729636 6.860602 2.224369 10053171
-4.829804 7.070429 2.523540 10053171
-6.574018 7.008115 2.651749 10053171
-6.069674 7.189492 1.108654 10053171
-3.405095 7.169321 1.461751 10053171
-4.617448 6.965706 1.352661 10053171
-5.999030 7.232571 2.391478 10053171
-6.672911 7.028658 2.969551 10053171
-6.882000 7.073172 1.104958 10053171
-5.965180 6.746061 0.149966 10053171
-6.112987 7.013319 1.953461 10053171
-3.881086 6.971566 0.589885 10053171
-4.740488 7.157413 0.111047 10053171
-5.863914 7.175343 2.065614 10053171
-4.853015 6.957838 1.413019 10053171
-5.513002 7.240073 2.744672 10053171
-5.054916 6.775214 1.308745 10053171
-6.157157 6.968035 2.542363 10053171
-4.472461 6.929910 2.119191 10053171
-4.128057 7.117394 1.088798 10053171
-3.864507 6.774392 0.896684 10053171
-4.725909 6.924818 2.247614 10053171
-5.554349 6.961309 0.640030 10053171
-3.817300 7.061213 1.160886 10053171
-3.508478 7.066536 2.122373 10053171
-4.299975 7.176346 0.710114 10053171
-4.110141 7.262091 2.557499 10053171
-5.294431 6.962701 1.610297 10053171
-6.761295 7.064725 2.629799 10053171
-5.671632 6.984204 1.193444 10053171
-5.768724 6.859355 2.804615 10053171
-3.523901 6.879572 2.696612 10053171
-3.076145 6.897469 0.627461 10053171
-5.048314 7.051117 2.191282 10053171
-3.502742 7.066848 0.804880 10053171
-5.459472 7.049020 1.610821 10053171
-3.344149 7.063526 2.158844 10053171
-6.457783 7.188183 0.028700 10053171
-6.361345 6.745738 2.576817 10053171
-4.393963 6.948100 2.932530 10053171
-6.313702 6.951013 0.855151 10053171
-3.771314 7.193965 1.024288 10053171
-3.548496 7.052433 2.689042 10053171
-4.178858 6.931870 2.150662 10053171
-6.339600 6.802116 1.060132 10053171
-3.774470 7.015750 1.921271 10053171
-3.891476 7.075381 1.236172 10053171
-5.436033 7.215436 0.706380 10053171
-5.931203 6.947294 2.514427 10053171
-3.291749 6.961131 1.489610 10053171
-6.825360 6.771189 2.285546 10053171
-3.680408 7.000719 1.002621 10053171
-6.512140 7.227305 1.591776 10053171
-5.306154 6.975653 0.860822 10053171
-6.479445 6.878508 0.453285 10053171
-4.536936 7.088096 2.252999 10053171
-6.717351 7.166145 1.143117 10053171
-4.027508 6.898386 0.244808 10053171
-5.776134 7.203846 0.698266 10053171
-6.966212 7.065910 2.914311 10053171
-3.122869 7.077517 2.189646 10053171
-4.122517 7.098832 0.031230 10053171
-4.449163 7.175241 1.345675 10053171
-6.614534 7.229058 0.428269 10053171
-5.858172 6.856456 0.173784 10053171
-3.261967 6.886634 0.152768 10053171
-6.535459 6.915421 1.330022 10053171
-5.957277 6.843914 -0.004440 10053171
-5.436492 7.061794 1.764083 10053171
-6.400607 7.002183 2.974308 10053171
-6.059885 6.844757 2.924614 10053171
-4.245747 7.217139 1.404138 10053171
-4.286708 7.121329 2.187178 10053171
-3.923466 7.211555 2.396266 10053171
-5.675285 7.211851 0.403414 10053171
-5.341055 6.903121 0.457900 10053171
-3.334668 6.956626 0.999949 10053171
-6.862660 6.950552 0.239550 10053171
-4.489443 6.800545 1.774835 10053171
-6.228298 7.211720 1.533992 10053171
-3.846389 7.201288 0.879839 10053171
-3.802051 6.976263 2.095108 10053171
-4.812745 7.142677 1.243112 10053171
-5.655911 7.242357 1.585863 10053171
-4.228582 6.976014 0.422332 10053171
-5.527055 7.204060 0.324154 10053171
-3.267244 7.081094 0.147223 10053171
-5.104087 6.790624 1.810138 10053171
-5.639775 7.038336 2.632829 10053171
-5.448573 6.866530 2.383828 10053171
-4.463667 6.914667 0.683639 10053171
-4.766842 6.934729 2.327061 10053171
-6.507901 6.945654 1.155744 10053171
-5.727290 6.794563 1.381498 10053171
-4.570238 6.929586 1.780126 10053171
-4.036056 7.069415 2.543457 10053171
-3.307298 7.024098 0.193862 10053171
-4.635289 6.735685 1.399814 10053171
-3.804522 7.206543 0.851651 10053171
-5.161297 6.854385 0.241751 10053171
-6.406998 6.742807 0.305954 10053171
-5.588531 7.020638 0.820517 10053171
-3.154902 7.181269 1.593878 10053171
-5.391769 7.059395 2.712216 10053171
-5.305797 6.924090 2.680512 10053171
-4.404354 6.906448 0.768903 10053171
-6.980415 7.100261 2.660500 10053171
-4.277724 7.060546 2.902617 10053171
-4.859986 6.982501 0.243172 10053171
-6.475425 6.904695 2.248908 10053171
-5.367323 6.897042 1.769044 10053171
-5.255991 7.070651 1.626674 10053171
-4.653942 6.848039 0.845389 10053171
-3.268425 6.834683 0.446601 10053171
-4.013784 6.934981 1.206493 10053171
-3.744688 7.245321 0.790293 10053171
-5.117677 7.027419 2.766203 10053171
-4.752061 7.155080 1.106915 10053171
-5.645536 6.781090 2.544917 10053171
-5.417926 7.156715 2.306715 10053171
-6.065921 7.000624 2.964400 10053171
-3.708681 6.943379 1.075794 10053171
-4.243091 7.088767 2.725731 10053171
-5.943056 7.046527 0.640033 10053171
-4.960233 6.816661 2.309654 10053171
-3.930012 6.812114 1.360840 10053171
-5.995252 7.184206 1.727023 10053171
-3.621660 7.198811 0.377721 10053171
-5.864249 6.939880 2.264105 10053171
-6.571890 6.876698 1.756718 10053171
-4.749221 6.814274 2.789304 10053171
-6.492023 7.173244 1.215769 10053171
-3.580139 6.998677 1.072377 10053171
-6.262873 6.826218 1.546377 10053171
-3.031536 6.869394 1.568492 10053171
-6.385181 7.221366 0.958335 10053171
-4.793342 6.978406 1.236393 10053171
-6.402804 7.098904 0.925654 10053171
-6.894903 6.888859 2.265571 10053171
-3.695199 7.237978 1.799904 10053171
-4.210878 7.200521 0.813135 10053171
-6.316736 6.806535 2.928561 10053171
-3.044526 6.769792 2.268121 10053171
-6.446954 6.922643 1.485577 10053171
-6.303474 6.990432 1.013736 10053171
-5.163799 6.786739 1.216185 10053171
-3.951262 7.169334 0.930367 10053171
-6.435427 7.075366 0.851067 10053171
-6.221490 6.752573 2.066026 10053171
-3.522702 7.048400 0.950079 10053171
-5.336681 6.961417 2.333597 10053171
-4.506212 6.776059 0.636946 10053171
-5.578129 7.221817 0.158484 10053171
-3.634501 6.925036 1.825217 10053171
-6.982617 7.174567 2.106525 10053171
-6.184900 7.153298 1.939812 10053171
-4.715525 6.905419 0.446615 10053171
-5.542547 6.941414 1.745773 10053171
-6.750268 6.778388 1.259289 10053171
-5.578923 6.796225 1.479462 10053171
-6.395597 6.888241 2.050974 10053171
-5.964913 6.773911 1.059596 10053171
-5.784070 6.769173 2.083173 10053171
-5.567537 6.801410 1.575110 10053171
-3.375767 7.063456 2.639605 10053171
-5.045584 7.030879 0.366675 10053171
-4.190267 7.183547 0.553620 10053171
-5.072118 7.143303 0.824495 10053171
-6.406027 6.891281 2.875061 10053171
-6.862810 6.831477 2.548239 10053171
-6.728912 6.770409 0.425075 10053171
-3.249587 7.084127 1.582022 10053171
-6.024649 6.732806 2.614074 10053171
-4.062207 6.933447 1.558481 10053171
-6.724033 7.214507 0.613640 10053171
-6.907813 6.944781 2.965979 10053171
-4.457720 6.942000 1.936559 10053171
-4.916442 7.082940 2.553719 10053171
-3.958627 7.095259 0.799219 10053171
-4.131935 7.235157 0.524675 10053171
-3.904592 6.794020 1.136451 10053171
-3.476116 7.206320 2.486986 10053171
-3.381114 7.179179 0.182680 10053171
-3.136537 6.799846 0.444154 10053171
-4.784883 7.197205 1.104382 10053171
-6.904752 7.092806 0.568396 10053171
-6.260457 6.780323 1.875832 10053171
-6.643934 6.921324 0.618838 10053171
-6.348901 7.156107 1.723898 10053171
-6.429978 6.805571 1.130459 10053171
-4.967812 6.826740 0.314623 10053171
-5.326208 7.020704 1.139505 10053171
-6.012478 7.075384 1.274795 10053171
-3.182560 6.997319 2.069654 10053171
-4.521359 6.917433 0.174860 10053171
-6.060027 6.837923 0.164645 10053171
-3.631392 7.134490 0.333139 10053171
-3.352588 7.201621 2.597939 10053171
-4.001585 6.917986 2.683494 10053171
-4.108343 6.833234 2.972743 10053171
-5.528090 7.086330 1.940751 10053171
-4.338995 7.157582 0.743434 10053171
-4.255798 6.937153 0.568139 10053171
-3.603373 7.150358 0.603866 10053171
-3.714840 6.946318 0.918286 10053171
-4.646308 7.028594 0.621935 10053171
-4.171340 6.955065 0.206940 10053171
-6.554461 6.793459 2.343761 10053171
-4.725698 7.165765 0.496771 10053171
-5.184810 6.970649 1.464734 10053171
-6.460285 7.239593 1.316791 10053171
-6.983291 7.039586 2.087487 10053171
-6.599148 7.226719 1.474047 10053171
-5.037181 7.111053 2.880236 10053171
-4.728171 6.823362 0.735628 10053171
-4.285901 6.939269 1.319027 10053171
-5.439062 6.810873 2.068720 10053171
-3.996270 6.790781 2.809727 10053171
-5.961592 6.999127 1.397076 10053171
-6.750412 6.774423 0.259454 10053171
-3.255600 7.139669 2.713229 10053171
-5.097482 7.077901 1.735854 10053171
-5.855434 7.184674 0.503161 10053171
-6.231059 6.901052 1.051783 10053171
-6.941030 7.085950 1.626697 10053171
-5.765678 7.208716 2.572926 10053171
-6.221674 6.943305 2.033680 10053171
-3.809720 6.964251 1.361906 10053171
-5.720465 7.177426 0.875166 10053171
-3.117952 6.801304 0.978864 10053171
-3.895805 6.848084 1.097916 10053171
-5.361041 7.173435 1.640072 10053171
-3.512029 6.738138 0.840217 10053171
-4.690857 7.226544 1.568675 10053171
-3.644340 6.969550 2.197993 10053171
-4.590170 7.133330 2.689734 10053171
-4.911631 7.083862 2.091544 10053171
-6.915564 6.802168 2.381095 10053171
-3.424734 7.107701 0.871065 10053171
-5.523891 7.047620 2.916027 10053171
-4.823138 6.940479 0.675099 10053171
-4.594450 7.026293 2.188774 10053171
-6.931410 7.025490 2.203869 10053171
-3.648397 6.846835 1.223998 10053171
-4.335340 6.925488 0.809115 10053171
-6.429405 6.778990 2.066454 10053171
-6.027819 6.781712 2.067490 10053171
-4.834132 6.766667 0.952031 10053171
-3.732025 6.860893 -0.011714 10053171
-4.867834 7.104782 2.463420 10053171
-3.744205 7.024987 2.449670 10053171
-5.186642 7.083386 1.527152 10053171
-6.237216 6.837638 1.604055 10053171
-6.664886 7.169435 2.927594 10053171
-3.959043 6.918458 0.961815 10053171
-6.227705 7.046388 0.959681 10053171
-4.904847 7.167173 1.533902 10053171
-3.310436 7.214626 0.906584 10053171
-6.359507 7.095062 1.855685 10053171
-5.700575 6.803151 1.321306 10053171
-3.565333 6.901471 0.409397 10053171
-5.624809 6.774842 2.109521 10053171
-4.280746 7.242201 0.436364 10053171
-3.201014 7.003949 1.429101 10053171
-3.123549 6.958649 1.812126 10053171
-4.053720 6.747812 0.901552 10053171
-4.277922 7.193264 1.319617 10053171
-3.081958 6.865840 0.303460 10053171
-4.019752 7.123702 1.432846 10053171
-5.411481 6.912466 1.070504 10053171
-3.973157 6.941193 0.354595 10053171
-3.798512 6.936582 0.154036 10053171
-5.738702 7.247684 1.856935 10053171
-5.680001 7.216290 1.806220 10053171
-6.035996 6.738303 2.408053 10053171
-3.596859 6.951340 0.804035 10053171
-5.225365 7.116300 1.181914 10053171
-5.119534 6.855350 2.501189 10053171
-4.292727 7.188608 0.632909 10053171
-6.964404 7.224559 0.042945 10053171
-4.021214 6.793640 1.131250 10053171
-4.047985 6.790406 1.834788 10053171
-5.393515 6.859262 2.725981 10053171
-3.293730 7.065793 1.552221 10053171
-3.309195 7.246295 0.004175 10053171
-3.239126 6.830950 1.477167 10053171
-4.645037 6.944547 1.554909 10053171
-4.965172 6.856806 0.151077 10053171
-6.799172 6.833601 1.574891 10053171
-5.567538 6.925057 0.148788 10053171
-6.913041 6.914256 1.421304 10053171
-4.204175 6.743449 1.299799 10053171
-6.372387 6.930768 0.226038 10053171
-3.366451 6.743579 2.833088 10053171
-4.118428 6.802819 1.407766 10053171
-4.729405 6.824993 1.913978 10053171
-6.153350 6.797132 0.146277 10053171
-5.191870 7.128325 1.840624 10053171
-6.259195 7.116325 2.265192 10053171
-5.147672 7.063401 1.380376 10053171
-6.466247 6.950344 1.312596 10053171
-5.467382 7.075898 0.282176 10053171
-4.949367 7.175392 1.800702 10053171
-3.884015 6.977582 1.651618 10053171
-5.420452 7.081254 2.715273 10053171
-5.701075 7.037738 2.981776 10053171
-6.841570 7.141512 0.779974 10053171
-4.914544 7.168654 1.133329 10053171
-6.982711 6.948572 0.260777 10053171
-6.713355 6.986374 1.025812 10053171
-4.299355 6.784959 1.947504 10053171
-3.987025 7.143195 0.064422 10053171
-3.116192 7.067896 1.326786 10053171
-3.871602 7.024811 0.408765 10053171
-3.101230 6.734127 1.724317 10053171
-3.451128 6.866562 0.315169 10053171
-6.630581 7.107149 1.218312 10053171
-4.090961 7.134089 0.746671 10053171
-3.795395 7.004411 2.070445 10053171
-3.783006 7.025026 1.242028 10053171
-4.621778 7.139231 2.664923 10053171
-4.584902 7.229335 2.345834 10053171
-6.232137 7.144053 0.857368 10053171
-3.085507 6.907705 0.015087 10053171
-4.384939 6.737066 0.488249 10053171
-5.185034 7.028954 2.849739 10053171
-5.332268 7.004344 2.487139 10053171
-3.684061 7.233520 1.062804 10053171
-4.837552 6.785829 0.074146 10053171
-4.736756 7.129042 0.904233 10053171
-4.074640 6.856115 1.511322 10053171
-3.537877 6.964843 0.962416 10053171
-6.956633 7.099156 0.895865 10053171
-3.900089 6.923044 1.360433 10053171
-3.589191 6.935577 2.740783 10053171
-5.500255 6.825012 2.587312 10053171
-5.409787 6.773155 2.393931 10053171
-3.041615 6.806987 2.938282 10053171
-6.161833 6.851370 2.043032 10053171
-4.433698 7.145647 0.761738 10053171
-4.512016 7.034461 0.673708 10053171
-3.188077 7.233326 2.731143 10053171
-5.881602 7.208364 2.528155 10053171
-4.218369 6.900815 2.128566 10053171
-3.204483 6.925100 0.505545 10053171
-4.979507 6.826065 1.849000 10053171
-3.745537 6.968821 0.099498 10053171
-4.304126 7.233953 0.536111 10053171
-6.191460 6.865005 1.523663 10053171
-3.869210 7.206598 0.576438 10053171
-5.445592 6.770804 1.463031 10053171
-3.210617 6.806874 2.173001 10053171
-3.448565 6.962122 0.328981 10053171
-3.952260 7.239659 2.068022 10053171
-6.171394 7.189232 0.273498 10053171
-6.564170 6.911764 0.526987 10053171
-4.610998 6.899334 1.235516 10053171
-5.131242 6.807724 0.004564 10053171
-5.464426 6.803632 0.525537 10053171
-3.787534 6.788088 0.401330 10053171
-5.336757 7.225760 0.692118 10053171
-3.195019 7.188700 1.365235 10053171
-4.929815 6.763180 2.548061 10053171
-6.735557 7.137988 1.629909 10053171
-4.821933 6.775118 1.166366 10053171
-4.076551 7.029814 1.600952 10053171
-4.091531 7.029820 1.613229 10053171
-3.497644 6.924515 2.911974 10053171
-4.083233 7.160449 2.884434 10053171
-6.634552 6.915893 1.739414 10053171
-5.166016 7.042929 1.677666 10053171
-5.106084 7.163353 2.150638 10053171
-4.512113 6.850866 0.041466 10053171
-5.346309 6.766538 2.601324 10053171
-5.184142 6.755427 1.359881 10053171
-4.049434 6.884157 0.721504 10053171
-4.373134 7.030870 1.047322 10053171
-5.232793 7.119408 0.715279 10053171
-3.755976 6.780129 1.917021 10053171
-3.649802 7.241490 2.734612 10053171
-3.384744 7.145964 0.978318 10053171
-4.067144 7.205039 2.660060 10053171
-3.083716 7.171902 2.849854 10053171
-3.572947 7.026905 1.654019 10053171
-5.318334 7.118397 0.078664 10053171
-3.923979 6.917544 2.308127 10053171
-6.401338 7.041853 2.551071 10053171
-3.094778 7.081628 2.794024 10053171
-4.849555 7.171206 0.129275 10053171
-5.895266 6.888768 0.148819 10053171
-4.285291 7.033506 0.556492 10053171
-4.636517 7.139086 0.001781 10053171
-6.615417 7.224161 1.383418 10053171
-6.040248 6.927071 0.109093 10053171
-5.834475 6.762351 2.904011 10053171
-4.483711 7.045650 2.826986 10053171
-5.628835 7.191919 2.529045 10053171
-3.118826 6.964546 0.619082 10053171
-5.740096 6.937777 0.603363 10053171
-4.084494 7.090743 1.524277 10053171
-4.682264 6.776971 1.670576 10053171
-4.979540 7.134204 1.217626 10053171
-4.419768 6.961701 0.510567 10053171
-5.292674 7.242436 0.336852 10053171
-3.875942 6.945811 0.845075 10053171
-4.252571 6.941945 2.676171 10053171
-5.243486 7.091952 1.718012 10053171
-3.018222 6.978165 0.262997 10053171
-5.443988 6.850366 1.039800 10053171
-6.575921 7.076020 2.720567 10053171
-5.089914 6.809142 1.651513 10053171
-3.025134 6.901436 0.744058 10053171
-6.573759 6.982666 1.164675 10053171
-3.076431 6.989053 0.199102 10053171
-6.255063 7.211646 1.917012 10053171
-3.695915 6.924403 1.371249 10053171
-4.166328 7.111237 0.209561 10053171
-3.852796 7.149209 1.809739 10053171
-4.160059 6.997921 1.362237 10053171
-3.087841 6.799877 0.732316 10053171
-5.592803 7.224523 0.123550 10053171
-5.666429 7.015807 2.805470 10053171
-4.812298 6.953591 1.799630 10053171
-5.952294 7.171319 2.034607 10053171
-3.334485 7.109792 0.997969 10053171
-6.494595 6.826362 0.728049 10053171
-6.591837 7.072069 1.923229 10053171
-3.744004 6.862204 0.039709 10053171
-4.614804 7.137327 2.025560 10053171
-5.595415 6.754885 2.673075 10053171
-3.987637 7.089037 0.417286 10053171
-3.927456 6.778594 1.654192 10053171
-5.369390 7.028321 0.803634 10053171
-4.843552 6.838714 1.761338 10053171
-5.760211 6.940593 1.100342 10053171
-6.616951 6.869150 0.179985 10053171
-4.536799 6.969875 1.710433 10053171
-3.710018 7.116027 2.808523 10053171
-5.708693 6.851160 0.075327 10053171
-5.670750 7.047619 0.389144 10053171
-4.257463 6.853247 0.869376 10053171
-5.885912 6.858244 2.075770 10053171
-4.896488 6.849208 2.922647 10053171
-3.160422 6.996574 2.035029 10053171
-3.600193 6.907093 1.083241 10053171
-4.798073 7.132514 2.851456 10053171
-4.522065 7.162181 1.492322 10053171
-3.459830 7.089800 1.080472 10053171
-3.159763 7.156375 0.497332 10053171
-5.408040 7.089566 0.820498 10053171
-6.665707 6.966441 2.579109 10053171
-3.292482 6.888232 2.369697 10053171
-5.823098 7.129285 2.052943 10053171
-4.672546 6.939580 1.473509 10053171
-4.296408 6.832811 2.107569 10053171
-3.005910 6.743448 2.456864 10053171
-3.045261 6.993271 1.057057 10053171
-4.381341 7.207430 0.302501 10053171
-5.466102 7.213441 2.303923 10053171
-5.598875 7.111865 1.128883 10053171
-3.884809 6.916473 1.853904 10053171
-4.660868 7.100558 2.932256 10053171
-4.742617 7.178887 2.681324 10053171
-6.279870 7.041345 1.595014 10053171
-3.134186 7.192179 0.306054 10053171
-4.523156 6.886719 2.789134 10053171
-3.032859 6.927063 1.121882 10053171
-4.451579 7.243382 2.839900 10053171
-5.050066 6.924578 2.688938 10053171
-3.206821 6.971863 0.515899 10053171
-5.979156 6.837348 0.797694 10053171
-4.682501 7.140553 0.305444 10053171
-3.002295 7.078418 0.558740 10053171
-5.456202 6.913597 1.112182 10053171
-3.908333 6.809389 0.633885 10053171
-6.060317 6.985040 2.711776 10053171
-3.304951 6.912330 0.554050 10053171
-5.725992 6.761206 2.856533 10053171
-4.183998 6.842398 0.630844 10053171
-6.597456 6.990884 2.961405 10053171
-6.901627 7.238923 2.525741 10053171
-6.907498 7.219879 0.730645 10053171
-5.280531 7.019766 2.455513 10053171
-5.214698 6.972729 1.264968 10053171
-3.180614 7.153766 1.916230 10053171
-6.373488 6.937046 1.715641 10053171
-4.084752 6.859393 0.125666 10053171
-3.514806 6.897348 0.010823 10053171
-6.120889 6.871828 1.891385 10053171
-3.105117 7.076016 0.784675 10053171
-3.557468 7.024289 2.732060 10053171
-4.244549 7.046251 2.624710 10053171
-3.442474 6.910949 2.425967 10053171
-5.106488 6.905677 2.870901 10053171
-4.430262 7.115025 1.047879 10053171
-6.627869 6.831083 2.032805 10053171
-3.843170 6.871644 2.278690 10053171
-3.542276 6.995298 1.051679 10053171
-4.285914 6.779242 0.865555 10053171
-3.863624 6.994406 1.011028 10053171
-5.362208 6.966289 2.103522 10053171
-3.247192 6.833798 0.510228 10053171
-3.403669 7.244329 0.629693 10053171
-6.376658 6.762693 1.216626 10053171
-5.812630 7.241051 1.591314 10053171
-3.805757 6.909986 0.803324 10053171
-6.569126 6.873115 1.597361 10053171
-4.357730 6.797036 0.972316 10053171
-5.659697 6.909737 0.061022 10053171
-4.412668 7.008999 1.190950 10053171
-4.178964 6.910277 2.114674 10053171
-3.255377 7.176383 1.292992 10053171
-3.739498 7.212821 2.664087 10053171
-5.908205 6.819238 0.035248 10053171
-5.677519 6.811760 1.563789 10053171
-4.937221 6.959817 2.472450 10053171
-6.076594 7.082698 1.120342 10053171
-6.767612 7.240984 2.108808 10053171
-5.472067 6.875781 1.236074 10053171
-6.186776 6.906390 2.912258 10053171
-5.546625 6.770498 2.395134 10053171
-4.506564 7.182402 1.514829 10053171
-5.289827 6.880473 0.616842 10053171
-6.009778 7.230079 1.491047 10053171
-3.528824 6.846607 2.530318 10053171
-5.685621 6.950728 2.289462 10053171
-6.069554 6.965849 1.450834 10053171
-6.573050 6.864544 1.240320 10053171
-6.777223 7.044225 2.616740 10053171
-6.581681 6.879314 1.849578 10053171
-6.065270 6.978776 2.776236 10053171
-4.207418 7.194540 2.752404 10053171
-4.903351 7.066922 2.218422 10053171
-4.875299 7.163861 0.045248 10053171
-4.088093 6.854279 1.562472 10053171
-6.944120 7.240928 0.319597 10053171
-5.503623 7.154099 0.040838 10053171
-3.509670 6.809707 0.731488 10053171
-6.069317 6.782250 0.916378 10053171
-3.545328 6.801642 2.840497 10053171
-3.549794 7.163514 0.902837 10053171
-5.201893 6.812138 2.950888 10053171
-6.942722 6.856381 2.312886 10053171
-4.318667 6.847869 0.577502 10053171
-4.575881 6.854087 0.886169 10053171
-3.491257 6.800961 0.293773 10053171
-6.425813 6.978005 1.131079 10053171
-5.284030 7.229375 1.667004 10053171
-4.223231 7.181512 1.709554 10053171
-5.753456 7.136061 0.932220 10053171
-4.639836 6.947577 2.937550 10053171
-5.846507 7.034761 1.039935 10053171
-5.180424 7.161855 0.290513 10053171
-4.809149 6.847920 2.734980 10053171
-3.350362 6.998072 0.797858 10053171
-3.904855 7.025130 1.817311 10053171
-5.792425 7.010488 1.312855 10053171
-3.341380 6.961404 1.646401 10053171
-3.000800 7.229312 0.790214 10053171
-3.192301 7.233991 2.783826 10053171
-3.146544 7.195805 2.300978 10053171
-6.072316 6.926868 2.243943 10053171
-6.832932 7.072485 2.063536 10053171
-4.082310 6.802166 1.184514 10053171
-3.185635 7.215173 1.700746 10053171
-6.926707 7.148630 1.476143 10053171
-4.304625 6.896811 1.099443 10053171
-5.314268 7.050780 0.104817 10053171
-6.801301 7.146177 2.875908 10053171
-4.213367 6.830540 2.420159 10053171
-3.456785 7.037781 2.642738 10053171
-3.064287 6.771625 1.140493 10053171
-3.497754 7.216881 0.568069 10053171
-3.478923 6.949126 2.301946 10053171
-4.097401 7.101338 2.706535 10053171
-3.747712 7.051249 2.901977 10053171
-5.753612 6.943069 0.504470 10053171
-4.738565 7.113247 1.569495 10053171
5.898819 -5.981617 1.158365 8342706
6.141037 -5.741159 1.808063 8342706
5.449352 -6.088737 3.648079 8342706
6.168798 -6.474065 0.543997 8342706
5.457634 -6.216462 3.041596 8342706
6.175889 -6.449639 4.082094 8342706
6.348444 -6.023678 4.902831 8342706
6.197510 -5.638721 0.315162 8342706
6.001042 -6.156920 4.011422 8342706
6.181824 -5.999180 0.475439 8342706
5.583960 -5.668178 2.006043 8342706
6.170933 -6.422322 3.307514 8342706
6.530590 -5.789655 4.843956 8342706
6.046269 -5.624880 2.399629 8342706
6.455712 -5.955242 1.329137 8342706
6.094082 -6.231719 2.954341 8342706
6.528515 -5.887461 0.292686 8342706
6.340443 -6.431002 2.978462 8342706
6.303954 -5.529763 2.206753 8342706
6.468316 -6.372814 2.663242 8342706
6.208300 -6.084096 2.969779 8342706
6.281216 -5.561519 2.046472 8342706
5.624175 -6.295832 3.506010 8342706
5.787096 -5.546402 0.188491 8342706
5.644749 -5.777236 0.502723 8342706
6.486461 -5.795021 1.394197 8342706
6.045940 -5.423961 0.756757 8342706
6.211009 -6.336737 1.513349 8342706
6.447585 -6.156708 1.588905 8342706
6.526507 -6.040467 3.467468 8342706
5.608309 -6.164886 3.377785 8342706
5.865936 -6.193462 4.719372 8342706
5.802878 -5.537958 2.032776 8342706
6.348093 -5.761555 2.903036 8342706
6.260611 -5.939235 3.544763 8342706
5.452890 -6.107463 0.546087 8342706
6.414899 -5.812910 2.001477 8342706
5.906831 -5.785291 1.728677 8342706
5.740779 -5.864613 3.169976 8342706
5.642799 -6.181220 1.851584 8342706
5.793568 -5.531960 0.777588 8342706
6.458730 -6.063363 0.387536 8342706
5.973241 -6.145570 4.302050 8342706
5.596395 -6.195791 4.581723 8342706
5.749996 -5.752295 4.163436 8342706
5.722024 -5.917531 3.119342 8342706
6.030701 -5.989900 1.439529 8342706
6.402664 -6.275849 2.013917 8342706
5.650259 -5.740758 3.088832 8342706
6.291110 -6.094361 3.909962 8342706
5.415505 -6.000946 4.591851 8342706
5.944877 -5.460970 4.484638 8342706
5.493294 -5.964448 3.235940 8342706
6.402808 -5.925783 1.940560 8342706
6.156935 -6.483091 4.286716 8342706
6.386038 -5.894980 1.209591 8342706
5.395716 -5.963516 2.345760 8342706
5.502107 -5.753428 4.316834 8342706
6.431800 -5.985824 2.996590 8342706
6.108913 -5.675634 4.841920 8342706
6.251516 -5.873016 2.129867 8342706
5.815905 -5.484661 2.090290 8342706
5.878191 -6.326735 3.531235 8342706
6.008153 -5.519049 3.501452 8342706
5.769241 -6.035245 4.521012 8342706
5.831143 -6.073026 1.761045 8342706
6.154549 -5.748729 2.004704 8342706
6.167069 -6.300271 1.948337 8342706
5.781785 -6.239901 1.526281 8342706
5.605016 -6.244542 1.045112 8342706
5.862692 -6.393640 1.249207 8342706
5.951012 -5.936896 3.020843 8342706
6.065399 -6.123911 4.747858 8342706
5.808707 -5.787117 0.614224 8342706
5.730505 -6.085426 2.502451 8342706
5.946162 -5.997637 3.168915 8342706
5.470678 -6.196856 1.918547 8342706
6.101041 -5.622262 0.165267 8342706
6.451500 -5.940416 1.234390 8342706
6.556604 -6.053276 3.872861 8342706
6.041049 -6.215933 3.258982 8342706
5.570242 -5.670099 1.961765 8342706
6.126102 -6.274251 4.460245 8342706
6.115752 -5.584020 4.640423 8342706
6.432693 -5.677295 0.219145 8342706
5.964295 -6.150567 2.703913 8342706
6.240800 -5.990964 2.435184 8342706
5.490950 -6.170782 3.685281 8342706
6.033475 -6.314056 1.980458 8342706
5.876313 -6.319623 1.003465 8342706
6.177710 -6.409715 4.432756 8342706
5.564829 -5.956160 3.879720 8342706
5.702473 -6.386165 2.507216 8342706
6.097501 -6.503156 1.403058 8342706
5.854907 -5.890203 4.532928 8342706
5.605870 -5.769512 2.350021 8342706
6.446668 -5.844509 2.592178 8342706
6.100946 -6.418136 0.580896 8342706
5.573995 -6.136921 1.873711 8342706
6.311584 -6.034378 1.873792 8342706
6.555763 -6.069793 3.632303 8342706
5.665483 -6.372793 0.631736 8342706
5.666028 -6.438577 0.760764 8342706
6.225462 -6.023804 2.567169 8342706
5.641059 -6.041734 3.313169 8342706
5.767647 -5.578953 4.725911 8342706
5.779484 -6.235658 4.015620 8342706
5.643988 -5.848732 1.216225 8342706
6.419669 -5.957282 4.431942 8342706
5.844304 -5.636821 3.511397 8342706
6.040600 -5.804152 0.950954 8342706
6.157816 -6.369503 1.769329 8342706
6.163062 -5.797003 1.595001 8342706
5.990631 -5.766677 4.100134 8342706
6.048185 -6.199839 4.588314 8342706
5.761137 -6.155174 0.224669 8342706
5.919099 -5.647943 1.666188 8342706
6.197999 -5.631281 3.841544 8342706
5.703144 -5.970825 3.097416 8342706
5.816461 -6.196784 2.606679 8342706
5.680163 -5.851318 2.905586 8342706
5.607797 -6.257775 3.722334 8342706
5.893512 -6.584836 1.074918 8342706
6.111943 -5.790309 1.663968 8342706
6.292736 -6.332417 0.529593 8342706
6.354363 -5.708755 2.283989 8342706
6.135386 -5.578394 3.078320 8342706
5.661698 -5.687603 1.212909 8342706
6.011096 -5.716484 3.706460 8342706
6.192094 -6.034281 4.405364 8342706
6.505567 -6.111742 2.682689 8342706
6.328485 -6.158976 3.361904 8342706
5.668331 -6.315810 4.697537 8342706
6.295912 -5.529227 4.632951 8342706
5.984036 -6.215348 3.575870 8342706
5.748331 -5.644463 2.611383 8342706
6.075600 -6.587840 4.501122 8342706
5.540468 -5.765233 4.278406 8342706
5.524727 -6.150996 2.878476 8342706
6.114055 -5.647591 2.474942 8342706
5.690817 -5.890434 4.052457 8342706
5.882855 -5.425191 3.053412 8342706
6.501356 -5.804286 0.127758 8342706
6.060340 -5.441568 0.390996 8342706
6.383815 -5.726501 0.038658 8342706
6.065026 -5.760448 0.497874 8342706
5.664120 -5.716608 3.055011 8342706
6.337878 -6.227444 1.511254 8342706
6.143443 -5.801403 2.496290 8342706
5.772820 -6.161356 1.596193 8342706
5.991373 -6.196663 0.108110 8342706
5.850826 -6.055075 3.759146 8342706
5.736401 -6.154685 3.398936 8342706
6.313265 -6.262290 4.588665 8342706
6.312256 -6.463740 3.400866 8342706
6.010395 -6.544943 4.171738 8342706
6.010597 -5.681225 4.224984 8342706
5.711792 -5.619247 4.213266 8342706
6.188554 -5.876186 1.878441 8342706
5.508957 -6.248979 4.643483 8342706
5.915252 -6.332698 4.707052 8342706
6.050739 -6.450833 1.311177 8342706
6.105330 -5.627173 2.041874 8342706
5.966796 -6.208308 1.713066 8342706
6.027457 -6.030471 4.540921 8342706
6.090193 -5.615698 1.159680 8342706
6.118517 -6.295552 1.579081 8342706
5.717083 -5.745818 0.138503 8342706
6.334266 -6.176963 3.054065 8342706
6.106794 -5.590656 2.650398 8342706
6.243183 -5.844440 1.015571 8342706
5.622773 -6.090592 1.911958 8342706
5.712358 -5.658888 2.247394 8342706
5.810243 -5.641644 2.582125 8342706
5.498919 -5.919907 3.590091 8342706
6.026131 -5.822292 1.869152 8342706
5.712249 -5.869584 1.459935 8342706
5.722203 -6.252342 2.807925 8342706
5.986162 -6.310361 4.890161 8342706
5.993642 -6.446914 4.824113 8342706
6.082882 -5.612229 3.821694 8342706
5.627854 -5.587697 2.001781 8342706
6.564139 -6.032722 4.237685 8342706
5.665332 -5.583431 1.949859 8342706
6.100899 -6.448986 1.697153 8342706
5.620699 -6.247399 1.864585 8342706
6.342783 -5.895521 3.496428 8342706
6.463163 -5.816988 3.818423 8342706
6.436333 -6.124621 3.888576 8342706
6.113305 -5.858998 3.360183 8342706
6.146031 -6.405472 1.013764 8342706
5.674032 -6.150806 3.340102 8342706
6.516226 -6.319663 0.122905 8342706
6.388290 -6.098981 4.941078 8342706
5.421057 -5.905016 3.785444 8342706
6.505896 -6.040205 0.219613 8342706
6.238216 -5.673036 3.732537 8342706
6.106050 -6.007294 2.466192 8342706
6.274829 -5.965883 0.692635 8342706
6.424030 -5.966866 2.422889 8342706
6.096187 -6.499552 2.784838 8342706
6.397780 -6.100119 1.398288 8342706
6.205492 -5.634077 1.078244 8342706
6.254523 -5.590597 4.337900 8342706
6.155517 -6.460741 0.728568 8342706
5.650607 -6.053674 3.174273 8342706
6.530918 -5.804706 1.086602 8342706
6.185471 -5.789392 2.586168 8342706
5.996177 -6.094468 2.533798 8342706
6.383146 -5.690435 1.804925 8342706
5.969070 -6.098123 3.859075 8342706
6.493667 -5.986639 1.592853 8342706
5.495775 -6.290781 0.716351 8342706
5.815113 -6.363151 5.001834 8342706
6.473516 -5.751091 3.977283 8342706
6.249593 -6.038855 0.112972 8342706
6.255820 -5.820756 3.591183 8342706
6.487216 -6.068484 4.586609 8342706
5.930560 -6.068021 3.129448 8342706
6.395733 -6.254107 1.761830 8342706
6.030467 -5.433438 1.980353 8342706
5.415123 -5.962370 4.257109 8342706
6.096746 -6.071303 2.964948 8342706
6.241405 -5.931441 3.261174 8342706
5.647473 -6.168487 3.340322 8342706
6.138081 -6.346546 4.406106 8342706
6.085761 -5.501560 4.126565 8342706
5.932363 -5.840927 2.938432 8342706
5.425262 -6.102783 2.056121 8342706
6.282764 -6.419957 4.866943 8342706
5.637939 -6.382260 2.943374 8342706
6.318536 -6.327419 2.379147 8342706
6.429354 -5.813232 1.050875 8342706
6.444736 -5.870721 2.267826 8342706
5.989582 -5.508779 2.061315 8342706
6.225010 -5.766841 0.469975 8342706
5.907713 -6.268225 1.574093 8342706
6.413739 -5.787593 2.457048 8342706
6.356774 -5.530993 4.087876 8342706
6.471666 -6.158835 1.477484 8342706
6.152921 -5.810806 3.260377 8342706
5.720112 -6.399897 3.102421 8342706
6.266870 -5.544462 4.478327 8342706
6.057984 -5.887964 0.750302 8342706
5.578420 -6.373073 4.389836 8342706
5.609405 -5.760164 4.270939 8342706
6.211310 -5.811032 1.376435 8342706
5.746731 -5.790228 1.057502 8342706
5.870495 -6.099114 0.622737 8342706
6.171881 -5.456321 1.190262 8342706
6.285892 -5.534555 1.189108 8342706
5.636268 -6.250677 4.292051 8342706
5.928465 -6.052558 4.917655 8342706
6.200736 -5.576136 3.784805 8342706
5.642310 -6.027408 4.260531 8342706
6.094758 -6.579197 4.284319 8342706
5.686757 -5.731777 3.968909 8342706
5.553944 -6.094541 3.765965 8342706
6.223035 -6.414416 1.022782 8342706
6.568539 -5.961124 0.493730 8342706
6.005089 -5.545628 2.918740 8342706
6.219337 -6.416657 1.659705 8342706
5.497672 -6.234560 3.925626 8342706
5.595741 -6.447551 2.806695 8342706
5.805578 -5.504664 2.261588 8342706
6.534945 -6.250315 2.083130 8342706
6.052155 -6.343212 0.537336 8342706
5.432243 -5.883190 2.582427 8342706
5.829790 -5.648671 2.544506 8342706
6.290322 -6.066642 0.201865 8342706
6.042974 -5.590560 4.365677 8342706
6.510602 -6.274508 4.430840 8342706
5.822021 -6.383114 4.411436 8342706
5.471807 -5.760760 4.339032 8342706
5.953770 -5.491305 1.503854 8342706
6.548254 -6.214335 4.028126 8342706
6.386371 -6.166628 1.432043 8342706
5.820723 -6.199553 3.734674 8342706
6.099987 -6.344768 1.924163 8342706
5.556109 -5.649243 3.388673 8342706
5.789264 -6.436193 3.527660 8342706
5.503269 -5.687857 3.932630 8342706
6.169183 -5.563444 0.025394 8342706
6.352753 -5.967620 2.644123 8342706
6.388382 -6.072310 1.732302 8342706
5.792433 -5.768013 3.221163 8342706
6.010602 -5.838644 3.195853 8342706
6.338650 -6.059439 2.035891 8342706
6.351763 -5.837724 2.209921 8342706
6.055452 -5.809779 0.099279 8342706
5.827477 -6.048865 0.105471 8342706
6.232062 -6.450851 0.872992 8342706
6.334385 -6.474206 0.732439 8342706
6.150597 -6.371029 4.226540 8342706
5.845423 -6.527505 1.810862 8342706
5.634048 -5.899693 0.976819 8342706
5.779174 -5.679718 2.708580 8342706
6.208346 -5.741036 0.407254 8342706
6.088684 -5.436850 2.098358 8342706
5.997401 -6.506946 1.071565 8342706
6.223142 -5.533577 1.283968 8342706
6.434486 -5.682555 3.618101 8342706
6.472896 -6.273118 0.320842 8342706
5.767499 -5.927009 4.026447 8342706
6.196815 -6.119143 1.717616 8342706
6.107743 -6.233346 3.243673 8342706
5.607496 -6.245101 3.714993 8342706
6.509042 -6.128076 1.834119 8342706
6.260397 -6.223927 1.704309 8342706
5.553719 -5.787328 2.490603 8342706
6.374155 -6.400939 2.017005 8342706
6.125932 -6.197185 3.585630 8342706
6.177016 -6.573245 4.283763 8342706
6.450755 -6.364320 3.673179 8342706
6.117070 -5.540256 2.015404 8342706
6.083529 -5.458947 0.895215 8342706
6.132506 -6.429790 1.143810 8342706
5.664046 -6.052999 0.125775 8342706
5.836260 -5.613881 2.642877 8342706
5.797134 -6.387784 2.636589 8342706
6.088888 -5.485588 3.483338 8342706
5.772535 -6.291875 3.343903 8342706
6.315931 -6.341513 1.069922 8342706
5.825252 -6.541447 4.758455 8342706
6.232150 -5.679636 4.906419 8342706
5.992129 -6.475712 1.871824 8342706
5.687409 -5.770552 0.306889 8342706
6.282200 -5.533836 4.277394 8342706
5.590290 -5.850096 4.334032 8342706
6.229599 -5.599402 0.506363 8342706
6.273842 -6.369079 4.027927 8342706
6.182080 -6.532494 0.570073 8342706
6.186097 -5.854235 1.024871 8342706
6.446852 -6.153184 2.767306 8342706
6.057699 -6.391389 3.733331 8342706
6.002113 -5.551394 2.021857 8342706
6.483596 -6.193492 3.322964 8342706
6.124708 -5.445045 0.219815 8342706
5.495960 -5.704655 4.394794 8342706
6.152871 -6.357603 1.656654 8342706
6.433105 -5.585623 1.849658 8342706
5.890113 -6.104534 0.913220 8342706
6.348581 -5.606942 3.698138 8342706
5.621442 -6.151216 3.752977 8342706
6.532746 -5.916849 1.148420 8342706
5.714386 -5.995327 2.434167 8342706
6.256107 -6.348983 2.940144 8342706
5.705002 -6.364953 4.081989 8342706
6.045433 -6.292769 3.910254 8342706
6.388226 -5.537222 4.939103 8342706
6.512492 -6.271856 4.656052 8342706
6.009105 -5.913148 3.872745 8342706
6.162463 -6.372613 4.347132 8342706
5.737084 -6.197561 2.010735 8342706
6.437562 -5.877972 2.113449 8342706
6.441831 -5.999169 2.197992 8342706
5.859439 -5.434425 1.064118 8342706
6.489395 -5.796420 0.272194 8342706
5.854117 -5.468164 1.377557 8342706
6.227962 -5.706120 4.846816 8342706
5.963832 -5.641316 1.238239 8342706
6.483031 -5.787004 2.259655 8342706
5.787084 -6.204659 3.655333 8342706
6.271043 -6.198233 1.528628 8342706
5.973760 -6.427325 3.986541 8342706
5.992504 -5.839758 2.273490 8342706
6.147465 -6.046048 4.119809 8342706
6.168520 -6.397373 4.353118 8342706
6.290990 -5.594963 4.752523 8342706
6.349933 -5.828694 3.609652 8342706
5.973364 -5.799963 3.185560 8342706
6.537556 -5.875181 3.046656 8342706
6.277389 -5.886392 2.837862 8342706
6.302691 -6.333729 1.988141 8342706
5.762317 -5.691975 3.599560 8342706
5.731885 -5.721887 3.076366 8342706
6.269353 -5.983865 1.467096 8342706
6.403071 -6.233192 1.071341 8342706
5.833720 -5.590633 2.974350 8342706
5.516907 -5.876981 0.127614 8342706
5.628553 -5.656172 0.438222 8342706
5.596174 -5.570104 2.859398 8342706
5.997651 -5.500581 2.127130 8342706
5.511488 -6.120265 1.876882 8342706
6.116669 -5.527330 3.486527 8342706
5.437250 -5.906934 4.575809 8342706
5.457162 -5.802468 2.909681 8342706
6.188326 -6.311473 1.832970 8342706
5.542943 -6.394979 0.849993 8342706
5.883543 -6.510799 1.634231 8342706
6.087779 -6.334330 3.431809 8342706
5.974489 -6.499483 4.615786 8342706
6.333818 -6.174870 0.797913 8342706
6.492897 -6.336981 1.454743 8342706
6.562023 -5.918935 3.424647 8342706
5.593152 -6.083928 1.103126 8342706
6.260181 -6.316538 1.958956 8342706
6.153157 -6.293608 2.931365 8342706
6.068593 -6.510409 4.951620 8342706
5.973181 -6.459161 0.629828 8342706
6.286144 -5.760616 1.742594 8342706
6.405910 -5.931475 1.297813 8342706
6.220883 -6.393673 0.464941 8342706
6.283566 -6.113097 2.888364 8342706
6.480276 -6.133437 0.083000 8342706
6.094903 -5.657846 1.238126 8342706
6.477612 -6.265870 4.289634 8342706
6.463108 -5.645769 4.802690 8342706
6.500559 -6.149712 3.634604 8342706
6.318988 -6.327313 1.600244 8342706
5.755393 -6.288464 0.424174 8342706
6.175682 -5.581599 2.700077 8342706
6.224277 -6.034532 3.857513 8342706
6.312974 -5.857573 0.378181 8342706
6.180230 -5.836338 3.960247 8342706
5.795665 -6.419301 3.281900 8342706
6.414507 -6.209741 0.009671 8342706
6.341438 -5.767817 1.358906 8342706
6.261617 -6.012355 4.221849 8342706
6.338317 -6.085012 2.008946 8342706
5.791373 -5.560122 4.387506 8342706
5.841384 -6.032045 0.845736 8342706
6.026208 -5.765619 4.181257 8342706
5.525226 -5.748880 3.991777 8342706
6.442583 -6.127731 1.752293 8342706
6.290627 -6.454977 1.718904 8342706
6.274832 -6.200423 4.633123 8342706
5.535023 -6.323580 1.217162 8342706
5.994147 -6.225663 3.467347 8342706
6.211141 -5.574422 3.787485 8342706
6.051712 -6.582910 3.669833 8342706
5.936090 -6.027721 1.747365 8342706
5.794589 -5.649401 2.734907 8342706
6.178330 -6.320602 0.929779 8342706
6.189762 -5.999523 3.890366 8342706
6.120493 -6.295885 1.977279 8342706
5.777980 -6.144029 1.027853 8342706
6.554461 -6.006168 1.766204 8342706
5.730930 -6.119944 4.297308 8342706
6.470034 -5.757286 1.004384 8342706
5.553032 -5.887993 0.790305 8342706
6.317019 -6.003132 5.002109 8342706
6.185524 -6.555813 4.130218 8342706
6.097391 -6.405010 4.706618 8342706
6.029245 -5.827081 1.397794 8342706
6.521842 -6.150255 4.996329 8342706
6.139864 -6.084851 1.669381 8342706
5.811646 -5.967543 2.084754 8342706
5.722765 -5.966138 3.022695 8342706
6.500962 -6.236583 4.104610 8342706
5.478561 -5.862287 3.592624 8342706
6.176816 -6.079548 0.993349 8342706
5.861166 -6.276745 1.893769 8342706
5.977958 -5.659356 2.381119 8342706
6.331066 -6.253515 0.075882 8342706
5.838339 -5.575919 4.553900 8342706
5.979682 -5.484558 4.055212 8342706
5.779041 -5.438421 3.556937 8342706
6.406519 -6.364100 1.554696 8342706
5.504340 -6.033918 4.719416 8342706
6.059910 -6.527503 0.110727 8342706
6.526381 -5.953430 1.495278 8342706
6.379215 -5.545273 3.374832 8342706
5.792226 -5.892899 0.827643 8342706
6.018375 -6.007996 0.885756 8342706
5.608785 -5.919346 2.242220 8342706
5.706195 -5.632341 2.272059 8342706
5.781909 -6.108236 3.545708 8342706
