# .PCD v0.7 - Point Cloud Data file format
VERSION 0.7
FIELDS x y z rgb
SIZE 4 4 4 4
TYPE F F F U
COUNT 1 1 1 1
WIDTH 1291
HEIGHT 1
VIEWPOINT 0 0 0 1 0 0 0
POINTS 1291
DATA ascii
9.301520 8.939847 0.183544 11697996
9.888459 10.690364 2.454734 11697996
9.200972 10.563349 3.003155 11697996
9.931334 10.409271 1.854676 11697996
9.068297 9.707841 1.777566 11697996
9.707859 10.411632 0.350833 11697996
10.015763 10.898632 2.372120 11697996
10.698930 9.933016 2.190529 11697996
9.729005 10.402750 3.617093 11697996
9.568384 10.302314 3.973309 11697996
8.844991 10.750564 1.040746 11697996
10.064648 10.840334 1.538315 11697996
8.792937 9.711694 0.331594 11697996
8.924575 9.861225 1.394279 11697996
10.449253 8.967108 2.590847 11697996
10.619877 10.838023 0.078759 11697996
11.185789 10.216733 1.765368 11697996
10.702922 10.148031 0.558355 11697996
11.173622 8.760481 2.276069 11697996
10.941450 9.306939 0.438054 11697996
9.014781 10.435003 1.625186 11697996
10.578930 10.668480 0.984211 11697996
10.748609 10.028084 2.765384 11697996
10.736434 10.123662 1.660607 11697996
10.250630 10.734531 3.573244 11697996
10.255757 11.097316 3.125291 11697996
9.210721 10.738798 1.174431 11697996
11.172210 9.523855 0.017954 11697996
10.364436 8.814788 0.686426 11697996
9.866679 10.080692 3.793884 11697996
9.798961 9.967563 3.313263 11697996
10.813346 11.149320 1.441465 11697996
10.117092 8.886952 0.106651 11697996
10.148948 10.613404 1.184001 11697996
10.584532 9.307367 2.012176 11697996
10.915682 9.831231 1.315090 11697996
8.778433 10.599400 1.206198 11697996
10.688210 9.673036 1.814731 11697996
10.905611 9.687974 3.641363 11697996
9.691496 9.148737 3.480300 11697996
9.741365 8.884203 3.219904 11697996
11.220236 9.056634 3.935372 11697996
9.272612 9.166510 2.746958 11697996
10.388773 10.667438 1.046058 11697996
10.297242 10.120706 0.915460 11697996
11.127602 11.121923 3.645650 11697996
9.440458 11.027464 3.383528 11697996
10.499538 9.517617 2.850833 11697996
11.150747 9.668709 0.667242 11697996
9.976675 9.161455 2.463848 11697996
10.776258 9.838882 0.149979 11697996
10.413724 11.108525 0.713887 11697996
9.263931 9.364017 2.055347 11697996
10.714722 11.024690 0.794548 11697996
9.702968 8.910718 1.956588 11697996
11.116400 9.093718 2.896746 11697996
10.981650 9.830634 0.455183 11697996
10.648235 11.222574 2.733785 11697996
9.255049 10.981139 0.359105 11697996
9.017996 9.508897 0.716863 11697996
10.224546 9.448418 1.658266 11697996
9.903008 8.963730 0.020987 11697996
9.707613 9.053682 0.686947 11697996
10.789329 8.969572 0.558552 11697996
9.770771 11.055963 0.905426 11697996
11.134766 10.942840 1.845015 11697996
10.041674 8.788697 3.376841 11697996
8.885720 10.691102 2.155846 11697996
10.098516 8.932103 1.579414 11697996
10.561606 10.195209 2.188118 11697996
10.570039 10.127255 2.104304 11697996
10.949037 9.602257 3.877781 11697996
10.598180 10.757888 3.855077 11697996
8.986581 9.573000 2.306211 11697996
9.873333 10.225005 2.236423 11697996
9.928711 10.879451 2.857917 11697996
10.292049 9.283297 0.034581 11697996
9.776814 8.782323 3.431006 11697996
9.888844 8.781585 1.817419 11697996
10.571539 9.443085 0.958392 11697996
10.369018 10.216278 1.420381 11697996
9.849577 10.613977 0.936154 11697996
10.765630 8.884393 2.491997 11697996
10.843257 11.252799 3.685583 11697996
11.017169 10.740344 1.310045 11697996
10.558764 11.001391 3.525106 11697996
11.209366 10.837962 3.801033 11697996
10.902406 10.146461 2.223340 11697996
9.808206 10.566174 0.084182 11697996
10.693421 9.676699 3.042681 11697996
9.107851 10.193800 3.388438 11697996
11.157941 10.486916 3.716434 11697996
10.096382 10.838961 0.173450 11697996
9.456837 9.438831 0.186275 11697996
10.441229 10.213012 0.748701 11697996
10.221500 10.688990 -0.004885 11697996
8.964803 11.068401 1.844290 11697996
9.321368 9.636462 0.094847 11697996
9.475414 8.814558 3.883225 11697996
10.311821 10.220486 3.769476 11697996
9.596938 10.998978 3.394425 11697996
11.171015 9.793922 0.808837 11697996
9.524607 9.729991 0.801223 11697996
10.577002 10.546694 2.048213 11697996
10.190678 8.868403 2.213571 11697996
9.995591 10.660343 1.650082 11697996
10.335565 9.797811 0.661530 11697996
9.827027 11.218638 0.404964 11697996
10.681999 9.751537 1.115344 11697996
10.430665 9.672573 3.566441 11697996
9.828747 10.554275 2.302620 11697996
11.239327 9.901583 0.364828 11697996
9.735741 9.294456 1.403382 11697996
9.004037 10.379189 3.612256 11697996
9.924667 9.065338 2.200467 11697996
11.221788 9.570100 0.989019 11697996
9.024695 9.898118 1.556906 11697996
11.216337 9.975254 0.260296 11697996
9.208560 11.129021 2.509274 11697996
10.821745 9.686646 1.813851 11697996
10.508845 10.526686 0.295683 11697996
10.707231 10.727684 2.392648 11697996
10.512407 10.077121 1.780264 11697996
11.184715 9.041728 0.976908 11697996
9.614954 11.128396 0.174962 11697996
9.565096 10.070300 3.729540 11697996
10.109797 9.712420 2.408991 11697996
9.428505 10.861146 2.730313 11697996
11.049154 10.515643 1.309892 11697996
9.096797 9.047323 1.015387 11697996
9.004418 10.352161 2.558822 11697996
10.792310 9.330336 0.043106 11697996
10.235678 10.640511 2.706461 11697996
9.602307 8.795136 3.560893 11697996
10.650063 10.482509 0.604385 11697996
10.663960 8.894590 2.195999 11697996
9.763820 10.105803 1.058959 11697996
10.125313 9.165595 2.339304 11697996
9.519254 9.726114 1.433401 11697996
8.988750 9.262497 0.251244 11697996
10.310650 9.856253 2.281962 11697996
10.798575 10.550276 3.749511 11697996
9.559197 9.263394 0.088713 11697996
9.571847 10.257835 0.515467 11697996
10.448252 9.249541 1.147236 11697996
9.458067 9.281318 2.755829 11697996
10.058330 9.162381 3.893215 11697996
11.137053 10.011003 2.712786 11697996
10.857391 9.588457 1.434967 11697996
10.155690 10.656301 3.830105 11697996
10.294605 10.814054 1.956253 11697996
10.963265 10.493374 1.421713 11697996
11.151852 10.805990 0.657782 11697996
9.726061 10.514443 1.059639 11697996
8.982447 9.872404 3.433189 11697996
11.068371 9.484335 3.194593 11697996
9.486020 10.728114 2.741664 11697996
10.217079 9.604798 1.934257 11697996
10.455378 9.156923 2.837846 11697996
11.255516 8.783478 3.289308 11697996
11.233753 9.944397 1.422233 11697996
10.385666 10.980557 0.390927 11697996
9.689388 11.126623 3.078666 11697996
9.622090 10.614515 1.505249 11697996
10.711866 9.431677 2.469761 11697996
10.193130 10.464621 3.894322 11697996
10.173206 10.873808 3.568783 11697996
9.234300 10.213204 2.086648 11697996
11.165198 10.992423 0.420973 11697996
10.281349 9.426214 3.713660 11697996
11.222799 9.604345 1.503717 11697996
10.340377 11.222248 3.799503 11697996
9.980644 9.570787 3.594479 11697996
11.119618 9.919985 0.673807 11697996
9.404191 9.102797 1.041219 11697996
10.196176 10.745707 0.408076 11697996
11.244598 10.336568 0.743472 11697996
9.739104 9.530923 1.468346 11697996
10.666998 9.046952 0.822672 11697996
9.323813 9.901097 3.617762 11697996
11.063755 9.630391 0.734908 11697996
9.539702 8.793838 3.788559 11697996
10.500221 9.247870 0.840292 11697996
8.964951 9.938724 3.935520 11697996
8.809399 11.180490 3.360942 11697996
8.820849 11.074032 0.958924 11697996
9.821456 10.022446 3.273769 11697996
9.871076 9.774340 1.700728 11697996
11.128002 10.759433 2.533531 11697996
9.141942 9.774229 2.288973 11697996
10.580470 9.305260 0.178116 11697996
10.929919 9.439760 0.037771 11697996
9.309967 9.397360 2.509085 11697996
11.189886 10.386022 1.048834 11697996
10.889631 10.162929 3.663948 11697996
10.514597 10.236091 3.507236 11697996
10.971093 9.476981 3.206112 11697996
9.941638 9.474235 3.823732 11697996
10.349998 10.590950 1.406300 11697996
8.977911 9.181468 2.714466 11697996
10.750915 9.367847 3.034744 11697996
10.880931 9.957090 1.376701 11697996
10.451560 8.818781 1.182450 11697996
10.701893 10.052628 1.354689 11697996
9.790437 9.813676 2.801930 11697996
11.109776 9.164462 0.673886 11697996
11.020988 11.249629 0.858876 11697996
9.113131 8.768002 1.657985 11697996
9.474196 11.151969 2.111613 11697996
10.749124 9.478965 1.082304 11697996
9.032428 9.331238 2.125778 11697996
10.429317 8.987747 1.310411 11697996
9.575480 9.613623 0.075525 11697996
10.377522 10.096766 1.595027 11697996
10.514391 9.542362 2.820563 11697996
11.056802 10.894345 1.717807 11697996
10.792343 11.112652 3.562752 11697996
9.433942 9.092293 0.058060 11697996
9.586537 8.981166 2.067604 11697996
10.038079 9.783354 3.328604 11697996
9.298043 10.282672 1.511992 11697996
8.899620 11.169484 2.817717 11697996
9.690314 9.361216 1.663651 11697996
9.297683 9.563994 3.897565 11697996
9.652722 8.872289 3.207563 11697996
10.323162 10.922555 2.025333 11697996
9.819226 9.396244 0.813530 11697996
9.362172 11.176533 2.004285 11697996
10.900590 9.261325 3.383922 11697996
9.561660 9.680190 3.041766 11697996
9.342710 9.826153 1.945977 11697996
9.060642 9.399850 1.675397 11697996
8.899832 10.354529 3.510291 11697996
9.038595 9.328488 2.434317 11697996
9.340729 9.906424 3.733569 11697996
10.491264 10.894079 3.723115 11697996
10.038014 10.332208 2.923503 11697996
10.096642 10.713197 0.047680 11697996
10.591544 9.223343 2.088178 11697996
8.756139 11.186916 0.430180 11697996
9.658402 10.812978 0.033616 11697996
10.945947 9.061656 0.981087 11697996
9.317819 8.961659 1.192194 11697996
10.916493 9.048665 3.804775 11697996
10.932515 10.881824 1.229705 11697996
9.879661 9.130806 3.925472 11697996
8.775784 9.300959 3.124829 11697996
10.392838 9.266174 0.748429 11697996
10.258609 9.335510 1.149438 11697996
10.909381 9.115979 0.398403 11697996
9.111905 9.977356 1.534594 11697996
9.811760 11.141243 2.237468 11697996
10.473992 10.893764 2.304725 11697996
9.540855 10.629910 1.241250 11697996
10.208512 9.770095 3.962127 11697996
9.477178 10.170927 1.365936 11697996
9.878778 10.730826 0.407823 11697996
10.101700 9.262360 3.631716 11697996
11.048974 9.965954 1.054902 11697996
10.691014 10.151103 2.407630 11697996
9.484299 10.017137 1.712854 11697996
11.058158 9.842025 2.153655 11697996
11.222498 11.104096 1.061815 11697996
11.117658 11.101687 3.686479 11697996
11.157915 10.906979 3.062480 11697996
9.363793 9.628806 2.983602 11697996
8.836496 10.307458 2.765877 11697996
10.587841 8.969622 1.521314 11697996
11.123647 11.100675 2.238286 11697996
8.815817 10.830709 1.976279 11697996
10.469182 9.474749 1.476362 11697996
9.817121 10.174370 0.140002 11697996
8.863198 10.765580 3.857609 11697996
10.491107 9.109729 3.239398 11697996
10.979729 10.180693 3.543942 11697996
11.199430 8.862692 1.519259 11697996
10.925587 11.069321 0.740561 11697996
10.977145 9.718619 3.099156 11697996
10.535684 10.426320 3.621904 11697996
10.814374 10.288718 3.848146 11697996
9.486905 9.627837 0.645933 11697996
10.168063 10.535279 2.086812 11697996
9.961919 9.251575 0.630089 11697996
9.840360 8.942893 1.357594 11697996
8.741192 10.318009 1.042923 11697996
9.260132 11.082843 2.116065 11697996
10.445807 9.882590 1.966726 11697996
9.757806 9.814167 0.713495 11697996
9.482244 9.866093 2.401660 11697996
10.672876 9.468784 0.336629 11697996
10.564416 9.333012 1.883299 11697996
10.345690 11.136922 2.721555 11697996
10.380486 11.000214 2.467190 11697996
10.006730 10.278596 2.969947 11697996
9.687034 9.920432 1.226380 11697996
9.499017 10.667198 1.492936 11697996
9.041201 9.855699 2.677926 11697996
10.167240 9.512959 0.881551 11697996
10.805869 10.626271 2.008036 11697996
11.107856 10.595338 1.159177 11697996
10.204603 10.634711 3.675990 11697996
9.463455 9.404277 3.649742 11697996
10.462686 8.839614 2.600797 11697996
9.055978 10.155169 3.891679 11697996
10.919363 10.098011 3.896703 11697996
10.434104 10.841248 0.070884 11697996
11.013298 9.398548 3.879381 11697996
10.452314 10.281936 0.828512 11697996
11.162990 10.552026 3.720817 11697996
10.617678 9.434223 3.026309 11697996
10.740386 8.885148 3.497216 11697996
11.000782 9.832389 1.021399 11697996
9.347042 10.796332 0.595443 11697996
9.853381 9.944141 3.173351 11697996
8.971958 8.795015 3.670667 11697996
11.241010 10.296337 2.810430 11697996
9.689002 10.987739 2.409325 11697996
10.483480 9.842942 2.677372 11697996
10.261847 10.734945 2.973868 11697996
8.874006 8.840096 2.752472 11697996
10.632110 11.061662 1.908543 11697996
8.769867 9.056061 2.691613 11697996
9.300806 10.487554 2.100850 11697996
9.429218 9.015391 0.750702 11697996
9.199565 9.274674 2.206075 11697996
10.779496 9.202581 3.674435 11697996
11.174540 9.649003 0.259313 11697996
9.926030 10.409169 3.550936 11697996
9.272254 10.386131 2.221560 11697996
9.586830 9.081319 2.219121 11697996
10.646897 10.678604 0.014779 11697996
11.063051 11.140460 2.820709 11697996
10.699536 11.230193 0.051477 11697996
10.753704 9.996572 3.987438 11697996
10.187206 10.740374 3.809202 11697996
9.926875 8.791745 1.259872 11697996
10.892776 8.979374 3.154129 11697996
8.823550 9.497304 1.485223 11697996
9.994207 8.912050 1.284326 11697996
9.068301 10.326186 0.471934 11697996
10.802548 9.156822 3.346916 11697996
10.156788 9.589750 2.087945 11697996
9.686539 10.056823 3.962396 11697996
11.194053 11.204621 3.960497 11697996
9.834818 9.228295 3.463116 11697996
11.126979 9.766140 1.358058 11697996
9.082364 9.837600 2.941711 11697996
8.804732 10.475931 3.206048 11697996
10.363515 9.294869 3.423321 11697996
10.695166 9.573925 1.756271 11697996
10.434747 8.787765 1.733870 11697996
10.665498 9.874917 2.291207 11697996
8.830525 9.324280 3.007547 11697996
9.793656 10.846929 3.089828 11697996
9.532775 9.587085 3.548815 11697996
9.947075 9.780734 1.478593 11697996
8.871917 11.119642 3.027936 11697996
8.991114 10.321168 1.957186 11697996
8.756647 10.736403 0.108350 11697996
9.800014 9.344984 2.526546 11697996
11.186730 9.343985 1.264617 11697996
9.257222 9.875832 2.034873 11697996
8.953801 11.003370 0.548964 11697996
10.074280 10.014493 2.215412 11697996
9.801958 10.305664 3.055743 11697996
11.014085 10.593073 3.575423 11697996
8.794682 9.087166 1.999174 11697996
9.804812 8.888482 0.518694 11697996
10.360542 8.984259 3.370287 11697996
9.897866 10.242951 1.535903 11697996
10.290127 8.884445 1.463680 11697996
11.031154 9.243755 1.342938 11697996
10.196668 10.213230 3.161124 11697996
9.938675 9.183705 2.507633 11697996
10.474828 10.343100 1.356355 11697996
11.011736 10.921113 1.366396 11697996
8.993857 10.386792 0.696195 11697996
9.113178 10.254962 1.652073 11697996
8.996113 9.299869 0.114356 11697996
10.842416 9.119555 1.153340 11697996
10.395479 10.154969 2.210692 11697996
9.430691 10.835217 1.011856 11697996
8.916511 10.665249 1.386569 11697996
11.012542 10.735219 0.389206 11697996
9.973551 10.183951 2.639706 11697996
9.321922 10.669218 2.822943 11697996
10.822354 8.958610 3.842112 11697996
10.911103 10.054855 2.550550 11697996
9.758381 9.918704 3.923696 11697996
11.181752 11.001409 2.143416 11697996
10.457837 10.314235 1.373472 11697996
10.556913 9.265944 1.155405 11697996
10.814777 9.172482 2.806846 11697996
8.874316 10.800249 0.610127 11697996
10.399877 8.914278 2.970492 11697996
9.540173 9.893494 1.400134 11697996
9.347279 9.589673 0.394871 11697996
10.815010 10.472021 3.637589 11697996
10.628175 9.805282 3.873979 11697996
8.787717 10.842945 2.185251 11697996
9.658703 9.824615 3.012042 11697996
9.040740 8.775562 2.553276 11697996
11.024973 9.662207 1.583133 11697996
10.709216 10.872354 0.148781 11697996
9.398935 11.118979 2.737036 11697996
10.347395 10.178269 2.569397 11697996
9.563358 9.519857 2.055118 11697996
8.873519 9.968756 1.942692 11697996
9.133628 10.746824 0.874482 11697996
8.820476 10.819043 1.702080 11697996
9.778950 9.956275 2.058499 11697996
10.301601 8.956759 1.726087 11697996
9.535149 9.907024 0.529542 11697996
9.335667 9.650608 0.698433 11697996
8.819314 10.269835 3.162488 11697996
10.434004 10.270694 3.682994 11697996
10.798507 10.763946 0.042199 11697996
10.262822 10.119737 0.502647 11697996
11.003283 9.844127 1.879649 11697996
9.807316 9.260655 2.263088 11697996
10.069921 9.046711 0.092508 11697996
9.725988 10.053914 0.933811 11697996
10.554272 10.065516 1.598237 11697996
9.247924 11.112482 2.415322 11697996
9.693024 10.103703 0.747328 11697996
9.913314 10.911892 0.157188 11697996
10.414851 10.480485 2.092323 11697996
9.144933 10.035138 0.469239 11697996
8.849606 11.034728 0.859818 11697996
11.087003 9.380013 0.780473 11697996
10.125576 9.232336 2.622744 11697996
10.990840 10.839533 0.472108 11697996
10.441374 11.018491 2.140600 11697996
9.009682 10.285789 3.507135 11697996
9.395880 9.602948 0.170017 11697996
11.103707 9.019453 2.986725 11697996
11.119368 8.967314 3.857679 11697996
8.873491 10.548813 0.422618 11697996
8.885366 9.463339 0.764592 11697996
10.329534 11.137604 3.044640 11697996
8.776888 10.211184 0.875445 11697996
8.794384 8.772879 3.806812 11697996
11.248028 10.568623 2.118576 11697996
10.417480 9.020158 3.203423 11697996
9.314801 9.185149 0.522982 11697996
10.931221 9.740091 3.360927 11697996
10.639592 10.445852 0.430490 11697996
9.772672 8.977434 3.749250 11697996
9.316787 9.416952 2.429455 11697996
9.101906 9.257929 3.895131 11697996
9.796028 9.760980 2.016813 11697996
10.464140 10.535398 0.020488 11697996
9.534062 10.869956 1.247589 11697996
10.356518 10.420949 2.604882 11697996
11.015230 10.961502 0.611936 11697996
9.219004 9.457131 1.100323 11697996
9.562258 9.307933 2.834668 11697996
9.639463 10.352474 1.367736 11697996
10.079134 10.908970 3.173793 11697996
11.201580 9.774200 0.027852 11697996
9.492398 9.522120 0.964678 11697996
8.983283 10.706288 1.245008 11697996
9.101909 9.091114 3.654592 11697996
10.872327 9.828792 2.422389 11697996
11.188290 8.905821 4.006643 11697996
9.966494 10.822422 1.853856 11697996
8.924907 8.993802 0.983088 11697996
9.681212 10.183718 1.053219 11697996
10.313606 9.570634 1.534984 11697996
10.805902 10.360328 1.330667 11697996
10.262576 9.348285 3.972674 11697996
10.105690 9.570805 3.269630 11697996
8.982259 10.423536 0.924995 11697996
9.845314 9.196826 3.717355 11697996
11.135242 8.982204 2.100514 11697996
10.823880 10.797321 0.385151 11697996
9.188673 10.305537 0.864678 11697996
9.375595 11.085378 3.184978 11697996
9.826598 9.025416 0.140079 11697996
10.026258 9.667975 0.421205 11697996
8.837942 10.009384 2.486360 11697996
9.937647 11.104333 0.902173 11697996
10.434633 9.970496 0.057432 11697996
10.295956 9.600351 2.998747 11697996
10.015779 9.217054 3.358109 11697996
10.340439 9.804800 3.841925 11697996
9.315907 11.106894 1.599162 11697996
9.107928 10.520364 1.425327 11697996
8.870576 9.934816 2.244309 11697996
9.818563 10.236474 2.376286 11697996
10.844586 10.554459 1.398017 11697996
10.928134 9.890702 3.739513 11697996
10.297236 10.010336 2.667459 11697996
8.922600 9.620592 2.008527 11697996
10.938769 10.783534 1.428526 11697996
10.806731 8.864890 3.025643 11697996
9.043672 10.255353 3.199111 11697996
10.831602 8.939818 1.557430 11697996
9.223994 10.926785 0.490571 11697996
10.802536 9.929688 0.054801 11697996
10.714874 10.361238 3.562723 11697996
10.828972 10.955956 2.322663 11697996
10.033859 9.538704 3.345728 11697996
11.019444 10.248192 0.261492 11697996
8.866891 9.311337 2.634437 11697996
9.423895 8.811123 2.985284 11697996
9.383432 10.139921 1.931530 11697996
10.765996 10.824019 3.195044 11697996
8.963964 8.917318 0.496777 11697996
10.830967 10.664840 3.103653 11697996
9.934347 10.089350 3.282497 11697996
11.175629 10.646794 2.851182 11697996
11.068096 10.052577 1.967042 11697996
9.219295 10.010575 2.781451 11697996
10.626750 10.788511 3.216230 11697996
9.356814 10.770542 1.748110 11697996
11.170759 9.421344 3.562191 11697996
10.963722 9.559022 0.999930 11697996
8.925842 11.029145 0.404181 11697996
8.815235 10.923506 0.113524 11697996
10.196831 10.027996 1.334657 11697996
10.619683 10.262570 1.466256 11697996
8.943434 9.977702 3.801381 11697996
10.433832 10.565812 1.817587 11697996
9.620132 11.099052 2.686128 11697996
10.879538 9.668163 3.143530 11697996
8.859481 10.912944 3.921340 11697996
10.883212 10.442372 1.877666 11697996
10.726464 9.684483 1.099862 11697996
9.782908 9.431489 0.361439 11697996
10.101056 10.071095 2.722117 11697996
9.747666 11.193420 0.753917 11697996
9.006864 10.032342 3.968800 11697996
10.466834 9.818607 3.118708 11697996
9.391382 9.735576 0.711477 11697996
8.981749 11.141273 3.044057 11697996
9.251384 9.034720 3.729913 11697996
11.110999 9.013284 2.125877 11697996
11.233171 10.803370 0.941370 11697996
10.853627 10.591392 3.706005 11697996
9.116752 9.676195 3.957878 11697996
10.769728 10.587500 2.177702 11697996
10.627862 10.554553 0.447290 11697996
9.213078 9.006694 1.680679 11697996
9.311067 9.935296 3.795723 11697996
8.897624 9.626150 1.851177 11697996
10.700362 8.942945 1.590488 11697996
10.684598 10.486852 2.324470 11697996
10.621568 9.822357 1.867408 11697996
10.879083 10.072762 3.995051 11697996
9.029272 9.487346 2.793261 11697996
10.466675 9.722631 3.202140 11697996
10.768231 9.002443 2.151001 11697996
9.108897 10.779675 0.122651 11697996
9.285901 11.069468 3.209713 11697996
9.883902 10.934292 0.766253 11697996
10.862133 10.763603 0.842474 11697996
9.191869 9.446977 1.049104 11697996
10.430743 9.650439 3.635121 11697996
10.893143 11.194513 0.756463 11697996
9.248298 11.149666 2.171786 11697996
9.601852 10.677793 1.792707 11697996
10.088969 9.892153 3.940171 11697996
9.359818 10.942299 2.709178 11697996
10.866589 10.497359 3.160647 11697996
10.792171 10.885165 3.061395 11697996
9.705948 10.522429 1.319816 11697996
10.836364 9.299830 1.110532 11697996
9.973753 9.355022 0.549712 11697996
8.998167 9.568773 1.042663 11697996
9.194882 9.160332 0.230668 11697996
9.281289 10.291276 3.818888 11697996
9.774556 8.895313 0.459239 11697996
9.228856 8.766080 2.308814 11697996
10.907366 9.150763 3.002179 11697996
8.920781 9.678645 3.874321 11697996
9.552257 10.144177 3.711735 11697996
11.061335 9.253551 0.956400 11697996
10.707796 9.470536 1.247874 11697996
9.842971 9.578237 1.572976 11697996
8.771425 11.136556 2.179983 11697996
11.138863 10.270973 2.347910 11697996
11.169249 9.603399 1.165763 11697996
11.193692 9.772030 0.707281 11697996
9.134027 9.778008 2.472290 11697996
9.112826 10.283601 3.248112 11697996
9.552178 9.410616 2.861943 11697996
8.799860 9.524167 3.745937 11697996
10.189434 10.880961 2.588410 11697996
10.593693 10.313902 3.820686 11697996
10.016525 10.083840 3.917079 11697996
8.818960 8.910664 1.715943 11697996
10.218172 8.947344 0.273711 11697996
9.122775 10.968081 0.794574 11697996
8.778347 8.907281 3.109637 11697996
9.943663 8.919705 3.165646 11697996
11.159039 10.942706 2.184767 11697996
9.240879 8.775391 0.920694 11697996
8.981725 9.104781 1.603412 11697996
9.323692 10.239281 1.377572 11697996
10.503217 8.740432 3.271522 11697996
10.737832 9.828137 3.719566 11697996
9.611772 9.721603 0.415663 11697996
9.356393 8.801251 3.302055 11697996
10.676047 9.555831 2.402308 11697996
10.158966 9.517324 3.986045 11697996
9.581499 9.819688 1.636724 11697996
9.799058 10.143356 3.017183 11697996
9.986953 9.405630 1.838221 11697996
10.728163 10.933663 1.440483 11697996
9.940608 8.815832 1.494748 11697996
9.189914 10.426051 1.911371 11697996
9.127654 11.042916 2.071390 11697996
9.996003 9.810088 3.635239 11697996
11.005776 10.108304 0.174690 11697996
9.316636 10.978197 1.378190 11697996
9.896602 10.181799 3.418608 11697996
11.247698 10.668367 0.221950 11697996
10.063554 9.608396 1.254084 11697996
10.901487 9.404165 2.385411 11697996
10.594565 8.743594 1.648157 11697996
8.884373 10.842928 2.360602 11697996
9.049077 9.433640 1.789446 11697996
9.210829 8.855654 3.785539 11697996
9.802266 9.095889 1.073665 11697996
9.596221 8.829509 3.057636 11697996
10.594133 8.805210 2.821326 11697996
11.158976 9.440661 0.289036 11697996
11.219455 9.898882 2.895184 11697996
10.169949 11.201376 0.620591 11697996
10.045885 10.779076 2.009528 11697996
9.786333 10.520579 1.097359 11697996
10.709171 9.797140 2.519077 11697996
10.735394 8.871084 1.775778 11697996
10.672310 9.203170 0.594482 11697996
10.425797 10.719462 0.623427 11697996
8.760150 9.246335 3.448616 11697996
9.894127 10.388941 1.020427 11697996
10.029733 10.814014 1.698524 11697996
8.877194 10.266635 3.864254 11697996
9.406962 10.036504 1.567057 11697996
10.814536 9.807840 1.613687 11697996
8.794477 8.919509 1.065856 11697996
9.415249 11.106721 1.663531 11697996
10.906579 9.478688 1.656682 11697996
8.820036 11.217580 2.944180 11697996
8.881294 10.105681 0.913630 11697996
10.605134 10.746679 0.854911 11697996
9.115785 8.834075 2.664985 11697996
10.065160 9.536312 2.582999 11697996
8.834911 10.081855 3.351948 11697996
10.602612 9.480188 2.508296 11697996
8.887800 9.866972 0.536532 11697996
9.569719 10.178655 3.941238 11697996
8.817130 9.926029 1.296104 11697996
9.234962 10.307355 3.131552 11697996
11.250748 11.039734 0.842641 11697996
9.770126 9.912913 0.355766 11697996
9.650436 9.900808 0.261461 11697996
11.007721 9.944044 1.336220 11697996
9.228840 11.154435 0.651700 11697996
11.065121 11.124539 2.948221 11697996
11.070539 10.679296 1.314132 11697996
10.490111 10.498081 0.257792 11697996
10.038849 11.186017 1.496234 11697996
10.514219 10.211871 3.825287 11697996
9.359108 10.523671 0.553403 11697996
10.620274 9.400675 3.102318 11697996
10.250624 10.670701 0.744444 11697996
8.804278 10.045045 1.648653 11697996
11.149285 9.725335 1.510476 11697996
8.984139 9.276964 3.412114 11697996
10.319956 8.871080 3.559194 11697996
10.477911 8.830075 3.915223 11697996
9.272948 9.121555 2.102500 11697996
10.465637 10.810392 0.612941 11697996
10.698550 9.709754 0.426576 11697996
10.656444 9.860998 1.917138 11697996
9.424477 9.815745 3.650307 11697996
8.928643 9.147768 2.854578 11697996
10.322950 9.197742 2.856905 11697996
10.030202 11.048389 3.035480 11697996
10.360085 10.550725 3.479465 11697996
10.099986 10.066301 0.897302 11697996
9.887471 9.624533 0.442090 11697996
9.505378 10.972858 1.438496 11697996
10.145424 8.911904 1.161787 11697996
10.102057 11.171039 2.634704 11697996
10.091516 9.395396 2.215837 11697996
9.023714 8.849221 0.223095 11697996
9.268618 9.257056 2.050820 11697996
9.285174 10.901348 0.847210 11697996
11.177741 9.656496 1.987409 11697996
10.495121 11.237554 2.009723 11697996
9.187502 11.065170 0.637187 11697996
8.795641 11.246045 0.057312 11697996
9.421198 10.085891 0.747529 11697996
10.598963 10.532619 2.657923 11697996
10.764800 10.336617 1.009755 11697996
9.591007 11.020185 1.490516 11697996
9.034561 9.009666 1.566850 11697996
9.697758 10.983776 1.282124 11697996
9.756617 9.071148 0.606994 11697996
9.256630 8.973933 2.022558 11697996
10.941721 10.388172 0.046177 11697996
10.606644 9.250909 1.802564 11697996
9.999878 9.919647 1.137544 11697996
10.309025 10.501927 3.125215 11697996
9.949692 10.996635 0.372969 11697996
9.101554 10.525587 3.401661 11697996
9.622638 11.185165 3.397267 11697996
8.991115 10.552044 0.466580 11697996
10.122394 8.895926 3.261380 11697996
10.738828 10.314202 0.786961 11697996
10.087680 8.850131 2.461112 11697996
11.245915 9.068999 0.479424 11697996
9.504606 9.182430 0.636936 11697996
11.229652 9.046909 3.292248 11697996
9.180668 9.725486 0.746795 11697996
9.312950 9.235826 3.957628 11697996
10.493413 9.242908 2.541879 11697996
9.817262 9.388034 1.005827 11697996
10.062803 11.195661 2.954919 11697996
11.091561 10.362968 0.293342 11697996
10.838104 9.239455 1.015956 11697996
10.604818 10.676502 3.162977 11697996
10.565845 10.929717 1.462218 11697996
9.951637 9.044998 0.781165 11697996
10.696922 9.775117 0.196182 11697996
9.058059 9.983540 0.457637 11697996
10.820558 9.635348 1.366322 11697996
10.630402 11.226800 3.947149 11697996
10.651237 9.635430 3.758055 11697996
11.184206 9.911236 2.966434 11697996
11.081498 9.988340 3.050027 11697996
8.848482 10.899305 2.773164 11697996
11.061087 9.834620 2.758083 11697996
9.280945 9.756685 3.448621 11697996
9.319848 8.971167 3.395519 11697996
9.867382 10.712040 2.550865 11697996
10.905539 9.194052 0.171237 11697996
10.745252 10.487109 1.280671 11697996
9.893410 10.708422 2.377523 11697996
9.114573 10.396889 1.757131 11697996
10.212622 9.324044 2.213777 11697996
11.059880 10.165480 0.210241 11697996
10.039948 11.163605 2.945555 11697996
10.625646 10.996639 3.841402 11697996
9.749935 8.826156 1.557475 11697996
9.604294 9.478120 1.390183 11697996
10.695146 10.735264 1.598026 11697996
9.582551 10.473864 2.728985 11697996
10.248780 11.250072 0.316979 11697996
9.605973 8.818795 3.316218 11697996
9.505695 10.324908 3.157043 11697996
10.338685 9.111959 3.328877 11697996
9.378610 10.323869 2.973041 11697996
9.583597 10.658306 1.714360 11697996
9.081646 10.792871 2.162238 11697996
10.802489 10.516339 0.901199 11697996
10.824256 10.963829 3.702150 11697996
10.690005 10.947261 1.690357 11697996
11.218571 9.273626 3.301140 11697996
9.895708 11.248420 1.718417 11697996
8.849652 8.783967 2.471738 11697996
9.185516 10.120340 3.119321 11697996
10.562666 10.066880 0.225207 11697996
8.854356 10.175936 3.388407 11697996
10.289031 9.540989 0.836354 11697996
10.244776 8.967530 1.407423 11697996
9.607809 8.908636 3.619316 11697996
9.772565 9.804375 1.549248 11697996
10.865617 9.966074 3.042123 11697996
10.653821 10.325210 3.279136 11697996
10.788792 10.519961 0.674991 11697996
10.738332 10.195525 3.831704 11697996
11.079833 9.490640 1.680217 11697996
9.497045 10.794614 2.609323 11697996
10.235909 8.766360 3.135763 11697996
11.141658 9.478149 2.707937 11697996
10.294501 10.051433 2.047391 11697996
10.349606 10.039321 0.996766 11697996
8.848655 10.984963 3.435546 11697996
10.635389 9.896929 1.752842 11697996
9.457821 10.012027 2.158282 11697996
10.130540 10.694360 3.239506 11697996
9.256982 10.479465 1.886546 11697996
9.263809 9.735085 2.758110 11697996
9.817846 9.123176 3.545215 11697996
9.570556 11.059380 2.024626 11697996
10.616342 8.908495 1.271204 11697996
8.916927 11.134499 0.026968 11697996
11.037432 10.366553 2.070560 11697996
8.878086 11.161388 0.035113 11697996
9.271346 11.107204 1.579342 11697996
10.127151 9.170299 1.448573 11697996
9.198877 10.601727 0.521890 11697996
10.785871 10.946560 3.792449 11697996
10.158043 9.783149 2.684606 11697996
10.968971 10.458888 2.329393 11697996
11.180489 9.896749 2.112333 11697996
9.981340 10.214808 2.179019 11697996
10.032455 10.199018 2.045316 11697996
8.908538 9.543118 0.939002 11697996
10.402238 10.989686 2.205848 11697996
11.006587 10.934285 1.669082 11697996
9.955927 8.832163 0.513352 11697996
9.334715 10.402523 3.286892 11697996
11.175182 9.203737 3.168317 11697996
11.121325 10.615408 2.367856 11697996
10.881710 11.179745 1.153134 11697996
10.725945 9.585749 2.716316 11697996
9.982179 10.801914 1.096986 11697996
11.039721 10.031625 1.260382 11697996
8.983037 10.075848 2.580243 11697996
10.088663 10.397351 0.467767 11697996
10.829348 9.916040 3.395858 11697996
9.845572 10.390363 3.075990 11697996
10.120532 11.146632 1.598332 11697996
9.562998 9.962450 1.549386 11697996
10.300390 10.219458 3.237833 11697996
10.898082 10.664424 3.176345 11697996
10.718968 10.668840 0.885862 11697996
10.703286 10.071040 1.550843 11697996
9.722590 10.682136 4.008051 11697996
10.856606 9.576210 1.430750 11697996
9.059140 10.137255 3.891154 11697996
9.155398 9.562786 0.252905 11697996
10.951260 10.917265 1.629281 11697996
10.167153 10.232122 2.398047 11697996
9.533147 10.971615 1.793756 11697996
10.153587 10.703424 0.213728 11697996
10.875175 8.892861 0.755879 11697996
9.126271 10.871070 0.684867 11697996
11.016693 11.035959 0.518243 11697996
10.082430 10.182638 3.209331 11697996
10.427181 9.980678 0.189603 11697996
10.246921 8.923894 1.572656 11697996
9.286259 8.902940 1.473592 11697996
8.955212 10.315067 3.107664 11697996
10.477097 9.356558 1.538129 11697996
9.143970 9.341119 3.720191 11697996
9.498260 9.185133 0.604280 11697996
10.333169 11.086434 1.195630 11697996
10.521930 9.176138 1.468725 11697996
11.149858 10.349693 1.886314 11697996
10.629695 8.992478 3.677432 11697996
10.940022 10.809319 0.821656 11697996
10.891919 9.187348 1.512169 11697996
9.582496 11.195139 1.845755 11697996
8.921149 10.183009 1.830595 11697996
11.220885 10.136173 0.232438 11697996
10.031537 10.985787 3.626640 11697996
10.596572 10.334669 0.258916 11697996
8.831983 10.567727 0.583620 11697996
8.971623 8.846223 1.482271 11697996
10.903419 9.487470 0.171760 11697996
10.398164 9.492006 3.731812 11697996
10.214646 10.435143 0.762399 11697996
10.417047 10.764080 0.177388 11697996
10.804350 9.151610 1.211833 11697996
10.947600 9.804435 3.736763 11697996
10.496325 9.574067 1.603193 11697996
8.845620 8.951672 0.543388 11697996
10.155093 10.299862 3.678758 11697996
9.281903 11.004151 0.663967 11697996
10.808181 8.836836 0.553009 11697996
9.001674 10.718328 2.532111 11697996
10.711946 9.464184 3.107051 11697996
9.589035 9.772503 0.850802 11697996
10.979659 11.148189 2.333425 11697996
9.591479 10.546917 2.846206 11697996
9.664385 11.120002 1.274479 11697996
9.813800 11.138243 2.727173 11697996
10.326120 10.310633 3.015480 11697996
10.417865 10.654350 3.525690 11697996
10.911169 10.666867 1.409330 11697996
9.110153 10.888533 2.648328 11697996
10.827237 9.614602 0.393455 11697996
10.998581 10.552691 3.110545 11697996
8.801398 9.091855 4.001366 11697996
9.515100 9.440999 2.502321 11697996
10.733771 10.240497 2.461792 11697996
8.813017 9.477273 0.690830 11697996
10.249419 9.231266 3.698196 11697996
10.175696 9.132528 2.563451 11697996
10.353665 11.008226 2.578646 11697996
9.072934 9.509233 1.921614 11697996
10.064194 9.390443 2.220043 11697996
9.168605 9.398629 0.684695 11697996
11.034321 9.602869 3.964301 11697996
10.293129 10.726578 1.848021 11697996
11.009308 9.997934 2.402379 11697996
10.262349 10.917376 1.704086 11697996
9.623463 9.765702 3.338373 11697996
10.574029 8.879608 1.969887 11697996
9.269467 10.709347 1.533552 11697996
9.398728 9.265119 2.100876 11697996
9.096444 9.072846 3.255950 11697996
9.396948 10.485558 2.039869 11697996
11.087406 9.056983 2.306887 11697996
11.169835 9.900307 2.429628 11697996
9.344152 11.161821 2.937265 11697996
9.601127 11.199828 1.226388 11697996
9.070306 9.536426 3.208360 11697996
11.170509 8.940433 1.369051 11697996
10.221644 9.964849 1.716102 11697996
10.089489 10.466027 2.633885 11697996
9.367894 9.151775 0.727863 11697996
9.970624 9.412402 0.358150 11697996
9.081065 8.910044 1.418283 11697996
8.810863 10.316521 2.385312 11697996
9.788725 8.969835 2.964809 11697996
10.147558 11.001762 0.874185 11697996
11.067575 9.255854 4.002630 11697996
10.776719 8.965862 1.247127 11697996
9.631303 9.909637 2.819952 11697996
10.106374 9.367719 2.865361 11697996
10.079163 11.127992 3.054895 11697996
11.016058 10.868199 3.223066 11697996
9.422051 10.902472 0.999087 11697996
9.561172 10.754590 1.091399 11697996
8.752997 9.324422 0.079521 11697996
10.482474 10.791323 2.048477 11697996
10.482266 10.647890 2.463675 11697996
10.196185 9.107773 2.923533 11697996
10.336802 9.622189 3.755625 11697996
9.189265 10.727818 3.717365 11697996
9.687989 10.834995 2.545388 11697996
10.965911 9.896902 0.458016 11697996
10.599751 10.808295 3.376339 11697996
10.735768 10.276950 2.103144 11697996
10.352319 10.432592 0.329158 11697996
11.016874 10.478093 2.676997 11697996
9.702807 9.668230 2.608907 11697996
11.136139 10.961066 1.305630 11697996
9.378810 9.487798 3.142066 11697996
10.939208 8.946813 3.596310 11697996
11.221340 9.827303 1.944913 11697996
10.453398 10.307970 2.661184 11697996
9.663675 9.133884 0.411582 11697996
11.227157 10.401774 0.289572 11697996
9.941191 9.270676 0.985077 11697996
10.390551 10.362618 2.409421 11697996
10.823798 8.792227 1.197766 11697996
9.971461 9.062638 0.585962 11697996
9.682238 11.194990 0.844839 11697996
10.150095 9.140872 1.154922 11697996
8.853924 9.499870 1.563258 11697996
9.718658 8.878469 1.700362 11697996
9.824881 9.894177 1.036602 11697996
10.102597 10.857203 3.391231 11697996
10.264752 8.950502 1.105876 11697996
9.068313 10.189708 1.313500 11697996
11.125678 8.869190 2.012404 11697996
11.068948 9.346555 2.214919 11697996
11.078294 9.194745 3.966702 11697996
8.888262 10.399313 2.306916 11697996
8.865389 10.408448 0.507557 11697996
9.078810 11.094907 3.731854 11697996
9.175633 9.675717 0.799905 11697996
9.198219 10.780170 1.401119 11697996
9.337010 10.739540 1.340673 11697996
10.988444 10.270596 1.964159 11697996
10.367455 10.539303 2.576333 11697996
8.843818 10.193689 3.250939 11697996
9.461000 10.216103 3.595500 11697996
9.053906 10.923392 3.161646 11697996
11.180638 10.294333 0.737935 11697996
9.418339 9.054941 2.423139 11697996
9.155124 10.050453 1.019452 11697996
11.086702 9.482829 2.032152 11697996
10.808639 9.499549 0.303542 11697996
9.802408 10.402147 1.875861 11697996
10.243897 10.113532 1.193602 11697996
8.746825 10.428786 3.061012 11697996
10.309617 9.248685 1.376774 11697996
9.728185 9.289232 0.014748 11697996
9.247791 9.972679 2.847833 11697996
10.565273 9.545007 0.894608 11697996
10.202362 10.186802 3.532801 11697996
8.922879 11.092951 1.891568 11697996
11.024527 9.202359 1.292639 11697996
9.195805 9.770596 2.951927 11697996
8.899890 9.035060 2.168700 11697996
9.414956 10.239907 1.034964 11697996
11.088684 9.642092 3.520700 11697996
9.650388 10.109904 1.958160 11697996
10.582837 11.213038 0.074974 11697996
9.712703 9.663233 1.361930 11697996
10.796708 8.924611 3.663245 11697996
9.598137 10.441841 0.302671 11697996
10.767855 10.014973 2.861394 11697996
9.117558 10.037979 3.757137 11697996
8.962639 10.785129 3.491856 11697996
10.652904 8.956330 1.535107 11697996
9.130906 10.565065 2.744613 11697996
9.954564 10.021979 3.955027 11697996
10.121237 10.924814 2.315220 11697996
9.862185 10.133280 0.323440 11697996
8.883782 8.928500 2.154287 11697996
10.201315 9.809277 3.837066 11697996
10.617435 11.179286 2.241334 11697996
9.309740 10.112407 3.198371 11697996
9.885054 9.913245 2.610732 11697996
8.924695 10.267546 0.181893 11697996
10.779148 10.477379 1.944416 11697996
10.142091 9.678231 3.325075 11697996
10.956410 10.162418 3.381535 11697996
8.950539 9.226730 3.930724 11697996
9.296441 10.810452 3.335473 11697996
10.293580 10.743121 0.962723 11697996
10.766905 9.932775 2.274316 11697996
10.485479 8.772361 3.477552 11697996
10.811960 8.907269 0.856131 11697996
9.368203 10.222884 2.566673 11697996
9.084408 10.839300 1.144457 11697996
10.326715 8.822796 3.293230 11697996
9.677753 10.820281 2.890196 11697996
9.866231 10.545235 1.142934 11697996
11.118008 10.980203 1.448787 11697996
9.578762 8.844730 3.893105 11697996
10.721359 9.841015 2.280518 11697996
8.785929 9.326900 1.197628 11697996
10.846253 11.104506 3.723552 11697996
10.674072 10.927395 2.517273 11697996
9.536551 9.780318 1.220227 11697996
10.190344 9.214402 2.022067 11697996
9.774077 10.018126 2.730299 11697996
10.028210 9.702547 0.836827 11697996
10.326604 11.232232 1.905604 11697996
10.665866 9.189329 0.224415 11697996
9.515089 10.688732 1.198227 11697996
11.201902 11.040636 2.602616 11697996
10.512057 9.727087 2.090762 11697996
9.019500 10.366852 3.898356 11697996
9.233711 10.602773 0.141471 11697996
10.270717 10.024522 3.663307 11697996
10.765467 10.625042 3.098155 11697996
9.597166 11.254827 3.645018 11697996
9.411765 9.240763 3.003715 11697996
9.990155 9.274715 1.196366 11697996
9.129492 8.947847 0.820876 11697996
10.401817 9.638061 3.111257 11697996
10.564535 11.107224 2.265461 11697996
10.157042 8.921653 0.534330 11697996
10.709768 10.066316 3.515235 11697996
9.076413 10.991920 2.171017 11697996
11.017924 10.106417 1.565875 11697996
10.663239 10.419146 0.599170 11697996
8.827892 10.842236 2.857276 11697996
8.822044 10.492000 0.287994 11697996
9.360272 10.182303 3.528256 11697996
9.026894 9.312547 2.144811 11697996
9.666970 9.738006 2.089309 11697996
10.346717 10.026394 1.868713 11697996
9.230153 9.293178 2.310162 11697996
9.499682 10.873704 3.381888 11697996
10.048396 10.023610 3.325968 11697996
10.632273 8.781996 0.845478 11697996
9.205155 11.214133 3.914689 11697996
9.401802 9.880749 0.956514 11697996
8.883989 11.204806 2.712347 11697996
10.127834 9.604022 3.441637 11697996
11.257152 10.338558 0.207395 11697996
9.283917 9.042071 2.726281 11697996
8.959663 9.307468 1.316213 11697996
9.005136 9.794909 1.646563 11697996
8.881345 9.679591 2.174167 11697996
11.039057 11.074487 3.587634 11697996
10.400764 9.827776 2.999114 11697996
8.781775 9.717602 3.493205 11697996
10.292900 9.628335 0.325550 11697996
10.442906 10.583273 1.875574 11697996
10.728534 9.637298 0.090971 11697996
11.165760 8.930644 3.966102 11697996
10.575897 10.447574 2.047729 11697996
10.213284 10.221974 0.730058 11697996
9.995061 9.162535 1.437065 11697996
11.160014 9.264175 2.173686 11697996
9.080619 11.195867 0.910898 11697996
9.018023 9.442213 3.350119 11697996
10.494446 9.956288 2.774156 11697996
8.750547 11.195634 1.139845 11697996
10.528752 9.808745 3.067047 11697996
9.118855 10.665322 3.393151 11697996
9.137033 10.139808 4.004408 11697996
10.960665 10.240087 1.941254 11697996
10.892920 9.666660 1.024974 11697996
9.386208 8.956178 3.871063 11697996
8.735553 9.796971 2.459113 11697996
10.270621 10.404295 1.871277 11697996
11.068451 10.901687 3.565773 11697996
8.884519 9.458817 3.872196 11697996
9.894776 9.116587 3.475366 11697996
9.974907 9.613277 2.134639 11697996
8.911447 10.002726 2.444330 11697996
9.653898 9.928563 3.743473 11697996
9.917870 10.921567 2.630227 11697996
10.937679 11.137756 0.827783 11697996
9.320598 9.087691 0.110849 11697996
9.678412 10.855528 0.141663 11697996
10.171386 10.352767 3.553265 11697996
10.955394 9.059248 0.960671 11697996
9.323129 11.018511 1.769319 11697996
10.138717 9.222462 2.194355 11697996
8.753607 10.025320 0.779091 11697996
9.765958 9.889616 3.947336 11697996
9.953317 11.221015 2.406492 11697996
9.356475 10.920706 2.976748 11697996
10.656554 9.642365 2.236399 11697996
10.941124 9.061304 2.755741 11697996
10.907990 10.871004 1.791392 11697996
11.218287 9.888680 2.205916 11697996
9.697130 9.355207 2.500428 11697996
9.316752 8.853808 2.916734 11697996
11.020025 9.001768 2.664358 11697996
9.847027 8.815058 0.607437 11697996
9.809252 9.043608 3.568069 11697996
10.983053 9.790383 0.851563 11697996
11.111646 9.042026 3.700368 11697996
10.464262 9.120788 2.252795 11697996
10.742202 10.391255 1.377719 11697996
9.402250 10.565567 0.148076 11697996
9.402022 10.693327 2.768004 11697996
9.564819 9.352227 3.929981 11697996
9.063919 10.958427 2.212014 11697996
9.790423 9.951780 0.532202 11697996
10.518559 10.143260 1.815252 11697996
11.192109 11.048820 0.293125 11697996
8.923135 10.434970 2.785585 11697996
10.427230 10.052652 1.536523 11697996
10.602237 10.338520 0.791889 11697996
10.563135 9.669285 3.570140 11697996
11.046393 8.863938 0.315054 11697996
11.015183 11.204203 0.012301 11697996
10.736914 9.733160 3.566816 11697996
9.695951 10.817823 3.363479 11697996
9.539874 9.414119 2.230507 11697996
10.532622 9.579902 1.570171 11697996
10.984881 9.447146 1.953749 11697996
10.399469 10.006217 0.549879 11697996
9.759210 11.194781 2.373755 11697996
11.119717 8.901327 2.322843 11697996
10.979519 9.607933 2.548614 11697996
9.708481 10.908984 2.644369 11697996
9.163836 10.367679 0.901385 11697996
9.295740 8.870827 2.211857 11697996
11.072302 9.870017 3.019857 11697996
9.407947 10.885440 1.289703 11697996
10.266428 9.280910 1.485292 11697996
9.605220 10.437571 1.969830 11697996
9.724898 9.170501 2.268616 11697996
9.194128 9.111022 0.630639 11697996
10.508591 11.089157 3.454057 11697996
9.865562 9.788966 2.150714 11697996
10.171703 9.156576 3.320803 11697996
10.391110 10.119998 1.514450 11697996
9.264036 10.865504 1.183419 11697996
9.630260 10.245450 3.962257 11697996
9.765961 8.992148 3.503098 11697996
8.932537 9.471203 0.286632 11697996
10.634377 10.396585 0.154954 11697996
9.332144 10.489252 1.884219 11697996
10.531530 9.002388 2.450927 11697996
10.483386 10.312436 0.618295 11697996
9.938180 10.081381 3.679889 11697996
9.759656 9.736721 0.622150 11697996
11.209568 10.503492 2.810781 11697996
9.701940 10.595073 1.923798 11697996
9.147687 10.859281 3.782445 11697996
9.259529 11.035678 1.274634 11697996
11.098521 11.141694 3.847802 11697996
10.391451 10.205105 2.423029 11697996
9.861472 10.100584 3.637025 11697996
9.120819 9.098694 1.794660 11697996
9.572368 9.943742 3.279929 11697996
10.944968 9.288096 0.113374 11697996
11.065862 9.193335 0.644396 11697996
9.797565 11.096664 2.594342 11697996
11.012319 9.341955 1.471693 11697996
9.283383 9.903469 2.556112 11697996
11.168803 11.130573 0.846440 11697996
11.205642 10.589537 1.851098 11697996
10.349389 8.827667 3.729951 11697996
9.315296 9.743614 3.132845 11697996
10.339114 9.018798 0.854853 11697996
9.583955 9.446863 0.032889 11697996
10.096896 8.896755 3.168287 11697996
10.819834 10.411972 3.063851 11697996
8.773685 9.127527 3.488711 11697996
9.989211 9.572115 1.109102 11697996
10.333688 9.447922 2.326353 11697996
11.136535 9.623733 3.419444 11697996
9.897781 11.160145 3.224379 11697996
10.998818 10.555582 2.626603 11697996
10.663504 10.404795 0.633842 11697996
9.046751 9.104053 2.304361 11697996
10.211588 9.523110 3.783776 11697996
10.810588 10.701482 0.748891 11697996
11.218152 8.788084 0.976397 11697996
9.270842 9.579466 3.783434 11697996
11.254457 10.254419 1.594815 11697996
10.948171 9.394553 1.652148 11697996
11.003220 10.197145 2.425180 11697996
8.875303 10.762421 1.259887 11697996
9.655385 9.855651 0.357240 11697996
10.315332 8.996070 3.267310 11697996
9.596453 8.830677 1.277544 11697996
11.036489 9.132420 1.158263 11697996
10.358562 8.814811 0.440525 11697996
9.862176 9.689044 2.830364 11697996
10.866533 9.749781 3.976954 11697996
9.056424 9.307408 3.382377 11697996
10.001835 10.875662 0.720028 11697996
10.133245 8.796846 3.073566 11697996
10.864265 9.281610 3.627622 11697996
9.499803 9.812996 3.430305 11697996
9.488731 8.965513 3.445866 11697996
10.131564 9.189466 1.288490 11697996
10.571575 9.091915 1.772827 11697996
9.865187 10.888289 3.624770 11697996
11.094144 9.659152 3.539159 11697996
9.757562 10.888211 3.276751 11697996
10.062209 9.518047 0.539644 11697996
9.200467 9.271511 2.879851 11697996
10.457354 8.969503 3.162351 11697996
9.854776 9.569400 0.439359 11697996
8.778859 10.865162 3.308696 11697996
10.356360 9.636665 0.691673 11697996
10.477376 10.880693 1.681318 11697996
9.746914 10.733054 1.944756 11697996
9.270640 10.203957 2.055741 11697996
10.545857 10.701195 3.658801 11697996
10.078940 9.895297 3.157123 11697996
9.942354 9.651940 1.589508 11697996
9.339821 9.854095 3.448552 11697996
9.900892 11.155210 3.823811 11697996
8.997396 11.175961 0.968984 11697996
10.552232 10.081586 0.124254 11697996
10.526501 10.312229 1.777937 11697996
10.096883 9.113317 0.808946 11697996
9.372122 9.560752 2.580859 11697996
11.122066 10.949242 1.000615 11697996
10.601118 11.115676 1.041695 11697996
9.606323 10.393682 0.981227 11697996
8.847337 11.196747 1.607095 11697996
10.163841 10.042651 2.934927 11697996
8.958591 9.282589 1.973007 11697996
11.024984 9.026185 0.641895 11697996
9.818010 8.749820 0.759707 11697996
9.138659 10.418567 1.670129 11697996
10.836533 9.227872 0.551170 11697996
9.849039 9.620848 2.798022 11697996
9.752923 10.238925 0.214719 11697996
10.996697 10.463294 0.383428 11697996
9.450076 10.120225 1.526624 11697996
8.790064 11.083431 2.515106 11697996
10.301492 9.535634 0.517824 11697996
10.680715 8.819526 0.185671 11697996
11.214931 9.420829 2.621591 11697996
9.479879 10.780441 1.223451 11697996
10.219441 8.993526 1.030012 11697996
10.730788 10.842375 1.697424 11697996
9.512431 9.984857 2.392277 11697996
10.364271 9.131267 0.499012 11697996
10.617723 9.025537 2.454659 11697996
10.707876 10.177048 1.197647 11697996
9.367875 9.210167 1.734043 11697996
9.850308 10.252865 2.029160 11697996
9.180695 9.051869 1.646563 11697996
9.651094 8.996174 2.466494 11697996
9.480747 11.212168 1.605678 11697996
11.183649 9.628893 1.532838 11697996
9.662374 8.848625 0.383130 11697996
10.300759 10.650691 2.631033 11697996
11.009964 8.769768 2.041622 11697996
9.566029 9.060482 0.064534 11697996
10.018791 10.335861 2.658736 11697996
9.449937 9.644825 1.561409 11697996
9.414988 10.717725 2.887313 11697996
9.936686 9.749008 1.031354 11697996
9.133674 10.251339 2.856855 11697996
9.419960 10.645439 0.810260 11697996
10.124783 9.765702 3.937629 11697996
9.070602 10.603707 2.254175 11697996
8.772046 8.935665 1.179928 11697996
10.612720 9.207959 1.333891 11697996
10.064631 9.698553 2.240299 11697996
11.130551 10.347297 0.233863 11697996
11.113079 10.292032 3.536517 11697996
