# .PCD v0.7 - Point Cloud Data file format
VERSION 0.7
FIELDS x y z rgb
SIZE 4 4 4 4
TYPE F F F U
COUNT 1 1 1 1
WIDTH 1292
HEIGHT 1
VIEWPOINT 0 0 0 1 0 0 0
POINTS 1292
DATA ascii
9.499833 10.976344 1.482221 11697996
10.112516 8.854712 1.155568 11697996
10.106432 11.208502 2.642164 11697996
10.103833 9.394979 2.226473 11697996
8.993113 8.850329 0.233906 11697996
9.289862 9.259570 2.028586 11697996
9.332847 10.902358 0.825119 11697996
11.168743 9.680361 1.961331 11697996
10.510409 11.253428 1.977268 11697996
9.200482 11.062751 0.614919 11697996
8.810182 11.239375 0.067880 11697996
9.427444 10.120101 0.740493 11697996
10.564837 10.514205 2.622757 11697996
10.752162 10.344187 1.034425 11697996
9.599289 10.970235 1.496087 11697996
9.034415 8.995216 1.565169 11697996
9.715166 10.996449 1.287929 11697996
9.747969 9.074826 0.609691 11697996
9.231492 8.975074 2.032092 11697996
10.925466 10.403745 0.064104 11697996
10.615464 9.267729 1.799715 11697996
10.023159 9.946218 1.146732 11697996
10.300824 10.517563 3.109111 11697996
9.958386 10.971964 0.359900 11697996
9.086509 10.551047 3.433638 11697996
9.650119 11.220053 3.387959 11697996
8.973699 10.568560 0.453834 11697996
10.134962 8.885873 3.250579 11697996
10.789462 10.315060 0.780108 11697996
10.112835 8.833245 2.483841 11697996
11.201140 9.070893 0.463173 11697996
9.509239 9.223269 0.644962 11697996
11.222111 9.007743 3.302248 11697996
9.171378 9.725032 0.767349 11697996
9.312634 9.236959 4.000391 11697996
10.472200 9.218928 2.558219 11697996
9.846579 9.363348 0.976918 11697996
10.033478 11.202006 2.947281 11697996
11.119657 10.377491 0.284194 11697996
10.814088 9.291016 1.016016 11697996
10.621383 10.682376 3.137561 11697996
10.555729 10.891874 1.474853 11697996
9.930020 9.028785 0.800733 11697996
10.704389 9.778107 0.208613 11697996
9.037655 9.984450 0.481737 11697996
10.817120 9.619643 1.407684 11697996
10.628663 11.235599 3.939820 11697996
10.635899 9.613118 3.771001 11697996
11.168590 9.913858 2.950295 11697996
11.079283 9.979599 3.061970 11697996
8.862507 10.877447 2.770378 11697996
11.062805 9.857655 2.756647 11697996
9.301604 9.770660 3.469006 11697996
9.303169 9.021371 3.429731 11697996
9.861323 10.704571 2.545881 11697996
10.919209 9.192207 0.167099 11697996
10.731194 10.502504 1.305382 11697996
9.906495 10.670696 2.357709 11697996
9.131049 10.415914 1.761293 11697996
10.192945 9.325095 2.204023 11697996
11.052197 10.192944 0.202782 11697996
10.046978 11.184893 2.967228 11697996
10.622394 11.006956 3.795391 11697996
9.700421 8.811663 1.527127 11697996
9.589093 9.489305 1.397496 11697996
10.727667 10.730591 1.625326 11697996
9.587484 10.448169 2.733140 11697996
10.200930 11.257843 0.267035 11697996
9.615018 8.846343 3.264468 11697996
9.538133 10.290462 3.175300 11697996
10.323974 9.118462 3.345347 11697996
9.388743 10.322159 2.950508 11697996
9.604892 10.672163 1.752272 11697996
9.073595 10.804847 2.132421 11697996
10.812653 10.525934 0.927631 11697996
10.792173 10.961180 3.708551 11697996
10.721486 10.913905 1.658596 11697996
11.194551 9.250399 3.261211 11697996
9.886497 11.241326 1.750674 11697996
8.818028 8.750374 2.450106 11697996
9.138391 10.079365 3.136564 11697996
10.563471 10.051451 0.194616 11697996
8.855461 10.213029 3.403782 11697996
10.304762 9.541479 0.842990 11697996
10.228339 8.967299 1.403340 11697996
9.610647 8.913095 3.613325 11697996
9.755413 9.815529 1.588569 11697996
10.894853 9.960465 3.025694 11697996
10.702753 10.337753 3.280781 11697996
10.802810 10.474737 0.680684 11697996
10.744380 10.242626 3.855596 11697996
11.073565 9.496947 1.708542 11697996
9.497729 10.807092 2.587163 11697996
10.249662 8.762065 3.090375 11697996
11.158139 9.497839 2.687566 11697996
10.349143 10.082145 2.034122 11697996
10.363400 10.030141 0.981726 11697996
8.863265 10.980004 3.428372 11697996
10.655026 9.888339 1.730731 11697996
9.486586 9.962141 2.164894 11697996
10.100639 10.703240 3.273703 11697996
9.259388 10.461718 1.893529 11697996
9.272054 9.727274 2.743948 11697996
9.770486 9.126921 3.528388 11697996
9.563357 11.052151 2.005746 11697996
10.599689 8.867835 1.273854 11697996
8.913598 11.159972 0.041357 11697996
11.016979 10.390326 2.058626 11697996
8.858645 11.176541 0.038390 11697996
9.289429 11.137250 1.580518 11697996
10.130443 9.196752 1.465975 11697996
9.229750 10.587261 0.532306 11697996
10.816515 10.955153 3.776543 11697996
10.192068 9.800337 2.653844 11697996
10.947933 10.448853 2.359235 11697996
11.162821 9.901039 2.119705 11697996
9.998967 10.231837 2.172885 11697996
10.019351 10.205301 2.044444 11697996
8.884335 9.537406 0.952819 11697996
10.406083 11.021258 2.185241 11697996
10.996838 10.958611 1.667669 11697996
9.954649 8.856944 0.496986 11697996
9.317266 10.380351 3.301409 11697996
11.165862 9.196245 3.191484 11697996
11.117451 10.627367 2.375281 11697996
10.873489 11.167528 1.207268 11697996
10.741540 9.577461 2.733550 11697996
9.982381 10.849857 1.084202 11697996
11.067055 10.054386 1.277920 11697996
8.964146 10.045444 2.600057 11697996
10.067307 10.384622 0.432913 11697996
10.848909 9.890104 3.417213 11697996
9.830404 10.389852 3.063893 11697996
10.120789 11.155787 1.594749 11697996
9.558060 9.935081 1.545590 11697996
10.308490 10.204367 3.236126 11697996
10.922074 10.693293 3.174450 11697996
10.693527 10.674139 0.880995 11697996
10.702756 10.061507 1.589935 11697996
9.703959 10.703622 3.995747 11697996
10.831050 9.562748 1.419848 11697996
9.058469 10.134424 3.924951 11697996
9.173623 9.574758 0.270377 11697996
10.923318 10.918672 1.635955 11697996
10.125576 10.272846 2.365907 11697996
9.557804 10.955081 1.813771 11697996
10.164720 10.699850 0.189713 11697996
10.869461 8.877739 0.792270 11697996
9.100781 10.888221 0.704405 11697996
11.041428 10.999287 0.517978 11697996
10.069917 10.170592 3.204180 11697996
10.375672 9.984415 0.215016 11697996
10.247791 8.943811 1.582855 11697996
9.306746 8.915854 1.495138 11697996
8.961442 10.333981 3.098984 11697996
10.470313 9.368594 1.535308 11697996
9.171897 9.315888 3.724563 11697996
9.511955 9.195551 0.580964 11697996
10.321115 11.069614 1.173898 11697996
10.489188 9.168119 1.472688 11697996
11.163945 10.375484 1.894391 11697996
10.629188 8.976508 3.653162 11697996
10.915874 10.841777 0.813890 11697996
10.876668 9.192658 1.481176 11697996
9.560545 11.198606 1.860290 11697996
8.958511 10.209758 1.793925 11697996
11.240144 10.141851 0.240182 11697996
10.002503 10.967549 3.628476 11697996
10.596938 10.306998 0.256150 11697996
8.839993 10.568024 0.605974 11697996
8.954741 8.865290 1.491120 11697996
10.890911 9.472275 0.177507 11697996
10.387217 9.475428 3.709891 11697996
10.221462 10.444456 0.736849 11697996
10.403054 10.771528 0.146244 11697996
10.799444 9.158840 1.234144 11697996
10.957417 9.786188 3.727168 11697996
10.474520 9.557346 1.622490 11697996
8.871230 8.986268 0.569612 11697996
10.175123 10.288091 3.691204 11697996
9.232658 11.029737 0.669081 11697996
10.765300 8.824040 0.549238 11697996
9.002828 10.684545 2.569871 11697996
10.728342 9.454165 3.086161 11697996
9.554955 9.768138 0.847086 11697996
10.984307 11.171378 2.329327 11697996
9.586354 10.531128 2.851601 11697996
9.671397 11.130154 1.281951 11697996
9.837387 11.161822 2.717607 11697996
10.315839 10.284565 3.016232 11697996
10.399320 10.629395 3.511043 11697996
10.936658 10.714545 1.456271 11697996
9.087214 10.922693 2.650434 11697996
10.864484 9.618691 0.363523 11697996
10.976699 10.541007 3.114813 11697996
8.794597 9.099404 4.000710 11697996
9.490230 9.462255 2.502070 11697996
10.750807 10.234311 2.503884 11697996
8.816986 9.456339 0.654944 11697996
10.250095 9.229594 3.711817 11697996
10.146834 9.098529 2.563482 11697996
10.349183 11.031473 2.572666 11697996
9.072517 9.508695 1.916825 11697996
10.072650 9.353648 2.225093 11697996
9.170527 9.385074 0.657532 11697996
11.048149 9.599344 3.963891 11697996
10.255832 10.740680 1.822741 11697996
11.019629 9.995437 2.400094 11697996
10.257031 10.951803 1.703472 11697996
9.650600 9.772406 3.303997 11697996
10.571653 8.906164 1.966350 11697996
9.253056 10.720125 1.510261 11697996
9.372804 9.254149 2.097513 11697996
9.115335 9.080108 3.261248 11697996
9.381284 10.486377 2.065866 11697996
11.082088 9.022735 2.306336 11697996
11.136323 9.886047 2.446166 11697996
9.313864 11.153183 2.933599 11697996
9.643549 11.194666 1.189272 11697996
9.067686 9.525881 3.199611 11697996
11.173413 8.957878 1.396016 11697996
10.185808 9.968909 1.694094 11697996
10.074574 10.469578 2.656764 11697996
9.341400 9.142553 0.761657 11697996
9.963992 9.388228 0.368138 11697996
9.084073 8.933396 1.381486 11697996
8.809148 10.343072 2.388561 11697996
9.772374 8.926691 2.986881 11697996
10.154273 10.998382 0.843241 11697996
11.089776 9.273379 3.990472 11697996
10.784091 8.964234 1.263149 11697996
9.617161 9.923388 2.825983 11697996
10.073981 9.357029 2.820816 11697996
10.077293 11.134960 3.103435 11697996
11.046600 10.865280 3.197237 11697996
9.426017 10.895185 1.011101 11697996
9.549166 10.794024 1.081981 11697996
8.740523 9.330096 0.057438 11697996
10.516597 10.820103 2.037400 11697996
10.466435 10.676931 2.441885 11697996
10.209474 9.100772 2.932831 11697996
10.304053 9.646699 3.758495 11697996
9.181802 10.708507 3.712758 11697996
9.700251 10.841991 2.555294 11697996
10.997342 9.883425 0.434967 11697996
10.597503 10.823891 3.351887 11697996
10.773546 10.282532 2.069673 11697996
10.371933 10.404882 0.314591 11697996
11.021399 10.450076 2.640263 11697996
9.692476 9.652875 2.611123 11697996
11.124244 10.927685 1.342181 11697996
9.383311 9.507130 3.164323 11697996
10.902594 8.934078 3.597636 11697996
11.220381 9.796312 1.960183 11697996
10.439009 10.306496 2.646570 11697996
9.682399 9.131837 0.455485 11697996
11.259140 10.412072 0.301672 11697996
9.964848 9.266421 0.964794 11697996
10.398533 10.383310 2.378438 11697996
10.803515 8.789485 1.187943 11697996
9.967396 9.065764 0.510219 11697996
9.675997 11.159796 0.829510 11697996
10.127052 9.164940 1.179666 11697996
8.868521 9.498903 1.554062 11697996
9.722801 8.890199 1.726527 11697996
9.823072 9.884918 1.069105 11697996
10.085618 10.846328 3.379668 11697996
10.285791 8.932098 1.107002 11697996
9.077154 10.162946 1.314915 11697996
11.110605 8.871074 2.031527 11697996
11.073785 9.344810 2.232982 11697996
11.064581 9.165584 4.006289 11697996
8.910449 10.403046 2.261984 11697996
8.865809 10.416700 0.516543 11697996
9.047284 11.092470 3.755945 11697996
9.199493 9.670298 0.832349 11697996
9.202893 10.790894 1.398833 11697996
9.339553 10.725916 1.367639 11697996
10.976745 10.237226 1.980270 11697996
10.388475 10.533145 2.546266 11697996
8.850142 10.263323 3.295353 11697996
9.487752 10.201339 3.601515 11697996
9.086977 10.900298 3.176118 11697996
11.150936 10.288897 0.722206 11697996
9.432135 9.076336 2.440937 11697996
9.149988 10.075330 1.050958 11697996
11.075357 9.474673 2.045521 11697996
10.797002 9.492851 0.277119 11697996
9.812734 10.380053 1.864732 11697996
10.246268 10.112159 1.203878 11697996
8.747165 10.435067 3.075382 11697996
10.320230 9.221426 1.363989 11697996
9.759593 9.297909 0.002843 11697996
9.271545 9.953671 2.853391 11697996
10.557287 9.534101 0.871662 11697996
10.189229 10.171037 3.548412 11697996
8.920086 11.074494 1.886004 11697996
11.017555 9.205891 1.320215 11697996
9.223736 9.796493 2.965786 11697996
8.921838 9.080258 2.168670 11697996
9.447474 10.273752 1.069929 11697996
11.045468 9.620357 3.500433 11697996
9.618516 10.114836 1.928159 11697996
10.611996 11.217166 0.083570 11697996
9.701530 9.644062 1.360798 11697996
10.752482 8.936571 3.671495 11697996
9.627010 10.387070 0.306352 11697996
10.800610 10.030111 2.902927 11697996
9.089208 10.066966 3.797849 11697996
9.012779 10.824497 3.470812 11697996
10.677812 8.909976 1.548612 11697996
9.153564 10.537459 2.756465 11697996
9.984100 10.059351 3.976958 11697996
10.159514 10.925643 2.316056 11697996
9.875266 10.112247 0.298621 11697996
8.906000 8.922463 2.183327 11697996
10.233344 9.809426 3.826065 11697996
10.617474 11.157949 2.246526 11697996
9.306453 10.114616 3.172671 11697996
9.867911 9.918021 2.621876 11697996
8.912454 10.233992 0.180467 11697996
10.790943 10.457385 1.922040 11697996
10.107993 9.672049 3.320384 11697996
10.975815 10.190870 3.372977 11697996
8.940289 9.245756 3.940385 11697996
9.300356 10.854624 3.328970 11697996
10.263573 10.767587 0.991933 11697996
10.829999 9.888778 2.261477 11697996
10.488574 8.747525 3.510646 11697996
10.844898 8.932729 0.874983 11697996
9.407834 10.225109 2.532543 11697996
9.114218 10.831625 1.171672 11697996
10.322614 8.840940 3.299093 11697996
9.689269 10.829412 2.921185 11697996
9.866724 10.541008 1.147243 11697996
11.136131 10.980300 1.450825 11697996
9.579508 8.816790 3.888292 11697996
10.742213 9.860701 2.240564 11697996
8.781492 9.346307 1.204494 11697996
10.833843 11.089997 3.722152 11697996
10.681447 10.953997 2.536316 11697996
9.514556 9.781714 1.175222 11697996
10.218749 9.267098 2.009332 11697996
9.755094 9.990236 2.747564 11697996
10.007075 9.712964 0.839659 11697996
10.325647 11.215711 1.920251 11697996
10.673514 9.182901 0.205077 11697996
9.514364 10.729326 1.182550 11697996
11.220091 11.027761 2.530289 11697996
10.524058 9.753528 2.085267 11697996
8.977317 10.368840 3.901743 11697996
9.167562 10.594417 0.146765 11697996
10.296815 10.025281 3.661108 11697996
10.791288 10.603344 3.100478 11697996
9.596912 11.211335 3.652046 11697996
9.383325 9.223331 2.964583 11697996
10.011554 9.301604 1.231748 11697996
9.146523 8.973461 0.810625 11697996
10.373532 9.656017 3.076619 11697996
10.555662 11.055382 2.278118 11697996
10.206052 8.915242 0.492782 11697996
10.733606 10.090901 3.487937 11697996
9.079113 10.982430 2.184823 11697996
11.041623 10.112316 1.601274 11697996
10.664412 10.414973 0.612815 11697996
8.835818 10.808175 2.876518 11697996
8.823761 10.459097 0.260669 11697996
9.381697 10.160949 3.526732 11697996
9.056258 9.289011 2.124043 11697996
9.620387 9.756027 2.084356 11697996
10.337901 10.018190 1.885591 11697996
9.231826 9.334199 2.304733 11697996
9.462103 10.901326 3.378958 11697996
10.039662 10.021448 3.341611 11697996
10.657515 8.811103 0.819189 11697996
9.207752 11.257346 3.918388 11697996
9.448330 9.894857 0.952707 11697996
8.922942 11.195641 2.687027 11697996
10.126252 9.559654 3.427969 11697996
11.222515 10.342266 0.227849 11697996
9.306806 9.023343 2.724834 11697996
8.949495 9.338668 1.329625 11697996
9.041633 9.777739 1.647997 11697996
8.895239 9.701122 2.173198 11697996
11.085133 11.092753 3.586915 11697996
10.400837 9.877100 3.006439 11697996
8.785434 9.728323 3.476123 11697996
10.275539 9.625021 0.345325 11697996
10.444064 10.570356 1.896120 11697996
10.773746 9.628474 0.095205 11697996
11.138946 8.943297 3.997669 11697996
10.604770 10.447732 2.020889 11697996
10.214827 10.223142 0.768096 11697996
10.012322 9.177423 1.467748 11697996
11.126109 9.239456 2.198608 11697996
9.066415 11.187945 0.927230 11697996
9.035144 9.486952 3.336298 11697996
10.489886 9.970187 2.764759 11697996
8.742272 11.200889 1.162304 11697996
10.547288 9.783495 3.057040 11697996
9.127100 10.656385 3.393926 11697996
9.144380 10.168200 3.985052 11697996
10.959735 10.258941 1.925993 11697996
10.911798 9.653543 1.071173 11697996
9.356528 8.956088 3.893983 11697996
8.784680 9.821008 2.466125 11697996
10.258121 10.421903 1.868683 11697996
11.084361 10.921246 3.569723 11697996
8.845746 9.477531 3.877616 11697996
9.943942 9.100914 3.464926 11697996
9.970966 9.626073 2.125421 11697996
8.905581 9.957369 2.461113 11697996
9.634888 9.971419 3.725731 11697996
9.939431 10.886766 2.618473 11697996
10.921242 11.108311 0.868930 11697996
9.303735 9.084047 0.087826 11697996
9.671188 10.862937 0.142416 11697996
10.165655 10.312244 3.557288 11697996
10.942994 9.067894 0.952145 11697996
9.346446 11.046055 1.775119 11697996
10.143228 9.218867 2.189146 11697996
8.764440 10.030101 0.770758 11697996
9.754906 9.905060 3.950692 11697996
9.954109 11.220922 2.372401 11697996
9.371749 10.907118 2.988462 11697996
10.680751 9.629929 2.206751 11697996
10.905811 9.063232 2.769775 11697996
10.907874 10.869876 1.824167 11697996
11.224622 9.880300 2.219049 11697996
9.650671 9.352090 2.538081 11697996
9.312553 8.849712 2.955530 11697996
11.028502 8.988969 2.654276 11697996
9.810002 8.804328 0.576495 11697996
9.822093 9.046029 3.587208 11697996
11.007872 9.782107 0.857364 11697996
11.124284 9.043897 3.675784 11697996
10.490545 9.182259 2.282229 11697996
10.760042 10.429245 1.413726 11697996
9.377702 10.569363 0.143462 11697996
9.404410 10.721364 2.751648 11697996
9.545821 9.318342 3.925095 11697996
9.047831 10.937052 2.203695 11697996
9.785675 9.959274 0.517592 11697996
10.544694 10.121609 1.785253 11697996
11.177699 11.060470 0.295714 11697996
8.942961 10.464440 2.787746 11697996
10.369109 10.067569 1.556627 11697996
10.602098 10.341162 0.791833 11697996
10.521254 9.680613 3.536977 11697996
11.056653 8.871595 0.321842 11697996
10.989980 11.186047 0.006399 11697996
10.746478 9.751621 3.548310 11697996
9.683856 10.819178 3.349313 11697996
9.526802 9.422376 2.205545 11697996
10.531626 9.586947 1.578034 11697996
11.026233 9.453912 1.965255 11697996
10.425946 10.019296 0.522203 11697996
9.770308 11.166102 2.381075 11697996
11.082257 8.895978 2.330483 11697996
10.967884 9.630530 2.524722 11697996
9.728648 10.902082 2.637787 11697996
9.145854 10.342786 0.862652 11697996
9.298773 8.842772 2.196327 11697996
11.068387 9.831805 3.034749 11697996
9.429028 10.920890 1.241155 11697996
10.259077 9.280967 1.497008 11697996
9.634267 10.394179 1.973691 11697996
9.706090 9.169831 2.264873 11697996
9.232674 9.124034 0.662530 11697996
10.518997 11.100071 3.412138 11697996
9.882692 9.792053 2.131034 11697996
10.141578 9.157671 3.321227 11697996
10.404133 10.103294 1.505729 11697996
9.233357 10.857625 1.156905 11697996
9.648659 10.205488 3.935503 11697996
9.763837 8.958240 3.501827 11697996
8.934976 9.508928 0.270142 11697996
10.653146 10.422927 0.138432 11697996
9.305353 10.479321 1.889358 11697996
10.534053 8.958167 2.444529 11697996
10.452246 10.315639 0.626522 11697996
9.936083 10.080686 3.668242 11697996
9.755963 9.757045 0.639316 11697996
11.218986 10.502715 2.804330 11697996
9.681194 10.617414 1.942618 11697996
9.177469 10.823826 3.767917 11697996
9.235965 11.064290 1.270061 11697996
11.117746 11.125432 3.815471 11697996
10.359880 10.209734 2.380797 11697996
9.882266 10.083047 3.624491 11697996
9.098984 9.114194 1.795654 11697996
9.552721 9.937202 3.283616 11697996
10.939128 9.271413 0.147206 11697996
11.062693 9.179982 0.663683 11697996
9.789077 11.082301 2.567402 11697996
10.984430 9.336682 1.452016 11697996
9.291259 9.889366 2.525192 11697996
11.193667 11.110042 0.872881 11697996
11.192629 10.617513 1.838136 11697996
10.336842 8.817572 3.723630 11697996
9.313678 9.709255 3.159244 11697996
10.328129 9.029069 0.858824 11697996
9.595696 9.443020 0.057667 11697996
10.044616 8.891057 3.138211 11697996
10.810819 10.385345 3.026837 11697996
8.756236 9.122225 3.509028 11697996
9.994881 9.577357 1.114660 11697996
10.335259 9.456305 2.367247 11697996
11.139205 9.569935 3.440033 11697996
9.871025 11.185012 3.241788 11697996
11.000446 10.542882 2.655285 11697996
10.700618 10.411392 0.648319 11697996
9.003904 9.112820 2.314396 11697996
10.195720 9.535125 3.796052 11697996
10.815641 10.701255 0.734022 11697996
11.221379 8.805958 0.942711 11697996
9.276706 9.559204 3.793235 11697996
11.237595 10.250374 1.568137 11697996
10.922896 9.422629 1.651486 11697996
11.011072 10.147714 2.402270 11697996
8.853827 10.787304 1.240221 11697996
9.627059 9.874180 0.349072 11697996
10.313565 8.989622 3.248769 11697996
9.563780 8.849478 1.269743 11697996
10.994446 9.133676 1.171250 11697996
10.314256 8.823153 0.388768 11697996
9.859915 9.667972 2.813500 11697996
10.851144 9.754233 3.972357 11697996
9.053823 9.296392 3.398609 11697996
10.017560 10.859890 0.755480 11697996
10.138152 8.792320 3.044501 11697996
10.848839 9.287695 3.615813 11697996
9.531041 9.778572 3.436743 11697996
9.457127 8.958817 3.475299 11697996
10.143916 9.203384 1.284732 11697996
10.564861 9.066701 1.772555 11697996
9.850803 10.892651 3.634865 11697996
11.103333 9.644367 3.549905 11697996
9.739505 10.912514 3.306938 11697996
10.059564 9.532496 0.525087 11697996
9.213613 9.296210 2.894520 11697996
10.433537 8.936234 3.119430 11697996
9.856685 9.562649 0.427357 11697996
8.810121 10.852839 3.314356 11697996
10.353734 9.640117 0.716109 11697996
10.512131 10.874899 1.674662 11697996
9.754679 10.738311 1.932162 11697996
9.251457 10.216586 2.046369 11697996
10.537578 10.717666 3.670729 11697996
10.111954 9.865238 3.145024 11697996
9.926147 9.647393 1.620402 11697996
9.347862 9.863379 3.452559 11697996
9.921034 11.163479 3.848058 11697996
8.992934 11.199955 1.009200 11697996
10.577428 10.075551 0.138026 11697996
10.499052 10.291790 1.774774 11697996
10.091229 9.081634 0.779931 11697996
9.404304 9.558660 2.567706 11697996
11.104373 10.996235 0.981662 11697996
10.639604 11.115388 1.057006 11697996
9.588666 10.393731 0.998163 11697996
8.858079 11.198583 1.607252 11697996
10.189998 10.065962 2.946692 11697996
8.962553 9.273531 1.974180 11697996
11.014878 9.031105 0.630670 11697996
9.808508 8.790983 0.789099 11697996
9.184742 10.430230 1.662290 11697996
10.853671 9.248998 0.528501 11697996
9.823877 9.601139 2.778835 11697996
9.757088 10.243463 0.240361 11697996
11.001769 10.458423 0.403856 11697996
9.471448 10.123246 1.539827 11697996
8.776893 11.097275 2.468005 11697996
10.326752 9.479998 0.537766 11697996
10.677004 8.862160 0.210324 11697996
11.205414 9.427306 2.650074 11697996
9.507494 10.747409 1.215453 11697996
10.218546 9.001514 1.014767 11697996
10.717115 10.855601 1.675704 11697996
9.521091 9.950838 2.354788 11697996
10.377938 9.147746 0.481634 11697996
10.629767 9.036573 2.454585 11697996
10.711190 10.175547 1.154964 11697996
9.364832 9.211160 1.743366 11697996
9.853070 10.242209 2.005007 11697996
9.155636 9.047302 1.637115 11697996
9.625891 8.961778 2.473811 11697996
9.474080 11.186887 1.596957 11697996
11.184299 9.630172 1.523805 11697996
9.654276 8.854856 0.409889 11697996
10.317651 10.636832 2.674212 11697996
10.997572 8.762119 2.006812 11697996
9.514960 9.047116 0.074814 11697996
10.015488 10.324338 2.669391 11697996
9.399597 9.647506 1.606449 11697996
9.418736 10.722910 2.907624 11697996
9.920706 9.752559 1.033489 11697996
9.121674 10.281148 2.847642 11697996
9.431553 10.659910 0.812333 11697996
10.076602 9.758424 3.946948 11697996
9.070658 10.588893 2.234321 11697996
8.810473 8.938490 1.152704 11697996
10.627842 9.162129 1.313560 11697996
10.059247 9.685975 2.253170 11697996
11.125583 10.342680 0.230777 11697996
11.099428 10.307755 3.506921 11697996
9.096138 10.216917 1.813713 11697996
9.894179 10.867049 3.200027 11697996
10.704430 10.686156 1.174315 11697996
11.201345 10.110703 1.936383 11697996
10.921151 11.219911 1.350428 11697996
10.691243 11.077058 3.788932 11697996
9.871409 10.282000 1.990927 11697996
11.242908 10.360857 0.450581 11697996
10.510691 10.046916 2.061895 11697996
10.108382 9.803117 3.641812 11697996
9.384346 10.701593 2.028886 11697996
9.601060 10.316533 2.676754 11697996
9.815791 9.633090 0.940628 11697996
9.085549 8.879479 3.355925 11697996
9.528926 8.979132 0.052801 11697996
10.729040 10.060145 2.282383 11697996
9.484624 9.162071 3.782614 11697996
9.969733 9.891466 2.151411 11697996
9.397120 10.538632 0.461471 11697996
9.702182 10.217882 2.075406 11697996
9.407494 11.151185 3.842958 11697996
9.926010 9.954703 2.225591 11697996
8.954358 10.300975 0.948961 11697996
9.610375 9.607250 2.321771 11697996
11.122811 10.458715 1.167528 11697996
10.883188 10.448760 1.608127 11697996
9.395956 9.381810 0.085913 11697996
9.910003 10.024293 1.227830 11697996
11.180807 9.870830 1.111258 11697996
9.772831 9.320181 0.006207 11697996
9.045013 9.510226 1.791820 11697996
10.862079 9.449664 0.642619 11697996
9.661659 10.012990 1.428471 11697996
9.679927 10.811959 0.243196 11697996
11.228879 10.308995 3.993654 11697996
8.759010 9.715431 2.603046 11697996
10.007101 10.765408 3.166813 11697996
10.084105 10.004976 2.292910 11697996
11.153014 9.886146 2.105473 11697996
9.800822 10.199516 3.491726 11697996
8.963334 9.195444 2.393739 11697996
9.676115 10.421676 2.839756 11697996
10.524755 9.841263 3.786245 11697996
10.550235 9.574242 2.842309 11697996
9.018682 9.498507 2.946496 11697996
10.821069 11.226706 2.836237 11697996
11.221919 10.705440 0.466703 11697996
11.251700 8.744947 1.765054 11697996
9.795935 9.936990 2.507048 11697996
10.466853 8.897351 3.622191 11697996
10.677464 9.608967 1.672817 11697996
10.304188 8.918298 1.264725 11697996
9.733704 10.470758 3.800800 11697996
10.610770 10.440867 1.306402 11697996
10.172083 10.298089 3.652349 11697996
10.166340 9.171958 0.584508 11697996
9.840087 9.074814 1.032760 11697996
10.564152 10.661889 1.756078 11697996
9.931824 10.173597 0.459416 11697996
10.064909 10.372726 3.729005 11697996
10.242757 9.641386 1.586268 11697996
11.073018 9.459661 3.302934 11697996
9.761510 8.753636 3.507648 11697996
9.424148 9.820417 1.254981 11697996
8.901668 8.973867 3.432797 11697996
10.506400 10.491822 1.250949 11697996
10.225451 10.110754 0.202698 11697996
9.030414 10.455888 2.971953 11697996
10.722536 8.845655 1.109861 11697996
9.005898 9.061466 3.297739 11697996
9.733985 11.129330 2.952384 11697996
9.797514 10.900906 0.196238 11697996
11.041345 9.481017 2.014479 11697996
10.490068 10.144085 3.038261 11697996
9.235489 10.589043 2.750230 11697996
11.140284 10.873238 0.186940 11697996
10.100574 9.180305 1.890233 11697996
10.628317 10.251996 2.279302 11697996
11.200216 9.851137 3.106724 11697996
9.038084 10.076375 2.456043 11697996
10.926746 9.099916 1.205665 11697996
11.160126 10.802543 0.180264 11697996
10.409515 10.969532 3.268918 11697996
10.648702 10.825360 3.032663 11697996
9.469700 9.322721 1.080709 11697996
8.887926 9.899547 2.685312 11697996
10.004194 10.582265 3.666707 11697996
10.295447 10.439788 0.962974 11697996
10.293340 9.412901 2.752949 11697996
11.150407 11.020838 2.729463 11697996
9.566786 8.803113 1.103163 11697996
9.460091 9.578699 1.510754 11697996
10.169754 11.128592 2.541747 11697996
9.141065 9.235872 1.718834 11697996
9.392192 8.928795 2.915622 11697996
9.675857 9.722430 2.037422 11697996
10.700546 11.075542 3.699115 11697996
11.099744 10.340780 3.750154 11697996
10.969281 9.176687 0.031192 11697996
11.112758 10.414550 3.187616 11697996
8.965319 8.990461 1.225824 11697996
8.887778 10.264769 3.075186 11697996
8.993488 9.511802 0.976686 11697996
9.292829 9.561414 2.658792 11697996
10.062304 9.133703 3.149778 11697996
8.779358 8.981011 0.455779 11697996
10.145912 10.328959 1.280534 11697996
8.778885 10.276762 0.883154 11697996
9.478718 10.148596 0.376428 11697996
9.604360 9.896626 1.750777 11697996
9.309599 9.122500 1.356266 11697996
9.981493 9.026115 0.978396 11697996
9.367442 9.567264 0.386266 11697996
9.264681 9.595142 0.312922 11697996
9.555297 10.344397 1.876109 11697996
9.064439 9.838724 3.729552 11697996
9.500894 10.007030 0.542389 11697996
9.832131 10.376136 0.691937 11697996
10.788875 11.173710 1.681897 11697996
11.013501 10.222888 0.737399 11697996
9.356958 9.097479 2.467736 11697996
10.029860 9.455622 1.633068 11697996
9.501744 10.046356 2.808203 11697996
10.070913 10.519530 2.644182 11697996
10.927804 9.704323 2.173362 11697996
10.798319 9.555573 0.727489 11697996
9.435186 11.221674 3.640606 11697996
11.199162 10.304727 0.571446 11697996
10.969571 10.496531 3.552640 11697996
11.031750 10.139918 2.393925 11697996
9.418749 8.806672 1.782530 11697996
10.432223 11.071595 0.513044 11697996
9.698025 9.023883 2.022357 11697996
9.677506 9.585994 2.054906 11697996
10.292441 9.633267 1.240211 11697996
9.997402 10.506866 1.342237 11697996
10.375555 9.666365 3.549285 11697996
11.199690 8.914367 0.836522 11697996
10.174142 9.139286 2.856154 11697996
9.518661 9.265952 2.136550 11697996
8.765412 9.378131 0.375597 11697996
9.694759 9.516861 0.682835 11697996
9.050532 10.161521 1.906840 11697996
11.070388 10.228786 1.560951 11697996
9.381531 10.083139 0.665622 11697996
10.138455 8.771440 0.035645 11697996
9.989201 10.472850 3.025306 11697996
9.160166 9.273958 2.558849 11697996
9.304778 9.327277 0.510514 11697996
10.779681 11.172209 3.952175 11697996
9.191498 10.329737 1.497578 11697996
9.883803 9.484952 3.557185 11697996
8.785012 9.420462 2.254792 11697996
10.312027 9.664241 2.788060 11697996
9.757587 11.197550 3.788317 11697996
10.347730 10.584178 2.994058 11697996
10.538939 10.981821 3.959506 11697996
11.206797 9.102662 2.747766 11697996
9.836474 9.392375 2.467347 11697996
10.283197 10.708112 3.254910 11697996
9.520132 10.221000 3.513110 11697996
9.277525 9.962270 0.125326 11697996
10.253341 10.824678 1.696153 11697996
10.739814 10.248713 2.009310 11697996
10.926269 10.621216 1.063736 11697996
10.132874 8.888467 1.843184 11697996
10.023289 10.302849 1.241328 11697996
11.142149 9.612483 1.906864 11697996
10.456730 9.446419 3.630785 11697996
9.970426 10.097356 0.906057 11697996
10.855798 10.953640 1.256862 11697996
10.271368 9.816150 2.554655 11697996
9.736187 9.175191 3.320911 11697996
9.726166 10.885266 2.231539 11697996
9.453263 10.375241 0.877010 11697996
10.879962 10.645240 3.424802 11697996
9.253002 9.606681 2.305506 11697996
9.022917 10.742380 0.035229 11697996
9.405847 10.907537 1.966241 11697996
9.880223 8.855587 3.053272 11697996
8.840564 9.795857 2.016717 11697996
8.964750 10.637573 0.347179 11697996
8.799025 9.291703 1.216354 11697996
10.877627 9.345642 1.044378 11697996
10.908237 10.441577 3.041508 11697996
9.068990 10.825455 3.816935 11697996
10.931925 9.515413 2.967491 11697996
10.878070 8.763123 0.329439 11697996
9.025512 10.375302 1.014314 11697996
10.415660 8.852971 1.928657 11697996
9.393316 9.294667 0.035324 11697996
9.606577 9.947815 1.266059 11697996
10.715957 8.941971 1.089849 11697996
9.099208 10.515531 0.982845 11697996
10.518267 10.178606 0.426396 11697996
11.045554 9.326492 1.875498 11697996
9.074338 9.891438 2.010665 11697996
10.118443 11.135395 2.750259 11697996
8.879748 9.187373 0.646223 11697996
9.548731 10.830990 3.748912 11697996
9.263675 9.625984 2.225812 11697996
9.252865 10.445049 0.195363 11697996
10.702524 9.867293 2.513516 11697996
9.555913 8.843205 3.762059 11697996
10.931324 10.019058 1.471074 11697996
9.075966 10.388652 1.683233 11697996
9.321185 9.366096 2.044634 11697996
10.213481 8.824709 3.924559 11697996
10.036525 9.203517 3.320998 11697996
10.695139 10.046535 3.204805 11697996
11.246070 10.666302 3.802060 11697996
9.262023 9.279849 2.136081 11697996
9.522550 10.949439 3.245766 11697996
10.053262 9.326565 0.472604 11697996
9.541960 10.473881 2.380471 11697996
10.958407 8.889959 1.169862 11697996
9.663563 10.350615 1.547580 11697996
10.540270 10.453039 1.519308 11697996
9.856064 9.047750 2.491343 11697996
9.309593 10.504882 2.076622 11697996
9.222735 10.052030 0.660115 11697996
9.594767 10.438717 3.762949 11697996
10.323671 9.840422 3.587816 11697996
10.011869 9.279877 2.033972 11697996
10.613156 9.798126 0.427316 11697996
11.247164 10.568399 3.160209 11697996
10.699404 9.647344 3.288006 11697996
10.260843 10.360757 0.742522 11697996
9.612999 10.357175 2.673588 11697996
11.040475 11.109515 3.937151 11697996
11.092974 11.164268 2.020147 11697996
9.232317 9.026819 0.250595 11697996
9.769998 9.773487 3.557970 11697996
9.329383 11.081022 1.612976 11697996
8.922347 10.586415 0.421164 11697996
11.163895 11.026381 2.701095 11697996
8.857143 10.705097 1.612000 11697996
10.651227 9.443079 1.063754 11697996
10.811490 9.583963 3.137251 11697996
10.145399 10.209042 0.951196 11697996
9.107991 9.663979 2.345126 11697996
11.066185 9.106961 0.550133 11697996
9.401481 8.793917 2.205979 11697996
10.918085 10.846543 2.329297 11697996
10.447654 10.735619 3.737372 11697996
9.451947 10.923421 0.984505 11697996
9.276445 10.231252 3.514388 11697996
10.345898 9.485382 2.899781 11697996
10.616221 10.445403 3.643069 11697996
8.876439 11.106058 1.187976 11697996
9.546728 10.206980 1.135987 11697996
9.634953 10.002206 3.150486 11697996
10.713387 10.347899 3.226648 11697996
10.127170 9.580455 0.163855 11697996
9.066661 8.905588 0.071157 11697996
9.486296 10.249578 1.427387 11697996
10.641335 9.586308 3.548612 11697996
9.084805 11.190376 0.556141 11697996
9.536089 11.119058 0.462535 11697996
10.702512 8.850331 1.568296 11697996
10.415096 10.818160 2.149989 11697996
11.227977 10.935193 3.058896 11697996
11.160239 8.907131 2.603268 11697996
9.907655 10.781131 3.939759 11697996
9.458764 10.382019 3.945292 11697996
9.131122 9.193711 3.168658 11697996
9.126504 10.544339 3.416760 11697996
10.942206 11.074577 2.846617 11697996
9.576854 10.417799 2.062769 11697996
9.360638 9.995758 3.735298 11697996
10.911664 9.743264 3.788004 11697996
9.594463 9.042407 0.418669 11697996
9.102896 9.204146 0.564204 11697996
9.509709 9.107519 1.378398 11697996
9.731094 10.366806 3.238322 11697996
10.837552 9.297610 0.719841 11697996
9.075762 10.177437 1.993192 11697996
9.526764 10.526177 1.114412 11697996
10.095491 9.235450 2.767349 11697996
9.483942 10.246749 0.013633 11697996
9.392804 9.192817 0.268821 11697996
10.817193 9.856976 1.493701 11697996
9.824978 10.768738 0.167233 11697996
8.988640 9.687354 0.866646 11697996
10.209203 9.428793 2.039935 11697996
10.902157 9.236447 1.056158 11697996
8.876786 10.269082 1.845540 11697996
8.806425 10.990375 3.590353 11697996
10.592904 9.076950 2.368972 11697996
9.285500 10.933187 1.801611 11697996
10.578361 9.931300 0.530988 11697996
9.482478 9.145059 3.743199 11697996
10.295171 10.283507 0.041403 11697996
10.723231 9.023428 3.700104 11697996
9.110269 11.119477 3.964237 11697996
10.262539 9.279736 1.962250 11697996
8.802392 9.003167 3.674883 11697996
10.307143 9.240035 2.665049 11697996
9.760185 9.997796 3.938532 11697996
8.757046 9.797178 1.480814 11697996
9.253614 10.444797 2.120406 11697996
9.663360 10.659905 2.769677 11697996
9.282984 9.816797 2.145986 11697996
8.762872 10.268303 3.187178 11697996
9.288797 10.965865 0.099283 11697996
8.803345 9.458941 2.504336 11697996
10.855474 9.811745 1.541980 11697996
10.261640 9.774897 1.739945 11697996
10.458655 10.055378 2.342953 11697996
10.170276 9.200353 2.921829 11697996
10.139578 10.283096 3.493627 11697996
9.122512 10.083317 0.992422 11697996
9.380971 8.844400 2.608696 11697996
11.234176 11.155362 1.209925 11697996
9.086111 10.175447 2.596898 11697996
9.647333 9.710501 2.753713 11697996
9.366885 9.780125 1.713483 11697996
9.347513 10.870366 3.572920 11697996
10.719012 8.857494 2.750642 11697996
10.150782 9.335367 1.554158 11697996
10.940879 10.739433 3.833365 11697996
9.083471 9.431309 3.336904 11697996
10.053891 9.660711 0.872605 11697996
9.235382 10.961884 0.459352 11697996
9.012930 11.010149 1.962958 11697996
10.930316 10.822716 1.320338 11697996
9.893420 9.254601 3.195800 11697996
10.383169 9.812099 1.351148 11697996
10.293854 9.870743 3.895611 11697996
9.465739 9.080702 3.557966 11697996
9.736993 10.476316 3.232538 11697996
8.999957 9.807403 2.834264 11697996
10.313816 11.004743 0.446877 11697996
10.110757 10.929757 3.010776 11697996
9.000031 9.490994 0.292443 11697996
8.755233 10.165486 0.956643 11697996
9.690296 10.644815 0.572823 11697996
10.364896 10.165241 3.269964 11697996
9.155648 10.234164 3.658967 11697996
11.234946 10.304200 2.491290 11697996
10.922837 10.014435 2.828699 11697996
10.180663 10.011497 0.144062 11697996
10.560785 9.433068 1.648428 11697996
9.063268 9.116521 0.517801 11697996
8.918065 10.896778 0.493386 11697996
9.107783 10.196136 2.228452 11697996
9.789004 10.632821 2.042143 11697996
10.918176 9.352855 3.397619 11697996
8.991443 10.738266 2.057943 11697996
8.814927 10.134776 2.777740 11697996
9.764200 10.078317 0.634249 11697996
10.754075 10.696209 0.493112 11697996
9.334159 10.091291 3.248318 11697996
8.733025 8.977610 1.691155 11697996
9.603813 9.742669 1.423523 11697996
9.587250 11.136188 2.480772 11697996
11.075461 9.866207 2.821089 11697996
9.444208 9.392076 2.571390 11697996
9.331654 9.589220 1.682091 11697996
10.542809 11.192136 0.400610 11697996
9.231672 8.909769 3.414829 11697996
10.569488 9.787043 2.309208 11697996
9.965355 10.673089 1.574390 11697996
9.813547 11.153270 2.133649 11697996
10.611505 11.015488 2.299627 11697996
9.719863 11.111677 3.456652 11697996
10.085088 8.941043 0.066417 11697996
9.759069 10.473400 1.659808 11697996
8.860078 9.766837 2.761586 11697996
10.145710 9.906145 2.378752 11697996
10.954633 9.909693 1.837497 11697996
10.123418 10.707263 1.112540 11697996
9.271208 8.996459 3.203019 11697996
9.642658 9.608068 0.822557 11697996
9.785032 10.168859 1.001676 11697996
10.034224 9.893566 2.445492 11697996
11.214222 10.527239 3.346874 11697996
9.651031 9.962980 1.913121 11697996
10.656963 8.810784 0.211368 11697996
11.155108 9.347257 0.035571 11697996
11.116981 9.345816 0.852205 11697996
9.735172 10.282198 1.572391 11697996
10.387488 8.961205 0.666074 11697996
11.146474 8.890345 2.815583 11697996
11.206688 9.417036 3.276007 11697996
11.082864 9.199892 2.075061 11697996
11.176735 10.722606 3.926015 11697996
10.526478 9.697781 2.576898 11697996
10.128332 10.157219 0.323459 11697996
10.778508 10.477684 1.392324 11697996
9.504952 8.801532 1.546199 11697996
9.306152 9.955647 3.424993 11697996
10.733387 10.543659 2.074058 11697996
10.923779 8.821586 2.285500 11697996
9.036638 8.853954 3.393664 11697996
10.197788 10.755040 0.405299 11697996
11.121718 10.924804 3.465129 11697996
10.642101 10.437374 3.029999 11697996
9.336126 10.021397 3.410273 11697996
10.429302 11.091785 0.781339 11697996
10.082426 9.352214 0.856334 11697996
10.571999 10.360635 1.697789 11697996
10.040427 10.181599 3.392089 11697996
9.585845 10.021472 2.753983 11697996
10.527467 9.152061 1.165435 11697996
9.977924 9.571814 1.779198 11697996
10.760338 10.241419 1.759418 11697996
10.678959 11.071758 0.920861 11697996
11.058386 9.848445 2.066901 11697996
10.495833 10.166276 1.537387 11697996
11.047878 9.288078 3.911564 11697996
9.164896 9.697577 2.551518 11697996
10.521926 10.270701 2.308861 11697996
9.560279 10.839918 1.724061 11697996
10.509379 9.502711 3.948644 11697996
10.269669 10.314880 1.575144 11697996
9.304848 9.782969 0.310763 11697996
9.009334 10.662183 2.488892 11697996
11.043131 10.982501 3.001457 11697996
9.254468 9.513054 0.105678 11697996
9.391235 10.509325 2.589469 11697996
9.273209 10.068356 -0.005227 11697996
10.408001 9.592765 0.300236 11697996
9.910300 11.028757 1.133816 11697996
10.108217 9.883786 0.995950 11697996
9.998808 9.851381 1.788341 11697996
8.936535 9.025866 0.522649 11697996
10.216977 10.337224 3.608509 11697996
10.809532 10.466214 1.525140 11697996
9.277328 10.551094 3.006092 11697996
8.976295 9.307362 3.897926 11697996
9.274778 9.378422 3.765365 11697996
10.510913 10.334078 0.155509 11697996
11.201162 11.041894 2.757108 11697996
10.149724 10.433352 4.003483 11697996
8.999812 11.020126 2.420106 11697996
9.986917 10.603720 1.084352 11697996
10.726879 10.404634 0.983413 11697996
10.319656 9.891026 1.958482 11697996
9.252682 9.860898 3.100588 11697996
10.816624 9.968636 1.304661 11697996
11.233383 8.804564 0.140626 11697996
9.280319 9.554972 1.898216 11697996
9.447849 10.246962 3.932647 11697996
10.576888 10.929216 2.754337 11697996
9.769580 9.410229 2.257008 11697996
11.170461 10.750432 1.632105 11697996
9.098463 10.782123 0.264677 11697996
9.655157 9.697161 0.179939 11697996
9.727350 9.062804 2.246069 11697996
9.837838 11.047128 3.543590 11697996
10.673399 9.119947 3.494898 11697996
9.452435 10.140399 1.845612 11697996
9.657949 9.879343 3.440585 11697996
10.226963 9.584394 3.163155 11697996
10.895263 8.797061 0.644346 11697996
10.153495 9.787508 1.642140 11697996
9.429268 9.035807 3.387207 11697996
10.110579 10.847939 2.296866 11697996
10.153290 9.902000 3.407419 11697996
9.782286 9.063161 3.037349 11697996
11.172266 9.586497 1.203270 11697996
9.166829 9.638444 2.754935 11697996
9.113221 10.067238 1.828352 11697996
11.009397 10.265574 3.409894 11697996
9.065537 9.579437 0.197093 11697996
10.638481 9.791680 1.384082 11697996
11.021202 10.119066 0.070533 11697996
10.427131 10.185736 2.304445 11697996
10.421705 10.570067 2.583511 11697996
10.973832 9.807846 3.747635 11697996
9.426088 10.745413 3.095521 11697996
8.808883 9.791467 3.761550 11697996
10.431168 9.069970 0.434976 11697996
8.878392 9.611694 0.136718 11697996
10.927303 9.920400 1.888653 11697996
10.401423 10.346319 1.397630 11697996
9.024646 9.206123 1.520703 11697996
11.035234 8.946121 1.413993 11697996
9.225360 10.465820 1.182132 11697996
9.546068 11.028181 0.731834 11697996
10.632665 10.971713 2.859671 11697996
11.127621 10.737081 0.158355 11697996
9.109834 8.869901 0.241532 11697996
9.911191 9.994132 3.857041 11697996
10.442120 9.552765 2.706748 11697996
11.028216 10.862086 2.935272 11697996
10.000454 10.766086 0.100628 11697996
10.297706 9.039340 0.255855 11697996
10.394876 10.952547 0.964336 11697996
8.757130 9.426786 0.775134 11697996
9.307125 11.045576 1.230791 11697996
10.737247 8.997190 1.567087 11697996
9.968491 10.630153 0.410212 11697996
10.693889 9.829090 1.718685 11697996
10.239002 10.110054 3.908612 11697996
10.629321 9.406989 3.050781 11697996
10.126756 11.168141 0.283753 11697996
8.997061 9.862744 1.739329 11697996
9.602482 10.110228 3.795250 11697996
9.733307 10.808306 1.286112 11697996
11.015210 10.987316 0.425747 11697996
10.256268 9.177782 2.181239 11697996
8.761507 9.119422 1.849223 11697996
8.772789 9.233576 1.252889 11697996
8.863151 9.543177 2.050386 11697996
9.359191 10.857405 1.832755 11697996
9.034500 10.300318 2.102118 11697996
8.962893 10.656139 1.984003 11697996
9.176151 10.539383 0.350007 11697996
10.064649 11.191474 2.684557 11697996
9.306807 10.150389 3.497634 11697996
11.091272 10.565850 2.634511 11697996
10.720048 9.778722 0.674541 11697996
9.645948 9.002770 2.043140 11697996
10.361662 10.286469 3.025422 11697996
10.165546 9.219857 1.910634 11697996
11.222542 9.846154 1.984158 11697996
11.073966 9.224445 2.205324 11697996
9.938556 11.022309 1.742894 11697996
11.210793 9.489894 1.479217 11697996
9.976270 9.141543 1.382376 11697996
10.683663 10.550231 3.117966 11697996
11.104577 11.181957 3.786300 11697996
9.916751 9.197996 3.650616 11697996
11.184223 11.161625 0.622801 11697996
9.165110 9.258351 3.897972 11697996
10.831451 10.257572 2.554713 11697996
10.135991 10.167800 0.336237 11697996
9.807209 10.247910 0.586814 11697996
10.374598 8.753317 0.296102 11697996
10.452289 9.611773 2.667483 11697996
9.435567 9.164577 2.373646 11697996
8.767816 10.483830 3.933703 11697996
10.862723 10.096329 2.897268 11697996
10.573442 11.032279 3.463331 11697996
9.074755 9.726667 3.633949 11697996
8.817762 9.460630 0.876654 11697996
9.328787 10.844157 2.036031 11697996
10.156518 9.522836 2.941373 11697996
9.636874 9.841262 0.657957 11697996
11.068892 9.798247 2.093204 11697996
10.075434 10.311236 2.292295 11697996
10.765760 11.112042 1.846424 11697996
10.187501 9.663140 3.225222 11697996
8.811981 9.199313 0.242633 11697996
10.745136 9.787823 3.110660 11697996
11.213737 8.789375 0.985132 11697996
9.720932 10.493128 2.695141 11697996
10.930977 10.555419 1.862639 11697996
9.811587 10.814846 3.899009 11697996
10.674925 10.385143 0.127645 11697996
11.045956 8.984529 1.018224 11697996
10.209364 9.160880 0.976440 11697996
10.185978 11.125009 2.419123 11697996
9.483400 11.007850 0.777080 11697996
9.593502 10.605215 0.778302 11697996
9.023632 8.979862 1.464186 11697996
10.749680 9.811780 2.741977 11697996
10.464581 10.012393 2.184526 11697996
10.584222 8.846601 2.500560 11697996
9.033739 11.185224 1.103147 11697996
9.614473 10.162146 3.552734 11697996
9.635732 10.938792 2.896617 11697996
10.598868 9.153238 0.973805 11697996
8.810197 9.151297 1.159597 11697996
11.107358 10.689693 1.703051 11697996
8.926311 9.665588 3.336339 11697996
10.682547 9.121534 2.211897 11697996
10.689134 9.851611 3.878467 11697996
8.886144 9.413701 1.896413 11697996
9.980131 9.282311 1.369411 11697996
10.601707 9.910521 0.738681 11697996
9.501140 10.786654 3.131979 11697996
9.246524 9.545049 3.004265 11697996
10.192765 9.433481 2.881497 11697996
11.213406 9.838172 0.512578 11697996
10.867834 9.485560 0.490140 11697996
10.023252 11.181231 0.790699 11697996
9.618523 9.370987 0.575985 11697996
9.488514 9.590445 3.621149 11697996
9.743297 9.361483 3.492272 11697996
9.845338 9.980700 3.165146 11697996
9.217155 9.774487 2.390869 11697996
9.606973 9.301376 1.811705 11697996
8.787601 10.004308 0.769778 11697996
10.857543 10.549826 0.092897 11697996
8.913750 10.709128 0.364820 11697996
11.113333 11.203473 3.667860 11697996
10.395205 9.260892 1.184981 11697996
10.358177 8.856303 3.449280 11697996
11.144313 11.254728 3.796156 11697996
11.006562 9.788075 1.165839 11697996
11.060814 9.336384 2.883950 11697996
10.054914 10.899171 3.809810 11697996
9.993020 9.944935 2.960024 11697996
10.677512 11.044984 1.457003 11697996
9.913290 10.925324 0.919208 11697996
9.825611 9.609741 2.274459 11697996
10.760257 9.360540 3.287477 11697996
9.474529 9.711360 0.239750 11697996
10.499425 9.106524 2.424444 11697996
8.863749 9.360774 1.309414 11697996
10.547641 9.519592 3.675522 11697996
11.108271 9.082558 1.270949 11697996
10.311815 8.795274 1.676067 11697996
10.889818 10.748316 2.734198 11697996
9.630617 8.997994 1.297295 11697996
8.804635 9.670581 0.387505 11697996
8.850891 9.066334 3.174271 11697996
10.566553 10.714434 2.075995 11697996
10.461998 9.844987 1.368578 11697996
10.385281 8.959247 3.753733 11697996
10.350570 10.704185 2.328833 11697996
11.015634 8.811149 0.203097 11697996
9.018586 9.517893 2.722480 11697996
10.492476 9.745688 2.954632 11697996
10.756435 10.253129 3.111272 11697996
10.407700 8.982504 1.418933 11697996
10.121195 9.670576 2.037828 11697996
9.510159 11.054276 1.940161 11697996
9.757845 9.480447 1.377627 11697996
9.291271 10.514355 3.830393 11697996
10.879998 9.658141 0.654936 11697996
9.783660 10.558852 2.626661 11697996
8.853841 9.827650 1.581544 11697996
10.259988 10.290199 3.719310 11697996
8.752918 9.737471 1.665601 11697996
9.411304 10.162330 1.855665 11697996
9.469677 9.536439 0.042550 11697996
9.900330 10.155447 1.856796 11697996
9.482231 8.759848 2.177426 11697996
9.412244 10.138889 0.433115 11697996
9.319540 8.810684 3.965712 11697996
8.939562 10.359582 2.368236 11697996
9.609636 10.056226 1.657642 11697996
9.260254 9.890299 0.901817 11697996
10.745521 10.828506 1.364093 11697996
11.173984 9.862641 3.188531 11697996
10.537932 10.238950 1.273104 11697996
8.922224 10.615083 3.723835 11697996
10.545409 10.247691 2.730912 11697996
9.716066 9.294325 3.547035 11697996
10.969763 11.133739 0.951826 11697996
10.408232 10.666316 2.613639 11697996
10.185332 10.682192 1.192518 11697996
10.494836 9.468390 2.176267 11697996
9.877217 9.382088 0.059272 11697996
9.608156 10.692305 0.610267 11697996
10.390658 9.271534 0.265650 11697996
9.027124 10.759552 0.480466 11697996
10.402081 10.929832 1.996891 11697996
10.069696 9.035344 2.651676 11697996
10.197347 9.202113 3.792699 11697996
10.830420 9.847973 2.860852 11697996
10.348153 11.184490 1.089398 11697996
10.937493 9.070365 0.494440 11697996
11.109779 10.027955 1.417888 11697996
9.369994 10.200538 3.571259 11697996
9.050462 8.802338 1.260330 11697996
10.367126 10.542358 1.361471 11697996
8.916720 8.910585 3.260230 11697996
10.254053 9.198903 3.918087 11697996
9.125716 10.319456 2.620005 11697996
9.251434 9.795069 0.670029 11697996
9.857131 11.092779 3.362142 11697996
8.991797 10.300983 3.221276 11697996
8.825874 11.250749 2.925976 11697996
9.362820 10.295703 3.539707 11697996
11.155492 11.187546 0.529249 11697996
8.974891 9.240675 0.633026 11697996
10.247761 9.006516 3.673156 11697996
10.437336 11.077271 0.600234 11697996
8.778278 9.808076 3.661390 11697996
10.141360 10.367357 3.555926 11697996
9.592367 10.216064 1.089452 11697996
9.708470 8.805579 3.155818 11697996
10.031149 9.508287 3.136956 11697996
10.519513 9.842342 2.859417 11697996
9.356346 8.987914 1.056551 11697996
10.810813 11.042568 1.575520 11697996
9.927893 9.328901 3.092167 11697996
10.323530 9.443076 1.317003 11697996
10.399408 10.935154 3.332832 11697996
8.827271 9.667202 1.885007 11697996
9.230436 10.806884 3.024956 11697996
