# .PCD v0.7 - Point Cloud Data file format
VERSION 0.7
FIELDS x y z rgb
SIZE 4 4 4 4
TYPE F F F U
COUNT 1 1 1 1
WIDTH 1292
HEIGHT 1
VIEWPOINT 0 0 0 1 0 0 0
POINTS 1292
DATA ascii
9.578753 9.004156 2.101715 11697996
10.048519 9.807125 3.296678 11697996
9.303998 10.316338 1.516029 11697996
8.916144 11.205975 2.804847 11697996
9.713563 9.355450 1.638040 11697996
9.287474 9.569275 3.853919 11697996
9.656575 8.884109 3.207192 11697996
10.296027 10.874398 2.042598 11697996
9.841420 9.396843 0.840209 11697996
9.333255 11.132265 1.993583 11697996
10.910060 9.249116 3.343519 11697996
9.595200 9.651641 3.043947 11697996
9.317353 9.830952 1.908193 11697996
8.990825 9.399746 1.652713 11697996
8.899485 10.328403 3.505946 11697996
9.033831 9.348988 2.410595 11697996
9.320758 9.915504 3.724519 11697996
10.470867 10.916090 3.698992 11697996
10.091413 10.365607 2.938461 11697996
10.105012 10.714995 0.074269 11697996
10.552996 9.237288 2.096305 11697996
8.785622 11.193565 0.404871 11697996
9.699496 10.805224 0.023574 11697996
10.908716 9.052172 0.989427 11697996
9.337595 8.963468 1.197748 11697996
10.917892 9.040009 3.817894 11697996
10.911678 10.844028 1.199498 11697996
9.865033 9.111274 3.921676 11697996
8.819482 9.296528 3.102920 11697996
10.442060 9.272116 0.744003 11697996
10.270695 9.308045 1.153443 11697996
10.939265 9.123951 0.384412 11697996
9.086562 9.948316 1.519506 11697996
9.832488 11.163245 2.244351 11697996
10.495290 10.907001 2.288385 11697996
9.537406 10.623744 1.233356 11697996
10.232876 9.735414 3.914345 11697996
9.489690 10.171502 1.383310 11697996
9.900379 10.730632 0.399255 11697996
10.122836 9.285822 3.640634 11697996
11.044278 9.954607 1.071965 11697996
10.678683 10.121593 2.432608 11697996
9.518408 10.002317 1.741879 11697996
11.044592 9.817528 2.196418 11697996
11.236065 11.113733 1.063770 11697996
11.140074 11.077414 3.709717 11697996
11.139536 10.895050 3.041877 11697996
9.311343 9.656643 3.001565 11697996
8.849871 10.283033 2.722954 11697996
10.563963 8.965683 1.550790 11697996
11.136411 11.113413 2.247374 11697996
8.790680 10.780344 1.986469 11697996
10.431530 9.460772 1.494821 11697996
9.824521 10.211831 0.171958 11697996
8.903833 10.773755 3.825083 11697996
10.479450 9.111357 3.252042 11697996
10.965535 10.171266 3.562190 11697996
11.204666 8.881366 1.513410 11697996
10.922040 11.081513 0.755769 11697996
10.950507 9.712953 3.080716 11697996
10.549085 10.425352 3.627350 11697996
10.798194 10.254931 3.862091 11697996
9.527988 9.647035 0.616268 11697996
10.163747 10.553130 2.082798 11697996
9.985511 9.270799 0.624296 11697996
9.819106 8.925157 1.374744 11697996
8.750140 10.342740 1.033727 11697996
9.239629 11.072765 2.118069 11697996
10.457509 9.956538 1.956104 11697996
9.728024 9.821732 0.706543 11697996
9.448022 9.884787 2.386871 11697996
10.648968 9.455504 0.352122 11697996
10.546376 9.347112 1.867801 11697996
10.348828 11.152406 2.706104 11697996
10.397118 11.011432 2.439488 11697996
10.009237 10.258588 3.006604 11697996
9.676220 9.920859 1.263445 11697996
9.510025 10.642669 1.525825 11697996
9.014837 9.849906 2.696087 11697996
10.162278 9.522335 0.856658 11697996
10.833803 10.651872 1.993906 11697996
11.091773 10.593327 1.179574 11697996
10.201003 10.632634 3.694525 11697996
9.467256 9.414469 3.643714 11697996
10.453318 8.831692 2.564753 11697996
9.049594 10.179304 3.897928 11697996
10.909039 10.091254 3.916397 11697996
10.451664 10.804069 0.075004 11697996
11.039455 9.400035 3.869530 11697996
10.405037 10.271173 0.840956 11697996
11.176700 10.581908 3.722618 11697996
10.639183 9.434722 3.008406 11697996
10.753722 8.900198 3.469347 11697996
11.016385 9.810132 0.995658 11697996
9.338742 10.818746 0.580373 11697996
9.872810 9.965493 3.148362 11697996
8.978264 8.818968 3.665811 11697996
11.215053 10.312638 2.809105 11697996
9.655939 10.958492 2.401714 11697996
10.475936 9.820515 2.672785 11697996
10.253050 10.731609 2.995542 11697996
8.849017 8.824296 2.776974 11697996
10.647017 11.053646 1.913061 11697996
8.773212 9.061345 2.711035 11697996
9.292604 10.483758 2.112020 11697996
9.457698 9.035049 0.728943 11697996
9.184037 9.255426 2.191728 11697996
10.803964 9.225638 3.663682 11697996
11.154675 9.606988 0.293079 11697996
9.948000 10.393996 3.527461 11697996
9.320543 10.373894 2.240756 11697996
9.591421 9.096116 2.232394 11697996
10.658688 10.658541 0.033396 11697996
11.052985 11.163419 2.785243 11697996
10.706203 11.221630 0.059884 11697996
10.794517 9.978180 3.985042 11697996
10.196507 10.743317 3.833987 11697996
9.923985 8.778552 1.244086 11697996
10.900133 8.997236 3.179760 11697996
8.813643 9.517931 1.466281 11697996
9.985543 8.945043 1.269276 11697996
9.060212 10.316260 0.463219 11697996
10.767317 9.144720 3.309563 11697996
10.132904 9.545075 2.060047 11697996
9.679935 10.062082 3.973595 11697996
11.227094 11.176951 3.983142 11697996
9.843960 9.206024 3.468598 11697996
11.112714 9.727815 1.359385 11697996
9.093541 9.864699 2.929518 11697996
8.773882 10.480389 3.201658 11697996
10.370713 9.277452 3.392738 11697996
10.683356 9.529686 1.755049 11697996
10.415565 8.794647 1.773222 11697996
10.715632 9.874022 2.282964 11697996
8.848098 9.344604 2.953725 11697996
9.772399 10.898554 3.108021 11697996
9.531123 9.582026 3.506358 11697996
9.959379 9.792333 1.466394 11697996
8.880324 11.104660 3.002256 11697996
9.029285 10.327189 1.953634 11697996
8.771780 10.722746 0.110096 11697996
9.819027 9.308798 2.524367 11697996
11.182065 9.342804 1.289393 11697996
9.215499 9.873964 2.013133 11697996
8.977841 10.982179 0.535193 11697996
10.059963 10.006191 2.239414 11697996
9.834659 10.296573 3.066718 11697996
11.040666 10.623090 3.600098 11697996
8.817875 9.081677 2.007111 11697996
9.799411 8.912539 0.505474 11697996
10.383470 8.972568 3.376806 11697996
9.915282 10.223058 1.539643 11697996
10.275609 8.903675 1.445081 11697996
11.019687 9.211851 1.378047 11697996
10.214301 10.186552 3.204196 11697996
9.974380 9.219650 2.506222 11697996
10.460671 10.355295 1.377511 11697996
11.055305 10.917809 1.333344 11697996
9.002506 10.397459 0.716386 11697996
9.109650 10.301147 1.661486 11697996
9.029081 9.282078 0.086917 11697996
10.819665 9.171372 1.140083 11697996
10.389363 10.144774 2.231134 11697996
9.441295 10.828080 1.027135 11697996
8.931250 10.669229 1.402095 11697996
11.008820 10.735302 0.408281 11697996
9.979410 10.172303 2.600396 11697996
9.314656 10.671744 2.831368 11697996
10.851121 8.986065 3.841618 11697996
10.893303 10.070494 2.577984 11697996
9.753606 9.940796 3.937541 11697996
11.174417 11.066958 2.161543 11697996
10.468225 10.307920 1.338856 11697996
10.553854 9.293364 1.179354 11697996
10.760983 9.156290 2.779613 11697996
8.876856 10.792965 0.599667 11697996
10.340418 8.948243 2.984339 11697996
9.517657 9.879467 1.437558 11697996
9.337364 9.574966 0.389944 11697996
10.831013 10.453080 3.638805 11697996
10.621442 9.799449 3.839519 11697996
8.815469 10.870007 2.205873 11697996
9.669346 9.811978 3.001333 11697996
9.040742 8.779023 2.567168 11697996
11.099205 9.665298 1.598351 11697996
10.717008 10.860965 0.139683 11697996
9.371886 11.125827 2.702917 11697996
10.348633 10.159700 2.550837 11697996
9.552340 9.549687 2.039712 11697996
8.888988 9.983362 1.964534 11697996
9.109457 10.775564 0.863192 11697996
8.809757 10.811589 1.705281 11697996
9.756594 9.938176 2.043204 11697996
10.279117 8.992386 1.722941 11697996
9.531136 9.904409 0.549527 11697996
9.332554 9.639071 0.687667 11697996
8.803951 10.277980 3.147216 11697996
10.473285 10.260746 3.677851 11697996
10.794439 10.794448 0.033850 11697996
10.271700 10.120791 0.476320 11697996
11.026771 9.880125 1.889891 11697996
9.816804 9.279503 2.262663 11697996
10.047741 9.036980 0.095387 11697996
9.714109 10.050696 0.950223 11697996
10.591752 10.095391 1.570606 11697996
9.254680 11.118662 2.418900 11697996
9.694681 10.114802 0.743582 11697996
9.878567 10.885946 0.157439 11697996
10.418951 10.512749 2.097137 11697996
9.131524 10.006724 0.500359 11697996
8.878759 11.051234 0.832310 11697996
11.085812 9.361118 0.801459 11697996
10.148844 9.220957 2.599916 11697996
10.950883 10.828254 0.488696 11697996
10.424853 11.004596 2.147942 11697996
9.033719 10.299009 3.548855 11697996
9.417151 9.614395 0.149093 11697996
11.103632 8.995996 3.004203 11697996
11.144292 8.973475 3.895569 11697996
8.869800 10.507690 0.420727 11697996
8.869802 9.483928 0.718704 11697996
10.287889 11.117470 2.991644 11697996
8.764585 10.206335 0.874478 11697996
8.785718 8.794822 3.781614 11697996
11.232326 10.561668 2.096649 11697996
10.375010 9.027715 3.191786 11697996
9.319602 9.218858 0.510938 11697996
10.954238 9.708965 3.342233 11697996
10.646060 10.425891 0.409462 11697996
9.790722 8.958326 3.749942 11697996
9.316994 9.403246 2.404542 11697996
9.107165 9.250739 3.889883 11697996
9.810834 9.765011 2.002831 11697996
10.491124 10.537833 0.022020 11697996
9.505367 10.873467 1.275416 11697996
10.324540 10.416084 2.585699 11697996
11.022165 10.962586 0.637873 11697996
9.207466 9.462799 1.088742 11697996
9.573669 9.300258 2.836576 11697996
9.675881 10.374910 1.409655 11697996
10.081457 10.905846 3.157454 11697996
11.164109 9.783482 0.024670 11697996
9.490527 9.580439 0.953601 11697996
8.935765 10.674216 1.231952 11697996
9.093931 9.070379 3.671722 11697996
10.829282 9.789735 2.397648 11697996
11.208952 8.919015 3.996137 11697996
9.973503 10.819517 1.832307 11697996
8.924617 9.028678 0.979393 11697996
9.680196 10.165960 1.012333 11697996
10.329181 9.570463 1.546435 11697996
10.826453 10.392347 1.358535 11697996
10.251174 9.376589 3.966445 11697996
10.112799 9.564513 3.278225 11697996
9.001766 10.386169 0.936244 11697996
9.900471 9.239218 3.755817 11697996
11.147195 8.960236 2.090271 11697996
10.801759 10.792116 0.393544 11697996
9.190486 10.337337 0.851115 11697996
9.344665 11.125926 3.158311 11697996
9.782589 9.022511 0.181135 11697996
10.013313 9.657821 0.425354 11697996
8.854330 10.058697 2.487839 11697996
9.956406 11.066411 0.869971 11697996
10.426615 10.000875 0.062560 11697996
10.312584 9.612417 3.001144 11697996
10.041394 9.221004 3.342101 11697996
10.328213 9.829622 3.837637 11697996
9.321443 11.116094 1.614745 11697996
9.078329 10.501271 1.421465 11697996
8.863202 9.953992 2.241611 11697996
9.816280 10.280892 2.345488 11697996
10.835031 10.577978 1.368978 11697996
10.964804 9.908406 3.700155 11697996
10.290829 10.043547 2.666208 11697996
8.876569 9.632599 2.003050 11697996
10.927691 10.740643 1.448530 11697996
10.830745 8.869047 2.987362 11697996
9.054281 10.250927 3.187773 11697996
10.805414 8.924720 1.601290 11697996
9.222450 10.929341 0.505124 11697996
10.801324 9.938522 0.044017 11697996
10.712932 10.353980 3.572289 11697996
10.853826 10.975829 2.313577 11697996
10.029340 9.543360 3.330436 11697996
10.958338 10.248728 0.238363 11697996
8.902227 9.320126 2.662340 11697996
9.428621 8.822988 2.970844 11697996
9.399474 10.122140 1.910409 11697996
10.772018 10.829019 3.207794 11697996
8.970533 8.906733 0.457599 11697996
10.850138 10.644300 3.093402 11697996
9.932316 10.089356 3.262686 11697996
11.189551 10.639091 2.862094 11697996
11.066099 10.066713 1.992270 11697996
9.202846 9.998266 2.810155 11697996
10.617332 10.762736 3.200220 11697996
9.362340 10.752325 1.773568 11697996
11.181396 9.429906 3.544555 11697996
10.994695 9.591255 1.002193 11697996
8.907196 11.027646 0.425317 11697996
8.834892 10.897615 0.132812 11697996
10.197327 9.991018 1.329932 11697996
10.636571 10.270151 1.485842 11697996
8.954056 9.955916 3.800414 11697996
10.442917 10.599002 1.812585 11697996
9.628302 11.167916 2.695984 11697996
10.898727 9.660995 3.137076 11697996
8.836672 10.927119 3.919158 11697996
10.880837 10.403071 1.869545 11697996
10.719820 9.717221 1.135233 11697996
9.792312 9.404460 0.400956 11697996
10.098200 10.079126 2.742262 11697996
9.752640 11.186721 0.725904 11697996
8.984319 10.058839 3.951226 11697996
10.488647 9.832687 3.104041 11697996
9.385525 9.756172 0.691295 11697996
8.938693 11.150594 3.031224 11697996
9.267918 9.056368 3.708911 11697996
11.106442 9.022306 2.108322 11697996
11.225619 10.809081 0.951308 11697996
10.824718 10.592834 3.693037 11697996
9.101269 9.646972 3.951631 11697996
10.744452 10.612359 2.204375 11697996
10.639625 10.545238 0.445401 11697996
9.213778 9.027946 1.673753 11697996
9.292985 9.931818 3.791600 11697996
8.880477 9.644702 1.805709 11697996
10.683837 8.958048 1.608212 11697996
10.674052 10.500616 2.373725 11697996
10.650383 9.814131 1.863931 11697996
10.877313 10.102414 3.998906 11697996
9.024179 9.454698 2.768058 11697996
10.452116 9.701265 3.165554 11697996
10.796276 9.019017 2.164871 11697996
9.106945 10.788603 0.114529 11697996
9.284320 11.072404 3.210245 11697996
9.886930 10.933724 0.812262 11697996
10.891924 10.755962 0.820600 11697996
9.210269 9.479461 1.047103 11697996
10.447602 9.668283 3.625699 11697996
10.877392 11.184878 0.760682 11697996
9.214497 11.121824 2.176520 11697996
9.611305 10.659537 1.764845 11697996
10.099903 9.875027 3.944797 11697996
9.384723 10.951171 2.728807 11697996
10.822348 10.506682 3.201967 11697996
10.831509 10.893074 3.066849 11697996
9.745062 10.533113 1.324827 11697996
10.849908 9.319343 1.160928 11697996
9.961914 9.333048 0.549996 11697996
9.012216 9.591726 1.071089 11697996
9.141788 9.162385 0.239323 11697996
9.324385 10.280480 3.838463 11697996
9.722142 8.916826 0.437828 11697996
9.201135 8.748765 2.289311 11697996
10.895082 9.165021 2.984678 11697996
8.904882 9.669034 3.889750 11697996
9.562939 10.134609 3.702591 11697996
11.084610 9.193007 0.897694 11697996
10.744707 9.492202 1.227139 11697996
9.869201 9.597151 1.574024 11697996
8.786412 11.144145 2.161006 11697996
11.147388 10.233388 2.345450 11697996
11.202237 9.598707 1.174750 11697996
11.213689 9.769964 0.737098 11697996
9.112520 9.809926 2.504628 11697996
9.145868 10.323215 3.220168 11697996
9.527715 9.407176 2.869422 11697996
8.822008 9.563328 3.749150 11697996
10.180721 10.847487 2.590639 11697996
10.609551 10.303614 3.806915 11697996
10.033147 10.116575 3.877703 11697996
8.835770 8.884733 1.727730 11697996
10.203492 8.960561 0.256617 11697996
9.125672 10.960761 0.806236 11697996
8.804261 8.903734 3.099668 11697996
9.900763 8.923355 3.133972 11697996
11.161762 10.957065 2.210304 11697996
9.270206 8.779049 0.914623 11697996
8.997038 9.069700 1.595496 11697996
9.299943 10.227571 1.347110 11697996
10.457545 8.793359 3.265986 11697996
10.715328 9.806638 3.717094 11697996
9.608248 9.721812 0.399665 11697996
9.379451 8.813740 3.324905 11697996
10.682528 9.539944 2.435963 11697996
10.140378 9.506966 3.971246 11697996
9.613603 9.847531 1.669569 11697996
9.790807 10.156366 3.042730 11697996
10.017337 9.408150 1.866132 11697996
10.730489 10.934347 1.422387 11697996
9.941429 8.849385 1.495732 11697996
9.204071 10.410480 1.914282 11697996
9.166196 11.063167 2.059021 11697996
9.979573 9.809598 3.647459 11697996
11.041759 10.095446 0.175129 11697996
9.344109 10.986960 1.386050 11697996
9.881604 10.181962 3.392510 11697996
11.252659 10.682109 0.211563 11697996
10.027770 9.618269 1.256795 11697996
10.912258 9.403018 2.353437 11697996
10.603893 8.783335 1.629738 11697996
8.891045 10.788757 2.348938 11697996
9.070786 9.437082 1.770032 11697996
9.212467 8.866163 3.767053 11697996
9.801277 9.079745 1.087039 11697996
9.582092 8.823665 3.059150 11697996
10.577167 8.756031 2.821136 11697996
11.199151 9.416025 0.287519 11697996
11.226092 9.886222 2.903846 11697996
10.167815 11.192549 0.629261 11697996
10.022591 10.783251 2.013464 11697996
9.762930 10.500531 1.116950 11697996
10.712956 9.834246 2.494417 11697996
10.758375 8.860341 1.741753 11697996
10.686669 9.186193 0.587889 11697996
10.436663 10.769051 0.641713 11697996
8.771408 9.239608 3.437150 11697996
9.942177 10.390320 0.988460 11697996
10.026282 10.802781 1.657445 11697996
8.860518 10.260701 3.874522 11697996
9.419122 10.012012 1.592139 11697996
10.854486 9.820072 1.609071 11697996
8.801620 8.906849 1.073790 11697996
9.406815 11.091712 1.671050 11697996
10.892358 9.490262 1.657387 11697996
8.806218 11.189689 2.948488 11697996
8.886554 10.069927 0.915448 11697996
10.607645 10.723346 0.831224 11697996
9.070747 8.832808 2.595159 11697996
10.044818 9.541683 2.602217 11697996
8.839569 10.095411 3.325344 11697996
10.596983 9.505422 2.483914 11697996
8.913024 9.843402 0.543913 11697996
9.585552 10.168042 3.948763 11697996
8.804068 9.918140 1.308945 11697996
9.193683 10.302139 3.125827 11697996
11.221200 11.048893 0.857902 11697996
9.769384 9.886010 0.348105 11697996
9.631155 9.894619 0.269279 11697996
10.997602 9.947846 1.371498 11697996
9.240232 11.156081 0.628647 11697996
11.058170 11.145713 2.976913 11697996
11.052754 10.677899 1.323585 11697996
10.468233 10.504363 0.224764 11697996
10.037065 11.178181 1.502299 11697996
10.534008 10.229503 3.823491 11697996
9.415602 10.502959 0.581629 11697996
10.614882 9.389317 3.123787 11697996
10.207774 10.700795 0.783511 11697996
8.810344 10.040325 1.695319 11697996
11.123662 9.711055 1.508753 11697996
8.969475 9.305729 3.447972 11697996
10.303854 8.830034 3.585601 11697996
10.452785 8.840933 3.949586 11697996
9.284989 9.120555 2.106588 11697996
10.449747 10.800138 0.628818 11697996
10.683743 9.744801 0.433963 11697996
10.624717 9.852369 1.902465 11697996
9.393504 9.779756 3.633115 11697996
8.913887 9.151688 2.846181 11697996
10.330074 9.196536 2.855391 11697996
10.077137 11.030724 3.060898 11697996
10.366271 10.564483 3.488870 11697996
10.079204 10.079125 0.870620 11697996
9.949038 9.583575 0.421105 11697996
9.500933 10.979136 1.489243 11697996
10.126347 8.889545 1.126514 11697996
10.107298 11.152089 2.645807 11697996
10.118579 9.375893 2.242066 11697996
9.041986 8.857173 0.250408 11697996
9.241133 9.253463 2.071189 11697996
9.314445 10.882644 0.837263 11697996
11.168521 9.675117 1.987790 11697996
10.509861 11.231708 1.958437 11697996
9.173396 11.044727 0.595871 11697996
8.805356 11.266501 0.087295 11697996
9.429077 10.105538 0.739270 11697996
10.628016 10.563495 2.648288 11697996
10.781385 10.354303 1.047573 11697996
9.581326 11.003366 1.487768 11697996
9.018759 9.032418 1.571299 11697996
9.707086 10.990337 1.286695 11697996
9.755931 9.076505 0.592921 11697996
9.220045 8.986349 2.008386 11697996
10.921554 10.376257 0.054341 11697996
10.604659 9.264887 1.793142 11697996
10.028131 9.935863 1.112407 11697996
10.278900 10.504271 3.125506 11697996
9.948242 10.976154 0.350252 11697996
9.093031 10.534578 3.442554 11697996
9.626233 11.200511 3.395859 11697996
9.014566 10.565215 0.491056 11697996
10.123492 8.868114 3.261126 11697996
10.756643 10.319346 0.751967 11697996
10.119405 8.885273 2.459471 11697996
11.272619 9.074321 0.475192 11697996
9.531351 9.217031 0.615874 11697996
11.219574 8.994150 3.274154 11697996
9.171912 9.745116 0.778718 11697996
9.347452 9.235675 4.004600 11697996
10.506335 9.262283 2.571194 11697996
9.824802 9.387282 1.024501 11697996
10.033113 11.216538 2.950199 11697996
11.106741 10.375375 0.282239 11697996
10.794692 9.258363 1.032639 11697996
10.614711 10.680678 3.143306 11697996
10.566552 10.916016 1.443123 11697996
9.955646 9.038960 0.780973 11697996
10.713829 9.766087 0.181816 11697996
9.034753 9.993362 0.454764 11697996
10.801640 9.652640 1.378253 11697996
10.610291 11.245342 3.949131 11697996
10.656544 9.628968 3.783950 11697996
11.153114 9.923560 2.965606 11697996
11.088683 9.977897 3.052412 11697996
8.816130 10.889137 2.787711 11697996
11.029190 9.832955 2.757648 11697996
9.282320 9.757318 3.415438 11697996
9.308163 9.004637 3.436069 11697996
9.861513 10.724289 2.528841 11697996
10.937419 9.190993 0.184286 11697996
10.736421 10.482414 1.289161 11697996
9.898447 10.671278 2.390596 11697996
9.129867 10.400704 1.766238 11697996
10.219419 9.321369 2.224752 11697996
11.059604 10.173938 0.187072 11697996
10.051010 11.168926 2.966982 11697996
10.619379 11.013825 3.832853 11697996
9.744737 8.799636 1.533174 11697996
9.590288 9.482588 1.405413 11697996
10.697151 10.740616 1.629847 11697996
9.618314 10.481983 2.731522 11697996
10.256508 11.228050 0.268272 11697996
9.608642 8.835346 3.313611 11697996
9.525912 10.285708 3.172363 11697996
10.357942 9.096674 3.345347 11697996
9.382234 10.329780 2.959331 11697996
9.625843 10.642943 1.752950 11697996
9.076089 10.773676 2.157742 11697996
10.795305 10.493533 0.907634 11697996
10.825527 10.922632 3.706199 11697996
10.685495 10.966204 1.675319 11697996
11.176743 9.279793 3.282012 11697996
9.854184 11.244461 1.769560 11697996
8.806505 8.798153 2.460506 11697996
9.153181 10.100898 3.114206 11697996
10.555491 10.072524 0.196838 11697996
8.862823 10.209404 3.403377 11697996
10.297602 9.534705 0.834897 11697996
10.245511 8.981622 1.419853 11697996
9.608878 8.913846 3.606957 11697996
9.755979 9.790207 1.574254 11697996
10.852748 9.948081 3.065034 11697996
10.690917 10.322704 3.289940 11697996
10.810035 10.484112 0.652601 11697996
10.771801 10.237131 3.869533 11697996
11.078713 9.515287 1.661943 11697996
9.504059 10.799628 2.604604 11697996
10.235987 8.775315 3.127094 11697996
11.169372 9.474700 2.675231 11697996
10.346428 10.072295 2.077674 11697996
10.346381 10.027165 0.985256 11697996
8.842782 10.993259 3.439711 11697996
10.650191 9.906034 1.764902 11697996
9.491764 10.004663 2.138746 11697996
10.132083 10.711987 3.246538 11697996
9.293347 10.450409 1.887436 11697996
9.259331 9.705606 2.752983 11697996
9.767175 9.140661 3.534568 11697996
9.609283 11.048724 2.027881 11697996
10.597219 8.897384 1.306727 11697996
8.947810 11.158321 0.037220 11697996
11.027823 10.398450 2.089403 11697996
8.901466 11.193372 0.017281 11697996
9.275361 11.126845 1.595384 11697996
10.143626 9.168498 1.454155 11697996
9.190737 10.598288 0.533549 11697996
10.795766 10.970327 3.767041 11697996
10.156650 9.784528 2.642353 11697996
10.966949 10.475569 2.336425 11697996
11.169504 9.902745 2.136206 11697996
9.965030 10.237617 2.208752 11697996
10.020379 10.197417 2.036021 11697996
8.893353 9.543990 0.947992 11697996
10.411315 11.032931 2.166278 11697996
11.015162 10.933525 1.675705 11697996
9.948167 8.851587 0.523759 11697996
9.328099 10.414086 3.311136 11697996
11.157557 9.211843 3.209690 11697996
11.132225 10.628755 2.381946 11697996
10.881429 11.174739 1.187831 11697996
10.727135 9.572224 2.736727 11697996
9.998406 10.809689 1.075036 11697996
11.064113 10.034313 1.265823 11697996
8.990399 10.050943 2.577729 11697996
10.088641 10.427884 0.446259 11697996
10.820145 9.916017 3.405591 11697996
9.849588 10.399703 3.052905 11697996
10.098576 11.153706 1.615454 11697996
9.578439 9.935359 1.525706 11697996
10.338459 10.204803 3.221920 11697996
10.920207 10.688025 3.142216 11697996
10.721267 10.702209 0.874005 11697996
10.704672 10.087347 1.576221 11697996
9.698236 10.689683 3.997154 11697996
10.834595 9.583963 1.414418 11697996
9.056366 10.124141 3.909642 11697996
9.168044 9.606846 0.245364 11697996
10.968376 10.923667 1.636272 11697996
10.159769 10.246886 2.314424 11697996
9.543990 10.926674 1.795515 11697996
10.165704 10.716980 0.195853 11697996
10.873386 8.862688 0.763657 11697996
9.094348 10.852846 0.707942 11697996
10.992887 10.974485 0.521212 11697996
10.029706 10.178071 3.175258 11697996
10.406078 9.966181 0.189834 11697996
10.242869 8.960281 1.605427 11697996
9.292192 8.902806 1.482820 11697996
8.944014 10.329888 3.080495 11697996
10.481804 9.350760 1.516190 11697996
9.157395 9.347087 3.744224 11697996
9.481561 9.223916 0.580551 11697996
10.327320 11.079967 1.204533 11697996
10.494996 9.173822 1.488741 11697996
11.133665 10.378116 1.866352 11697996
10.613298 8.989764 3.694978 11697996
10.921748 10.815779 0.813098 11697996
10.860266 9.173098 1.483031 11697996
9.573606 11.152519 1.852247 11697996
8.931005 10.216857 1.793829 11697996
11.239755 10.150356 0.229065 11697996
10.020267 10.989337 3.618218 11697996
10.625840 10.313918 0.236894 11697996
8.850526 10.521906 0.613523 11697996
8.991918 8.863955 1.474496 11697996
10.912042 9.434167 0.171259 11697996
10.406623 9.474262 3.730938 11697996
10.223675 10.447962 0.746800 11697996
10.386488 10.761643 0.155218 11697996
10.799287 9.161671 1.190980 11697996
10.932766 9.807627 3.748546 11697996
10.440097 9.578266 1.597771 11697996
8.840930 8.962659 0.564398 11697996
10.164003 10.265780 3.680032 11697996
9.231534 11.012973 0.646889 11697996
10.772307 8.776411 0.557873 11697996
8.984582 10.708057 2.553154 11697996
10.708694 9.486062 3.135747 11697996
9.550177 9.756550 0.861969 11697996
10.988235 11.204622 2.351832 11697996
9.615040 10.509042 2.857531 11697996
9.653037 11.111122 1.293982 11697996
9.815685 11.140389 2.734749 11697996
10.376389 10.267363 3.038422 11697996
10.424446 10.656174 3.534425 11697996
10.903553 10.686753 1.434000 11697996
9.116893 10.903958 2.655296 11697996
10.863078 9.655020 0.363114 11697996
10.985357 10.493334 3.101321 11697996
8.804845 9.079311 3.996188 11697996
9.474959 9.410789 2.501119 11697996
10.732310 10.223030 2.524891 11697996
8.827147 9.444814 0.682814 11697996
10.259859 9.241702 3.746603 11697996
10.152506 9.137798 2.603212 11697996
10.312481 11.044340 2.569089 11697996
9.100518 9.495620 1.943216 11697996
10.053194 9.396258 2.234945 11697996
9.194234 9.382483 0.654140 11697996
11.026449 9.596536 3.941904 11697996
10.269290 10.733829 1.848289 11697996
11.015408 9.983661 2.413735 11697996
10.293417 10.932165 1.732532 11697996
9.656659 9.751505 3.329833 11697996
10.563779 8.886631 1.954191 11697996
9.287226 10.717669 1.531631 11697996
9.361409 9.267608 2.063001 11697996
9.125328 9.114745 3.277552 11697996
9.347800 10.481696 2.034144 11697996
11.090747 9.026728 2.319647 11697996
11.152033 9.861539 2.418815 11697996
9.321033 11.188836 2.946594 11697996
9.618600 11.211262 1.197140 11697996
9.079760 9.521675 3.241616 11697996
11.155002 8.923885 1.387495 11697996
10.209332 9.964186 1.681268 11697996
10.089670 10.470219 2.666566 11697996
9.342758 9.145815 0.745483 11697996
9.980053 9.418193 0.388926 11697996
9.108613 8.917319 1.382527 11697996
8.830359 10.325509 2.390348 11697996
9.777546 8.998298 2.961535 11697996
10.149786 11.007577 0.882306 11697996
11.011938 9.233307 4.000628 11697996
10.817642 9.005899 1.251781 11697996
9.660671 9.957641 2.831944 11697996
10.110318 9.340953 2.823624 11697996
10.078650 11.138662 3.098480 11697996
11.000711 10.846838 3.182815 11697996
9.416885 10.941252 0.989519 11697996
9.548899 10.779373 1.061227 11697996
8.763768 9.311066 0.101411 11697996
10.521318 10.779965 2.030354 11697996
10.479581 10.666318 2.474312 11697996
10.177905 9.089006 2.938552 11697996
10.345389 9.630096 3.709649 11697996
9.152051 10.723223 3.704176 11697996
9.715933 10.865332 2.592038 11697996
10.972258 9.885018 0.447356 11697996
10.581047 10.801703 3.364606 11697996
10.746535 10.273247 2.123839 11697996
10.351129 10.426334 0.329044 11697996
11.001863 10.437682 2.664415 11697996
9.698195 9.630737 2.620120 11697996
11.135636 10.935901 1.319539 11697996
9.368107 9.490616 3.149660 11697996
10.914248 8.951835 3.560241 11697996
11.216908 9.830857 1.952408 11697996
10.439519 10.344651 2.628412 11697996
9.664738 9.123658 0.441721 11697996
11.243800 10.375406 0.281300 11697996
9.948043 9.262085 0.973423 11697996
10.422002 10.363470 2.403701 11697996
10.817481 8.783289 1.181431 11697996
9.989361 9.048662 0.556201 11697996
9.677732 11.196666 0.823650 11697996
10.117781 9.168401 1.193659 11697996
8.887695 9.499410 1.537151 11697996
9.732517 8.896858 1.719535 11697996
9.837021 9.868610 1.055889 11697996
10.085427 10.845758 3.371939 11697996
10.297663 8.956122 1.124305 11697996
9.047229 10.178577 1.311646 11697996
11.099945 8.851942 2.025406 11697996
11.089455 9.347697 2.219269 11697996
11.056335 9.167747 3.996595 11697996
8.901734 10.431938 2.287283 11697996
8.893749 10.432878 0.479033 11697996
9.064150 11.085295 3.757006 11697996
9.185057 9.690088 0.808417 11697996
9.187496 10.784893 1.393688 11697996
9.368469 10.756002 1.352528 11697996
10.979318 10.253222 1.993828 11697996
10.398941 10.532714 2.536978 11697996
8.851622 10.245157 3.279094 11697996
9.442647 10.212801 3.578139 11697996
9.067058 10.903635 3.164840 11697996
11.157284 10.320401 0.722655 11697996
9.421998 9.043330 2.454375 11697996
9.175343 10.047805 1.071641 11697996
11.087460 9.476904 2.051405 11697996
10.792812 9.512206 0.279262 11697996
9.791662 10.372434 1.847795 11697996
10.255151 10.091138 1.208134 11697996
8.740017 10.431351 3.056988 11697996
10.304716 9.243126 1.386623 11697996
9.772186 9.265931 0.008688 11697996
9.258529 9.958328 2.842933 11697996
10.552134 9.561662 0.893019 11697996
10.207990 10.171581 3.550552 11697996
8.944109 11.074604 1.897979 11697996
11.035735 9.192899 1.339921 11697996
9.213266 9.800619 2.968403 11697996
8.923077 9.079985 2.155468 11697996
9.418776 10.242928 1.056300 11697996
11.069631 9.626873 3.468883 11697996
9.615520 10.091917 1.948848 11697996
10.600177 11.194098 0.069436 11697996
9.637210 9.647101 1.378737 11697996
10.780856 8.937631 3.623384 11697996
9.628675 10.416078 0.289022 11697996
10.777838 10.034059 2.901836 11697996
9.119428 10.078466 3.794055 11697996
8.980598 10.798120 3.473027 11697996
10.681970 8.892119 1.517112 11697996
9.117021 10.552950 2.755112 11697996
9.981067 10.025980 3.969351 11697996
10.168447 10.895632 2.337784 11697996
9.847042 10.140430 0.325189 11697996
8.887674 8.939651 2.141421 11697996
10.235080 9.804691 3.830584 11697996
10.641622 11.211218 2.248138 11697996
9.291175 10.112101 3.176800 11697996
9.864478 9.920361 2.621117 11697996
8.894519 10.257450 0.199002 11697996
10.784185 10.466712 1.947105 11697996
10.152985 9.681619 3.334937 11697996
10.959366 10.203728 3.401605 11697996
8.962273 9.207401 3.950646 11697996
9.300194 10.812926 3.339090 11697996
10.322271 10.734450 0.996115 11697996
10.769735 9.903597 2.247895 11697996
10.497781 8.786138 3.495627 11697996
10.809044 8.927029 0.874362 11697996
9.379814 10.223270 2.552969 11697996
9.096455 10.846562 1.120039 11697996
10.375690 8.829414 3.276341 11697996
9.685820 10.781066 2.918860 11697996
9.905028 10.537777 1.168356 11697996
11.119974 10.985583 1.442645 11697996
9.566277 8.839492 3.894862 11697996
10.761088 9.860060 2.276886 11697996
8.765891 9.344614 1.182353 11697996
10.845552 11.113976 3.761522 11697996
10.693608 10.958357 2.506553 11697996
9.538987 9.755972 1.186802 11697996
10.178351 9.267903 1.989273 11697996
9.773767 10.028398 2.723056 11697996
10.018665 9.700863 0.819477 11697996
10.312731 11.223544 1.876642 11697996
10.654279 9.159546 0.201844 11697996
9.535854 10.719153 1.230951 11697996
11.170586 11.037813 2.545319 11697996
10.501090 9.721156 2.100397 11697996
9.013855 10.381429 3.876108 11697996
9.196589 10.596521 0.123818 11697996
10.283502 10.026191 3.660675 11697996
10.737523 10.638131 3.114978 11697996
9.572227 11.217965 3.628690 11697996
9.395528 9.224956 2.986747 11697996
10.014376 9.278303 1.177466 11697996
9.164433 8.982279 0.821847 11697996
10.392384 9.624969 3.104493 11697996
10.574186 11.073065 2.267174 11697996
10.190462 8.927708 0.534470 11697996
10.732721 10.092493 3.479719 11697996
9.094781 10.946616 2.213863 11697996
11.026403 10.109003 1.552732 11697996
10.644094 10.407537 0.578993 11697996
8.842164 10.820517 2.834960 11697996
8.803983 10.472456 0.229607 11697996
9.361945 10.180693 3.527240 11697996
9.063394 9.297072 2.116004 11697996
9.670184 9.778657 2.092809 11697996
10.353338 10.035461 1.877676 11697996
9.203381 9.325159 2.339398 11697996
9.506388 10.894172 3.369492 11697996
10.053833 9.988805 3.351243 11697996
10.654246 8.825827 0.833154 11697996
9.177876 11.239359 3.900497 11697996
9.415904 9.913635 0.974655 11697996
8.880988 11.195152 2.721203 11697996
10.117451 9.597093 3.404830 11697996
11.232842 10.317945 0.209584 11697996
9.318927 9.005566 2.725842 11697996
8.949429 9.324645 1.303168 11697996
9.014087 9.764893 1.652092 11697996
8.886472 9.683680 2.166938 11697996
11.051659 11.071567 3.619627 11697996
10.399914 9.876244 3.026817 11697996
8.777056 9.749094 3.519002 11697996
10.286187 9.626106 0.347347 11697996
10.443274 10.571306 1.888629 11697996
10.769521 9.651304 0.115512 11697996
11.128045 8.941708 4.007905 11697996
10.554523 10.436936 2.032983 11697996
10.212241 10.200751 0.726675 11697996
10.010820 9.162269 1.464466 11697996
11.141438 9.273275 2.190340 11697996
9.079038 11.173471 0.901724 11697996
9.010241 9.458629 3.346978 11697996
10.496378 9.966614 2.753716 11697996
8.766471 11.207487 1.162228 11697996
10.563555 9.797042 3.097096 11697996
9.128525 10.667895 3.374047 11697996
9.129602 10.171556 3.974978 11697996
10.940162 10.286777 1.920469 11697996
10.909934 9.687180 1.021967 11697996
9.369331 8.938803 3.849893 11697996
8.772377 9.831803 2.471129 11697996
10.256544 10.460567 1.860518 11697996
11.099261 10.900387 3.549510 11697996
8.860067 9.445824 3.901367 11697996
9.920684 9.105465 3.425390 11697996
9.996710 9.616407 2.137447 11697996
8.908072 9.996788 2.461738 11697996
9.648790 9.897528 3.706626 11697996
9.918324 10.906213 2.614662 11697996
10.934642 11.138703 0.845033 11697996
9.352753 9.079183 0.080361 11697996
9.696180 10.843710 0.132031 11697996
10.169898 10.334104 3.556979 11697996
10.925866 9.056065 0.928513 11697996
9.296983 11.025508 1.731536 11697996
10.139985 9.233989 2.194879 11697996
8.805597 10.014660 0.767359 11697996
9.750365 9.878002 3.952905 11697996
9.945354 11.195942 2.388089 11697996
9.334308 10.914902 2.943634 11697996
10.669558 9.627256 2.207374 11697996
10.912907 9.047699 2.762547 11697996
10.893822 10.873362 1.782758 11697996
11.251101 9.863553 2.245315 11697996
9.657828 9.317775 2.500988 11697996
9.289757 8.858977 2.935363 11697996
11.005708 8.989399 2.681094 11697996
9.880810 8.815523 0.601297 11697996
9.797225 9.049394 3.550817 11697996
10.945820 9.782463 0.836310 11697996
11.131993 9.028696 3.657477 11697996
10.440948 9.190986 2.272857 11697996
10.761702 10.428930 1.368254 11697996
9.366880 10.578541 0.141411 11697996
9.370556 10.715421 2.719165 11697996
9.550607 9.303985 3.947887 11697996
9.037137 10.950909 2.214878 11697996
9.767550 9.958163 0.555746 11697996
10.514870 10.125066 1.797298 11697996
11.195434 11.024158 0.316667 11697996
8.936440 10.469877 2.814807 11697996
10.413712 10.075996 1.555283 11697996
10.596761 10.360389 0.759948 11697996
10.579022 9.693022 3.556419 11697996
11.042448 8.864793 0.304553 11697996
11.012532 11.204808 0.016670 11697996
10.705992 9.756063 3.541790 11697996
9.676755 10.806046 3.342254 11697996
9.552683 9.440215 2.226602 11697996
10.537758 9.580553 1.572029 11697996
11.012851 9.450805 1.951091 11697996
10.399941 10.008212 0.545221 11697996
9.793789 11.184540 2.368538 11697996
11.104281 8.873513 2.338428 11697996
10.970784 9.647473 2.519618 11697996
9.734549 10.900598 2.636543 11697996
9.146988 10.350096 0.871616 11697996
9.320964 8.819131 2.174164 11697996
11.027081 9.848386 3.050231 11697996
9.441423 10.883036 1.279237 11697996
10.256010 9.269095 1.485909 11697996
9.630051 10.438727 1.978055 11697996
9.712877 9.172204 2.228346 11697996
9.201891 9.155029 0.675927 11697996
10.520759 11.082295 3.460920 11697996
9.889934 9.794873 2.142943 11697996
10.177479 9.161320 3.313657 11697996
10.425467 10.106069 1.535669 11697996
9.227018 10.863424 1.160256 11697996
9.636780 10.232773 3.959452 11697996
9.765522 8.975285 3.520459 11697996
8.959390 9.537509 0.273196 11697996
10.637300 10.420739 0.131268 11697996
9.356836 10.481571 1.883397 11697996
10.518609 8.990048 2.443769 11697996
10.433094 10.339446 0.621919 11697996
9.930819 10.067602 3.666305 11697996
9.750152 9.733669 0.612732 11697996
11.198226 10.467614 2.812233 11697996
9.680046 10.639449 1.968307 11697996
9.144865 10.837632 3.751323 11697996
9.258860 11.058887 1.249205 11697996
11.103021 11.122148 3.830667 11697996
10.384291 10.202189 2.366198 11697996
9.870557 10.098585 3.640923 11697996
9.099242 9.118937 1.808129 11697996
9.544885 9.951940 3.304704 11697996
10.944860 9.321760 0.135621 11697996
11.092616 9.173594 0.663147 11697996
9.760814 11.120515 2.553664 11697996
11.000436 9.316104 1.464310 11697996
9.270374 9.872097 2.547236 11697996
11.176085 11.115595 0.871966 11697996
11.225064 10.573799 1.834598 11697996
10.364293 8.844757 3.736724 11697996
9.298951 9.736465 3.155154 11697996
10.314072 9.020534 0.885631 11697996
9.576019 9.443419 0.043744 11697996
10.050540 8.880742 3.186082 11697996
10.786748 10.410068 3.045914 11697996
8.743739 9.094300 3.492457 11697996
10.000723 9.600281 1.109521 11697996
10.343283 9.411724 2.315688 11697996
11.107832 9.616557 3.420873 11697996
9.857941 11.183517 3.239417 11697996
11.004732 10.555201 2.645869 11697996
10.672898 10.416717 0.642121 11697996
9.011682 9.091844 2.269805 11697996
10.161573 9.512250 3.792339 11697996
10.815539 10.720628 0.719308 11697996
11.235807 8.799864 0.939368 11697996
9.315797 9.581777 3.749603 11697996
11.232469 10.205595 1.575489 11697996
10.936490 9.415619 1.690034 11697996
11.025976 10.208101 2.419806 11697996
8.879181 10.775662 1.236760 11697996
9.625860 9.836493 0.344542 11697996
10.323304 8.973168 3.246119 11697996
9.547873 8.830668 1.285137 11697996
11.011366 9.112230 1.189633 11697996
10.337091 8.837543 0.429179 11697996
9.879269 9.664599 2.827596 11697996
10.835876 9.758890 3.951182 11697996
9.046602 9.302750 3.382758 11697996
10.054045 10.867804 0.746046 11697996
10.139688 8.789767 3.090391 11697996
10.851279 9.287280 3.617020 11697996
9.495560 9.776343 3.440928 11697996
9.492785 8.959438 3.447057 11697996
10.145922 9.193816 1.304386 11697996
10.559308 9.043719 1.770048 11697996
9.833709 10.897119 3.619640 11697996
11.098252 9.669502 3.538098 11697996
9.757903 10.926047 3.266185 11697996
10.073927 9.526319 0.545446 11697996
9.228621 9.287773 2.884594 11697996
10.497645 8.960803 3.156600 11697996
9.867087 9.581050 0.419131 11697996
8.778037 10.849840 3.315794 11697996
10.320010 9.631967 0.697846 11697996
10.521659 10.899158 1.650831 11697996
9.778968 10.695856 1.933531 11697996
9.225121 10.161024 2.050104 11697996
10.544950 10.669758 3.652934 11697996
10.089236 9.898103 3.140291 11697996
9.948067 9.653319 1.613705 11697996
9.349403 9.858132 3.469419 11697996
9.910585 11.126926 3.863918 11697996
8.963493 11.178840 0.952549 11697996
10.574812 10.088964 0.156453 11697996
10.526031 10.310803 1.769190 11697996
10.074103 9.104411 0.825591 11697996
9.400935 9.558430 2.582712 11697996
11.136145 10.983435 1.009860 11697996
10.609228 11.127374 1.078132 11697996
9.605348 10.411332 1.005620 11697996
8.878675 11.215710 1.635441 11697996
10.182096 10.035663 2.937182 11697996
8.952065 9.279657 1.988702 11697996
11.016510 9.019459 0.623061 11697996
9.791361 8.747270 0.756915 11697996
9.166810 10.431877 1.642207 11697996
10.840106 9.224977 0.562052 11697996
9.847297 9.608380 2.833774 11697996
9.743073 10.216368 0.239433 11697996
11.014312 10.455440 0.396106 11697996
9.486592 10.106056 1.531252 11697996
8.753333 11.095885 2.477573 11697996
10.283478 9.491920 0.523819 11697996
10.675509 8.851560 0.217121 11697996
11.222412 9.404337 2.666809 11697996
9.538397 10.721968 1.223461 11697996
10.201509 9.021162 1.026848 11697996
10.714835 10.821972 1.701135 11697996
9.488902 9.982373 2.374413 11697996
10.372150 9.162428 0.481885 11697996
10.634295 9.000591 2.431550 11697996
10.731666 10.166319 1.177738 11697996
9.383871 9.208141 1.765727 11697996
9.830544 10.254927 2.028720 11697996
9.161749 9.047901 1.637800 11697996
9.586183 8.987434 2.437536 11697996
9.477590 11.221691 1.618653 11697996
11.180454 9.604290 1.517816 11697996
9.645563 8.848845 0.387800 11697996
10.335453 10.641220 2.653154 11697996
10.996490 8.792547 2.025532 11697996
9.522428 9.036549 0.076097 11697996
10.007977 10.310504 2.661041 11697996
9.474627 9.627265 1.565404 11697996
9.386679 10.713941 2.851865 11697996
9.926237 9.775625 1.018748 11697996
9.137528 10.252413 2.863183 11697996
9.394258 10.661240 0.819104 11697996
10.079976 9.777390 3.946380 11697996
9.093163 10.607935 2.243399 11697996
8.767782 8.941539 1.149117 11697996
10.614882 9.194312 1.321477 11697996
10.057981 9.744875 2.256855 11697996
11.136554 10.308387 0.248542 11697996
11.100892 10.299407 3.524001 11697996
9.061667 10.222099 1.785831 11697996
9.883587 10.869519 3.222805 11697996
10.685209 10.691524 1.198059 11697996
11.202432 10.100004 1.956121 11697996
10.898567 11.226886 1.336191 11697996
10.707769 11.052942 3.799402 11697996
9.899782 10.232025 1.972677 11697996
11.274288 10.386468 0.466925 11697996
10.513762 10.035835 2.090755 11697996
10.096875 9.779138 3.673522 11697996
9.385284 10.684160 2.057864 11697996
9.573350 10.293055 2.677850 11697996
9.796242 9.634938 0.945744 11697996
9.109477 8.898187 3.355968 11697996
9.527306 8.954652 0.049347 11697996
10.750271 10.055263 2.303484 11697996
9.489783 9.158945 3.791348 11697996
9.946528 9.899004 2.132902 11697996
9.391363 10.517602 0.436319 11697996
9.684556 10.200060 2.069934 11697996
9.353759 11.102886 3.852602 11697996
9.909864 9.997977 2.222726 11697996
8.956344 10.287088 0.923751 11697996
9.616630 9.623860 2.325886 11697996
11.146573 10.449333 1.192857 11697996
10.894768 10.441711 1.605047 11697996
9.387496 9.379323 0.092708 11697996
9.906626 10.056417 1.262969 11697996
11.197555 9.848397 1.122240 11697996
9.767072 9.320868 0.020690 11697996
9.019530 9.539723 1.807939 11697996
10.849446 9.444599 0.626140 11697996
9.624843 10.038993 1.429337 11697996
9.696070 10.820083 0.261382 11697996
11.242856 10.309519 3.990290 11697996
8.767684 9.751527 2.609637 11697996
9.985381 10.785128 3.184415 11697996
10.113369 9.965979 2.263704 11697996
11.160253 9.820508 2.128642 11697996
9.816235 10.201705 3.490092 11697996
8.925127 9.190709 2.365670 11697996
9.660796 10.377871 2.833229 11697996
10.514827 9.863375 3.785422 11697996
10.590245 9.622097 2.832394 11697996
9.016224 9.502796 2.926372 11697996
10.858429 11.231076 2.830007 11697996
11.221532 10.732851 0.483167 11697996
11.218613 8.754406 1.752121 11697996
9.821110 9.917608 2.530740 11697996
10.460673 8.881769 3.619213 11697996
10.685574 9.627565 1.693742 11697996
10.315203 8.904401 1.273411 11697996
9.690186 10.453931 3.820078 11697996
10.581685 10.451448 1.298766 11697996
10.149301 10.306392 3.661570 11697996
10.152249 9.241136 0.609841 11697996
9.855036 9.082228 1.052241 11697996
10.587126 10.660810 1.740275 11697996
9.936565 10.158543 0.455358 11697996
10.092701 10.436515 3.739493 11697996
10.251842 9.627437 1.577003 11697996
11.068460 9.457067 3.305566 11697996
9.770407 8.790390 3.492611 11697996
9.372099 9.807453 1.271712 11697996
8.916413 8.978956 3.426007 11697996
10.522041 10.499989 1.234911 11697996
10.237560 10.131837 0.168890 11697996
9.013824 10.450850 2.974288 11697996
10.692732 8.817105 1.114637 11697996
8.986971 9.030190 3.304824 11697996
9.749493 11.172830 2.935118 11697996
9.774321 10.957623 0.202933 11697996
11.022426 9.475522 2.018155 11697996
10.512819 10.119318 3.034345 11697996
9.235250 10.625465 2.767771 11697996
11.137525 10.908685 0.184261 11697996
10.092403 9.164412 1.879058 11697996
10.631544 10.239297 2.279495 11697996
11.211040 9.874866 3.117574 11697996
9.053675 10.075737 2.469192 11697996
10.911130 9.114940 1.230369 11697996
11.133286 10.786284 0.170465 11697996
10.395137 10.947144 3.296882 11697996
10.692163 10.815188 3.066231 11697996
9.483739 9.309077 1.102196 11697996
8.890154 9.907552 2.690868 11697996
10.014371 10.582817 3.649888 11697996
10.297079 10.493438 0.941817 11697996
10.296644 9.395305 2.786790 11697996
11.163490 11.017343 2.748494 11697996
9.587084 8.807687 1.108914 11697996
9.452074 9.612390 1.489796 11697996
10.162572 11.108105 2.556681 11697996
9.136887 9.233003 1.726557 11697996
9.369207 8.958455 2.934558 11697996
9.656758 9.743069 2.032197 11697996
10.716836 11.087383 3.674808 11697996
11.085980 10.399088 3.781515 11697996
10.991415 9.166218 0.029594 11697996
11.104637 10.429226 3.208501 11697996
8.963264 9.045182 1.188071 11697996
8.934072 10.272250 3.065597 11697996
8.972849 9.533573 0.990515 11697996
9.306315 9.599972 2.678560 11697996
10.061340 9.155362 3.201132 11697996
8.772401 8.947525 0.448418 11697996
10.136798 10.310946 1.259357 11697996
8.813652 10.232458 0.889648 11697996
9.470177 10.152977 0.418163 11697996
9.606630 9.882720 1.744773 11697996
9.322653 9.134099 1.379080 11697996
9.951816 9.057158 0.956400 11697996
9.377543 9.547044 0.353502 11697996
9.276836 9.634358 0.295412 11697996
9.534444 10.368947 1.873957 11697996
9.055093 9.828093 3.715725 11697996
9.473306 10.028544 0.545487 11697996
9.775300 10.368968 0.669958 11697996
10.789492 11.170856 1.664870 11697996
11.004381 10.254276 0.760255 11697996
9.351991 9.094139 2.462095 11697996
10.028481 9.473005 1.661675 11697996
9.500333 10.060545 2.791576 11697996
10.053656 10.519287 2.639448 11697996
10.968246 9.722508 2.191463 11697996
10.817192 9.534969 0.720295 11697996
9.479575 11.229514 3.621809 11697996
11.229945 10.301392 0.556091 11697996
10.927148 10.535337 3.556079 11697996
10.993957 10.121273 2.369654 11697996
9.436109 8.825591 1.771026 11697996
10.439105 11.068930 0.528819 11697996
9.656309 9.009423 2.044180 11697996
9.662704 9.559566 2.052636 11697996
10.303437 9.628334 1.222446 11697996
9.985078 10.537899 1.326589 11697996
10.410578 9.658024 3.536142 11697996
11.200735 8.865933 0.836525 11697996
10.172780 9.143518 2.854908 11697996
9.535557 9.277773 2.114732 11697996
8.755925 9.378939 0.351025 11697996
9.705610 9.500528 0.656069 11697996
9.025178 10.129084 1.885872 11697996
11.095329 10.280175 1.548533 11697996
9.395352 10.098846 0.684654 11697996
10.137027 8.781083 0.020527 11697996
9.978364 10.466664 3.034467 11697996
9.149016 9.249264 2.540007 11697996
9.320933 9.304436 0.499094 11697996
10.789799 11.156784 3.955370 11697996
9.192890 10.313960 1.524255 11697996
9.884496 9.503367 3.536451 11697996
8.775793 9.445347 2.228184 11697996
10.328048 9.658806 2.777764 11697996
9.742867 11.213454 3.806681 11697996
10.359344 10.569510 3.006752 11697996
10.554956 10.986824 3.974687 11697996
11.215056 9.116276 2.755597 11697996
9.859518 9.345149 2.492879 11697996
10.279860 10.736682 3.244168 11697996
9.554158 10.180632 3.486348 11697996
9.281058 9.967062 0.130380 11697996
10.244351 10.802987 1.703744 11697996
10.748955 10.241599 2.001313 11697996
10.922249 10.587718 1.070920 11697996
10.140779 8.871112 1.822159 11697996
10.005084 10.309847 1.202968 11697996
11.116023 9.607224 1.911813 11697996
10.454615 9.464345 3.631501 11697996
9.963066 10.112819 0.897962 11697996
10.843004 10.952448 1.233484 11697996
10.225227 9.821288 2.549558 11697996
9.692730 9.158641 3.347989 11697996
9.741024 10.882286 2.213898 11697996
9.452916 10.375944 0.883043 11697996
10.894019 10.639393 3.421849 11697996
9.263227 9.635374 2.339091 11697996
9.030725 10.748764 0.021710 11697996
9.378196 10.907287 1.941617 11697996
9.898940 8.857001 3.027079 11697996
8.817464 9.795745 2.010089 11697996
8.980349 10.608264 0.339352 11697996
8.816239 9.266537 1.215787 11697996
10.886253 9.359020 1.052070 11697996
10.895507 10.456195 3.073385 11697996
9.065857 10.872775 3.787612 11697996
10.900501 9.518993 2.970064 11697996
10.892406 8.765758 0.332778 11697996
9.019382 10.356637 1.068394 11697996
10.426333 8.855093 1.922934 11697996
9.378975 9.301478 0.083302 11697996
9.585548 9.941409 1.250206 11697996
10.724444 8.927984 1.112811 11697996
9.092650 10.570620 0.979915 11697996
10.559176 10.164907 0.413128 11697996
11.022625 9.321089 1.895693 11697996
9.075259 9.885872 1.998313 11697996
10.127626 11.111522 2.730984 11697996
8.872847 9.196296 0.656984 11697996
9.520416 10.845226 3.734658 11697996
9.253379 9.635936 2.231782 11697996
9.286159 10.451787 0.145131 11697996
10.695565 9.880610 2.487039 11697996
9.516777 8.839602 3.776118 11697996
10.931457 10.050820 1.479778 11697996
9.084912 10.348708 1.628611 11697996
9.354621 9.375738 2.040429 11697996
10.254719 8.817253 3.860198 11697996
10.053823 9.182273 3.298062 11697996
10.696594 10.073781 3.220971 11697996
11.231035 10.641592 3.818408 11697996
9.256064 9.304893 2.133829 11697996
9.502378 10.961713 3.242141 11697996
10.071893 9.316909 0.447881 11697996
9.509701 10.450502 2.352714 11697996
10.961228 8.899096 1.137299 11697996
9.640637 10.377841 1.585425 11697996
10.532963 10.432927 1.535536 11697996
9.838365 9.078473 2.539227 11697996
