# .PCD v0.7 - Point Cloud Data file format
VERSION 0.7
FIELDS x y z rgb
SIZE 4 4 4 4
TYPE F F F U
COUNT 1 1 1 1
WIDTH 1292
HEIGHT 1
VIEWPOINT 0 0 0 1 0 0 0
POINTS 1292
DATA ascii
11.221858 9.025355 3.323418 11697996
9.204760 9.752139 0.766081 11697996
9.347471 9.227725 3.986110 11697996
10.470285 9.243423 2.594157 11697996
9.808795 9.390575 1.009703 11697996
10.063359 11.203286 2.926015 11697996
11.086795 10.404190 0.274131 11697996
10.801285 9.290147 1.002290 11697996
10.604983 10.671700 3.144545 11697996
10.567517 10.914861 1.454102 11697996
9.953012 9.042196 0.786319 11697996
10.738338 9.758169 0.217064 11697996
9.027428 9.980143 0.473269 11697996
10.818665 9.642947 1.411974 11697996
10.616946 11.201075 3.936278 11697996
10.652225 9.664090 3.748977 11697996
11.163536 9.908777 2.961396 11697996
11.069670 9.971867 3.069756 11697996
8.829675 10.882688 2.794189 11697996
11.055772 9.817555 2.735556 11697996
9.262530 9.766788 3.443801 11697996
9.299762 8.995728 3.432034 11697996
9.851830 10.739788 2.552092 11697996
10.933290 9.202150 0.171575 11697996
10.727741 10.522581 1.264908 11697996
9.933525 10.665269 2.340055 11697996
9.125525 10.419261 1.763245 11697996
10.217325 9.310922 2.232449 11697996
11.030964 10.163258 0.189541 11697996
10.046104 11.160128 2.969332 11697996
10.640850 11.004079 3.805885 11697996
9.738964 8.812847 1.506194 11697996
9.608660 9.501666 1.400745 11697996
10.680999 10.743928 1.633322 11697996
9.597559 10.461764 2.717870 11697996
10.234308 11.247796 0.291504 11697996
9.603373 8.838595 3.309534 11697996
9.514193 10.294837 3.167045 11697996
10.352283 9.092885 3.321005 11697996
9.386988 10.329674 2.976466 11697996
9.628603 10.653666 1.717342 11697996
9.085407 10.818112 2.156768 11697996
10.819420 10.497087 0.941385 11697996
10.815145 10.932860 3.704380 11697996
10.691676 10.950912 1.692111 11697996
11.224169 9.272481 3.290352 11697996
9.862384 11.248504 1.733541 11697996
8.847477 8.779101 2.445307 11697996
9.150436 10.107036 3.151849 11697996
10.547041 10.038486 0.194212 11697996
8.872285 10.193706 3.393689 11697996
10.307379 9.555587 0.846197 11697996
10.261981 8.980687 1.406934 11697996
9.632856 8.904188 3.605690 11697996
9.761151 9.787790 1.575031 11697996
10.887972 9.960505 3.055715 11697996
10.662787 10.336113 3.295497 11697996
10.780094 10.481401 0.664091 11697996
10.746617 10.242927 3.856595 11697996
11.088512 9.535553 1.683716 11697996
9.495389 10.814214 2.596594 11697996
10.234210 8.758312 3.146370 11697996
11.124063 9.492124 2.678541 11697996
10.326156 10.075562 2.064866 11697996
10.346966 10.045486 0.995956 11697996
8.870666 10.987299 3.403099 11697996
10.631724 9.884914 1.763710 11697996
9.487201 9.974212 2.178071 11697996
10.120290 10.682190 3.233731 11697996
9.283341 10.455151 1.888299 11697996
9.256871 9.724791 2.724414 11697996
9.794888 9.135906 3.532405 11697996
9.601202 11.022291 2.011764 11697996
10.610670 8.864215 1.288002 11697996
8.923800 11.145758 0.027945 11697996
11.007650 10.361300 2.078411 11697996
8.875824 11.154090 0.020632 11697996
9.283317 11.092511 1.593214 11697996
10.143906 9.169415 1.477051 11697996
9.161452 10.598250 0.527565 11697996
10.810653 10.936212 3.786874 11697996
10.175387 9.777261 2.654648 11697996
10.976597 10.466354 2.333766 11697996
11.178336 9.919867 2.103578 11697996
9.980064 10.183309 2.187394 11697996
10.022245 10.214516 2.052793 11697996
8.891273 9.521609 0.928843 11697996
10.387599 11.018316 2.213012 11697996
11.005176 10.955456 1.660734 11697996
9.953822 8.861531 0.503596 11697996
9.340779 10.371817 3.300749 11697996
11.156926 9.204952 3.207448 11697996
11.108006 10.671988 2.408500 11697996
10.884014 11.151951 1.186257 11697996
10.728088 9.588997 2.724248 11697996
9.971016 10.798554 1.087639 11697996
11.073579 10.036117 1.249797 11697996
9.002421 10.027190 2.555325 11697996
10.073982 10.399148 0.450604 11697996
10.812132 9.944633 3.427429 11697996
9.829277 10.399883 3.063943 11697996
10.114376 11.133735 1.578846 11697996
9.544409 9.944661 1.551552 11697996
10.303329 10.223030 3.278030 11697996
10.920671 10.683097 3.190094 11697996
10.723904 10.698981 0.901583 11697996
10.695120 10.105411 1.567724 11697996
9.708800 10.687291 3.995762 11697996
10.811992 9.574105 1.394332 11697996
9.068703 10.134201 3.898056 11697996
9.145417 9.559419 0.261395 11697996
10.927784 10.885946 1.637565 11697996
10.114449 10.251346 2.374947 11697996
9.557837 10.948933 1.785508 11697996
10.129406 10.700642 0.176533 11697996
10.869557 8.852422 0.804368 11697996
9.121286 10.862880 0.705137 11697996
11.035356 11.010355 0.524634 11697996
10.076929 10.163975 3.172447 11697996
10.409109 9.970817 0.199189 11697996
10.236298 8.931400 1.584948 11697996
9.259182 8.887631 1.473252 11697996
8.944744 10.314736 3.108373 11697996
10.483996 9.364311 1.534346 11697996
9.161739 9.336480 3.729200 11697996
9.477237 9.212818 0.597952 11697996
10.319301 11.085730 1.209767 11697996
10.508425 9.147799 1.466619 11697996
11.173717 10.367659 1.881961 11697996
10.595315 8.991065 3.660958 11697996
10.952028 10.813915 0.839032 11697996
10.848576 9.199322 1.491558 11697996
9.578579 11.163884 1.851547 11697996
8.929202 10.182182 1.792032 11697996
11.223799 10.178835 0.241306 11697996
10.017229 10.984669 3.602133 11697996
10.630861 10.324339 0.238244 11697996
8.854753 10.551135 0.579879 11697996
8.990016 8.865746 1.480758 11697996
10.884439 9.444214 0.172806 11697996
10.384807 9.452043 3.715325 11697996
10.225251 10.455869 0.750098 11697996
10.422308 10.770993 0.158425 11697996
10.809009 9.169249 1.212846 11697996
10.959577 9.788968 3.745812 11697996
10.475142 9.578646 1.600677 11697996
8.849746 8.955651 0.559326 11697996
10.182435 10.244804 3.674315 11697996
9.255941 11.018424 0.660384 11697996
10.790985 8.804661 0.542136 11697996
8.959300 10.662282 2.518955 11697996
10.704713 9.498361 3.126415 11697996
9.565444 9.761371 0.858557 11697996
10.983017 11.178385 2.378030 11697996
9.604490 10.536479 2.862228 11697996
9.677866 11.112835 1.271218 11697996
9.795871 11.154194 2.723250 11697996
10.328074 10.308897 3.023789 11697996
10.449405 10.701992 3.499042 11697996
10.894977 10.682288 1.429757 11697996
9.100972 10.897745 2.646914 11697996
10.845115 9.634487 0.338110 11697996
11.002458 10.544562 3.140787 11697996
8.799738 9.084167 3.971702 11697996
9.478688 9.442370 2.507556 11697996
10.738882 10.222107 2.473580 11697996
8.817361 9.476740 0.680838 11697996
10.260737 9.233658 3.715907 11697996
10.179041 9.094294 2.567743 11697996
10.338975 11.033343 2.592541 11697996
9.087926 9.502430 1.929078 11697996
10.058687 9.375253 2.222765 11697996
9.161253 9.394814 0.662463 11697996
11.026051 9.596021 3.931355 11697996
10.256930 10.770046 1.859285 11697996
11.030742 10.002577 2.413716 11697996
10.263785 10.953226 1.691780 11697996
9.639819 9.777623 3.328899 11697996
10.552774 8.873695 1.991488 11697996
9.292658 10.706540 1.525792 11697996
9.391169 9.247737 2.082061 11697996
9.106691 9.079050 3.229705 11697996
9.398995 10.510727 2.053421 11697996
11.107482 9.066339 2.316580 11697996
11.132814 9.877369 2.422728 11697996
9.305515 11.138291 2.927802 11697996
9.593203 11.232418 1.212776 11697996
9.076921 9.539373 3.183757 11697996
11.176334 8.942927 1.382433 11697996
10.201011 9.958852 1.721121 11697996
10.072988 10.470895 2.660970 11697996
9.327473 9.123546 0.740322 11697996
9.983763 9.393310 0.397814 11697996
9.068425 8.921037 1.369781 11697996
8.818482 10.350382 2.406391 11697996
9.749690 8.960611 2.934324 11697996
10.154128 10.988821 0.857906 11697996
11.053839 9.234321 3.998701 11697996
10.787281 8.974319 1.278577 11697996
9.663310 9.925200 2.825924 11697996
10.101601 9.343387 2.815122 11697996
10.105941 11.124411 3.065789 11697996
11.051776 10.810006 3.221294 11697996
9.402435 10.916258 0.992510 11697996
9.551628 10.759115 1.087986 11697996
8.746853 9.317759 0.060176 11697996
10.508355 10.752781 2.028677 11697996
10.470495 10.678686 2.473718 11697996
10.219343 9.089968 2.948131 11697996
10.323797 9.629992 3.720264 11697996
9.176484 10.713567 3.728570 11697996
9.687070 10.868488 2.553267 11697996
10.980884 9.885300 0.450764 11697996
10.595345 10.838297 3.369626 11697996
10.757009 10.276992 2.089658 11697996
10.354670 10.440860 0.306205 11697996
10.999322 10.462068 2.645556 11697996
9.712856 9.654693 2.625767 11697996
11.140882 10.952300 1.301521 11697996
9.369268 9.477025 3.152040 11697996
10.912256 8.909740 3.586853 11697996
11.219033 9.841468 1.969068 11697996
10.447410 10.319350 2.664011 11697996
9.661889 9.129661 0.426943 11697996
11.216681 10.401139 0.274187 11697996
9.946535 9.276690 0.983396 11697996
10.396389 10.366513 2.419036 11697996
10.808432 8.793350 1.190052 11697996
9.971923 9.057858 0.550391 11697996
9.691692 11.178914 0.797264 11697996
10.150859 9.164858 1.214500 11697996
8.915875 9.486238 1.530370 11697996
9.740426 8.878736 1.723541 11697996
9.820201 9.868010 1.063637 11697996
10.102591 10.854612 3.387652 11697996
10.265376 8.945430 1.130867 11697996
9.059609 10.188913 1.316738 11697996
11.111466 8.849812 2.006272 11697996
11.054033 9.318443 2.200103 11697996
11.079690 9.199025 3.936754 11697996
8.885906 10.411300 2.279902 11697996
8.867263 10.422340 0.496045 11697996
9.073266 11.075922 3.741827 11697996
9.189394 9.684560 0.815409 11697996
9.233039 10.759731 1.399477 11697996
9.347096 10.733754 1.345345 11697996
11.012529 10.254368 1.968038 11697996
10.378799 10.513674 2.553787 11697996
8.852076 10.248530 3.270581 11697996
9.479309 10.233209 3.584395 11697996
9.057478 10.914551 3.174736 11697996
11.155960 10.286532 0.737666 11697996
9.429220 9.074944 2.438561 11697996
9.131762 10.044161 1.069842 11697996
11.058148 9.475760 2.056883 11697996
10.793691 9.513392 0.287197 11697996
9.780150 10.363522 1.855162 11697996
10.248435 10.102263 1.210251 11697996
8.765057 10.447499 3.069875 11697996
10.317401 9.236218 1.377326 11697996
9.757985 9.288407 0.052918 11697996
9.239063 9.981933 2.826293 11697996
10.548829 9.519095 0.890727 11697996
10.212422 10.218018 3.540813 11697996
8.938615 11.080895 1.880400 11697996
11.017573 9.208062 1.330281 11697996
9.213090 9.785678 2.950546 11697996
8.938179 9.098494 2.140472 11697996
9.418344 10.234797 1.084369 11697996
11.063074 9.653233 3.524438 11697996
9.622536 10.083989 1.947168 11697996
10.588475 11.214013 0.079001 11697996
9.684526 9.630458 1.362617 11697996
10.783095 8.925880 3.649698 11697996
9.610150 10.451967 0.303083 11697996
10.793973 10.005291 2.870530 11697996
9.110946 10.045687 3.815468 11697996
8.989617 10.826126 3.474396 11697996
10.672657 8.916986 1.524587 11697996
9.136896 10.597401 2.745830 11697996
9.945720 10.024198 3.993827 11697996
10.160692 10.901456 2.301227 11697996
9.878396 10.118506 0.320492 11697996
8.907503 8.936239 2.160984 11697996
10.237758 9.790206 3.839708 11697996
10.654768 11.182307 2.214949 11697996
9.300982 10.111337 3.186835 11697996
9.862308 9.895659 2.631289 11697996
8.899238 10.233294 0.203117 11697996
10.789857 10.455159 1.919859 11697996
10.143165 9.691632 3.377064 11697996
10.950316 10.174664 3.406877 11697996
8.951524 9.215066 3.905424 11697996
9.329526 10.842303 3.326713 11697996
10.319977 10.748848 0.966550 11697996
10.770649 9.875115 2.299990 11697996
10.489764 8.752226 3.472836 11697996
10.840336 8.931214 0.880315 11697996
9.379459 10.230924 2.551655 11697996
9.091765 10.805541 1.133119 11697996
10.372025 8.860091 3.292337 11697996
9.676405 10.820142 2.928904 11697996
9.875091 10.533298 1.180183 11697996
11.150751 10.999319 1.435142 11697996
9.620347 8.827080 3.895578 11697996
10.777050 9.858482 2.289900 11697996
8.775414 9.345162 1.217843 11697996
10.837976 11.118464 3.711377 11697996
10.678368 10.924133 2.511047 11697996
9.525487 9.748020 1.229457 11697996
10.190778 9.265517 2.016432 11697996
9.749654 10.018413 2.741967 11697996
10.047248 9.702864 0.802794 11697996
10.350646 11.224277 1.906466 11697996
10.644979 9.169044 0.230441 11697996
9.523194 10.718492 1.200215 11697996
11.192951 11.014184 2.554040 11697996
10.478677 9.699146 2.079191 11697996
8.979822 10.366121 3.913648 11697996
9.201632 10.615906 0.113810 11697996
10.306809 10.045580 3.638756 11697996
10.780032 10.606873 3.125052 11697996
9.602320 11.265217 3.693485 11697996
9.367881 9.221311 3.002505 11697996
10.000626 9.271723 1.228054 11697996
9.218540 8.961877 0.865992 11697996
10.387403 9.667845 3.100669 11697996
10.574038 11.100394 2.269567 11697996
10.204295 8.912777 0.540290 11697996
10.680191 10.067815 3.461175 11697996
9.073410 10.980558 2.192727 11697996
11.018658 10.132506 1.616638 11697996
10.651645 10.395588 0.603065 11697996
8.837929 10.817033 2.852462 11697996
8.805789 10.500656 0.243425 11697996
9.375891 10.150178 3.518651 11697996
9.037332 9.324312 2.091722 11697996
9.661925 9.728256 2.090085 11697996
10.341677 10.043016 1.866334 11697996
9.212018 9.326456 2.353614 11697996
9.475275 10.890992 3.372313 11697996
10.062211 10.022011 3.334016 11697996
10.641631 8.809497 0.820241 11697996
9.216119 11.248137 3.908019 11697996
9.419988 9.847605 0.958179 11697996
8.854093 11.202398 2.726501 11697996
10.159244 9.609701 3.420330 11697996
11.223957 10.349040 0.185974 11697996
9.292465 9.020342 2.732781 11697996
8.962560 9.316453 1.344910 11697996
9.021704 9.766125 1.632733 11697996
8.878861 9.696419 2.186786 11697996
11.050137 11.068951 3.586687 11697996
10.432690 9.855344 3.026578 11697996
8.782514 9.719148 3.474302 11697996
10.283987 9.603352 0.328616 11697996
10.441548 10.593381 1.885807 11697996
10.747305 9.632560 0.083984 11697996
11.159590 8.947227 3.972353 11697996
10.585751 10.465236 2.032843 11697996
10.229547 10.197840 0.764761 11697996
10.009493 9.141837 1.442127 11697996
11.132971 9.261365 2.191335 11697996
9.020128 11.169992 0.940085 11697996
9.023210 9.469826 3.337665 11697996
10.511971 9.978069 2.766662 11697996
8.777066 11.193087 1.155334 11697996
10.526683 9.778815 3.065095 11697996
9.143454 10.648799 3.412129 11697996
9.134602 10.160847 4.005801 11697996
10.971962 10.273024 1.955684 11697996
10.898703 9.649061 1.028632 11697996
9.391565 8.974485 3.870152 11697996
8.777370 9.842654 2.455755 11697996
10.271937 10.449631 1.844344 11697996
11.097739 10.934083 3.559078 11697996
8.851453 9.444618 3.901594 11697996
9.864668 9.107798 3.453880 11697996
9.958557 9.638505 2.154869 11697996
8.937645 9.989347 2.439866 11697996
9.661985 9.931546 3.741690 11697996
9.926656 10.905991 2.655284 11697996
10.901114 11.105868 0.829218 11697996
9.312569 9.091415 0.088867 11697996
9.698833 10.884048 0.138543 11697996
10.164422 10.319284 3.551897 11697996
10.911523 9.039608 0.935653 11697996
9.331733 11.033258 1.776253 11697996
10.171560 9.247092 2.185484 11697996
8.778225 9.996907 0.759506 11697996
9.725332 9.901507 3.967123 11697996
9.975130 11.186375 2.390152 11697996
9.357964 10.882391 2.964161 11697996
10.670361 9.636362 2.225594 11697996
10.939592 9.044436 2.762377 11697996
10.907509 10.872138 1.799744 11697996
11.258678 9.914666 2.223699 11697996
9.685028 9.312686 2.523761 11697996
9.319484 8.853564 2.950856 11697996
11.004601 8.983475 2.710033 11697996
9.874286 8.790419 0.591462 11697996
9.847376 9.037751 3.549309 11697996
10.982061 9.790225 0.851412 11697996
11.125193 9.058940 3.677758 11697996
10.427866 9.141898 2.258215 11697996
10.786202 10.438229 1.426742 11697996
9.374929 10.585340 0.142163 11697996
9.376863 10.710669 2.775080 11697996
9.550987 9.309808 3.910063 11697996
9.058019 10.935024 2.192629 11697996
9.757818 9.930399 0.529200 11697996
10.518057 10.126579 1.811280 11697996
11.214761 11.053432 0.302337 11697996
8.926088 10.438271 2.823712 11697996
10.380307 10.048359 1.561507 11697996
10.632669 10.345096 0.750220 11697996
10.589742 9.660917 3.552773 11697996
11.066159 8.828393 0.294383 11697996
11.040192 11.187062 0.007709 11697996
10.757147 9.750243 3.530568 11697996
9.664287 10.858131 3.367155 11697996
9.551333 9.429473 2.236256 11697996
10.524801 9.572701 1.586412 11697996
11.016027 9.439037 1.993030 11697996
10.429325 10.006912 0.539073 11697996
9.798298 11.187024 2.372273 11697996
11.121329 8.931348 2.369580 11697996
10.974719 9.648098 2.507916 11697996
9.726707 10.909575 2.661747 11697996
9.166270 10.340317 0.876645 11697996
9.292895 8.860174 2.195563 11697996
11.072925 9.826520 3.015294 11697996
9.446465 10.880661 1.285629 11697996
10.237433 9.286142 1.510432 11697996
9.622047 10.449615 1.992626 11697996
9.738666 9.176482 2.265124 11697996
9.222369 9.137072 0.662044 11697996
10.535122 11.084040 3.423900 11697996
9.909175 9.795510 2.125624 11697996
10.179717 9.176904 3.304266 11697996
10.436837 10.116429 1.541407 11697996
9.228183 10.833368 1.175458 11697996
9.631429 10.250703 3.953552 11697996
9.774889 8.982070 3.525609 11697996
8.934237 9.539263 0.246382 11697996
10.620442 10.427048 0.113945 11697996
9.328903 10.520358 1.894512 11697996
10.530463 8.977945 2.455849 11697996
10.506923 10.311937 0.643481 11697996
9.933050 10.092072 3.650732 11697996
9.753176 9.755631 0.641909 11697996
11.186754 10.486595 2.827898 11697996
9.677998 10.606359 1.953119 11697996
9.147950 10.857669 3.769934 11697996
9.261230 11.060391 1.230186 11697996
11.101600 11.128595 3.799098 11697996
10.355773 10.212242 2.405665 11697996
9.899593 10.095635 3.643152 11697996
9.098317 9.116277 1.811470 11697996
9.541790 9.924745 3.244607 11697996
10.943533 9.277477 0.149696 11697996
11.075163 9.173869 0.632795 11697996
9.787731 11.076648 2.586107 11697996
11.037515 9.325054 1.485791 11697996
9.301575 9.896521 2.567898 11697996
11.205623 11.138292 0.890558 11697996
11.186201 10.583375 1.840502 11697996
10.369607 8.819153 3.738354 11697996
9.284496 9.739744 3.138164 11697996
10.344281 9.029896 0.858097 11697996
9.562689 9.444859 0.071762 11697996
10.077746 8.870065 3.190034 11697996
10.788725 10.410793 3.062223 11697996
8.769103 9.118070 3.489247 11697996
9.985379 9.579791 1.113227 11697996
10.349969 9.439259 2.317895 11697996
11.136070 9.592860 3.414995 11697996
9.864318 11.148680 3.223209 11697996
10.953952 10.547894 2.660046 11697996
10.689572 10.411211 0.619398 11697996
9.020802 9.112598 2.246490 11697996
10.170237 9.527143 3.747634 11697996
10.812034 10.695541 0.702445 11697996
11.237546 8.808317 0.943662 11697996
9.271770 9.579390 3.763923 11697996
11.275803 10.250726 1.589521 11697996
10.925632 9.387419 1.647055 11697996
11.006326 10.188455 2.445632 11697996
8.890436 10.786151 1.239624 11697996
9.598282 9.868264 0.339873 11697996
10.335476 8.999529 3.247994 11697996
9.533287 8.801026 1.270682 11697996
11.015721 9.115145 1.151894 11697996
10.321261 8.793130 0.419549 11697996
9.887409 9.673652 2.812780 11697996
10.849607 9.771545 3.951365 11697996
9.065551 9.294709 3.407966 11697996
10.026084 10.868527 0.739431 11697996
10.113562 8.803041 3.083410 11697996
10.870805 9.271441 3.623867 11697996
9.526242 9.778919 3.421884 11697996
9.491673 8.946395 3.490210 11697996
10.132199 9.190722 1.274737 11697996
10.587719 9.064455 1.755303 11697996
9.842940 10.884356 3.636494 11697996
11.071642 9.644595 3.527402 11697996
9.768834 10.885317 3.236526 11697996
10.075013 9.529421 0.541326 11697996
9.201406 9.288932 2.888562 11697996
10.458634 8.960993 3.141983 11697996
9.886053 9.549983 0.411140 11697996
8.771789 10.876876 3.301910 11697996
10.318131 9.661823 0.701733 11697996
10.491631 10.880348 1.693657 11697996
9.798261 10.736719 1.957837 11697996
9.265770 10.202094 2.056350 11697996
10.564919 10.687302 3.656949 11697996
10.103354 9.873273 3.132029 11697996
9.973374 9.646786 1.587709 11697996
9.348018 9.858333 3.449114 11697996
9.914352 11.146749 3.858269 11697996
8.979548 11.168542 0.961159 11697996
10.539247 10.079316 0.159554 11697996
10.510696 10.306671 1.744090 11697996
10.089582 9.092473 0.817655 11697996
9.432128 9.577076 2.569510 11697996
11.100492 10.965902 1.014806 11697996
10.639218 11.134906 1.078249 11697996
9.610165 10.419565 1.021704 11697996
8.863320 11.197515 1.642163 11697996
10.158505 10.072623 2.941490 11697996
8.959634 9.287976 2.012171 11697996
11.054365 8.993150 0.627479 11697996
9.788083 8.731636 0.785479 11697996
9.161297 10.429116 1.680884 11697996
10.869301 9.248584 0.543507 11697996
9.857136 9.592398 2.771729 11697996
9.751410 10.236737 0.232725 11697996
11.008526 10.450736 0.393571 11697996
9.479570 10.105946 1.534941 11697996
8.779409 11.084185 2.528993 11697996
10.293403 9.485976 0.533450 11697996
10.679392 8.886797 0.202457 11697996
11.237050 9.413528 2.636023 11697996
9.530711 10.765886 1.245163 11697996
10.210491 9.019862 1.016277 11697996
10.738405 10.831444 1.715339 11697996
9.503990 9.970577 2.386538 11697996
10.400302 9.134904 0.510980 11697996
10.580430 9.039860 2.447544 11697996
10.682106 10.145068 1.162776 11697996
9.349025 9.204576 1.746960 11697996
9.846668 10.244709 1.999432 11697996
9.152753 9.035975 1.645794 11697996
9.598598 8.978769 2.459896 11697996
9.482280 11.208310 1.608234 11697996
11.185478 9.640462 1.540328 11697996
9.677586 8.828648 0.382626 11697996
10.316949 10.634368 2.638488 11697996
11.002770 8.772458 2.047570 11697996
9.503465 9.082479 0.074661 11697996
9.985187 10.326437 2.661981 11697996
9.445496 9.661285 1.589134 11697996
9.379187 10.728127 2.876405 11697996
9.930303 9.773482 1.027014 11697996
9.182724 10.249747 2.824815 11697996
9.427078 10.649826 0.831645 11697996
10.091558 9.750080 3.938786 11697996
9.104697 10.582561 2.257630 11697996
8.767832 8.977909 1.183318 11697996
10.610775 9.167597 1.310277 11697996
10.045241 9.733906 2.260379 11697996
11.125889 10.356682 0.241585 11697996
11.095963 10.342571 3.523163 11697996
9.084328 10.223302 1.798062 11697996
9.911144 10.877609 3.225298 11697996
10.715881 10.667322 1.169349 11697996
11.166804 10.118457 1.947821 11697996
10.904799 11.212466 1.332405 11697996
10.737434 11.065737 3.782175 11697996
9.876213 10.260543 1.953023 11697996
11.235232 10.373734 0.485335 11697996
10.522483 10.034696 2.065204 11697996
10.095340 9.821270 3.649642 11697996
9.402807 10.691863 2.053486 11697996
9.577209 10.312824 2.702166 11697996
9.799327 9.635429 0.944261 11697996
9.129545 8.861874 3.367141 11697996
9.565446 8.963956 0.035538 11697996
10.755670 10.040282 2.293856 11697996
9.506950 9.180925 3.795361 11697996
9.950230 9.902356 2.119863 11697996
9.396127 10.548869 0.398469 11697996
9.691251 10.166211 2.062131 11697996
9.383945 11.114161 3.852311 11697996
9.924544 9.943389 2.216439 11697996
8.959662 10.326028 0.934905 11697996
9.592284 9.596508 2.324176 11697996
11.146110 10.458782 1.165255 11697996
10.868465 10.395601 1.651658 11697996
9.380038 9.400009 0.072192 11697996
9.917238 10.041822 1.269169 11697996
11.158891 9.840028 1.125614 11697996
9.783218 9.315579 0.015964 11697996
9.007829 9.519138 1.790166 11697996
10.882498 9.471071 0.648675 11697996
9.651873 10.038711 1.437250 11697996
9.725030 10.820175 0.257675 11697996
11.225501 10.301135 3.980873 11697996
8.746286 9.736644 2.621711 11697996
9.996147 10.802286 3.160207 11697996
10.084755 9.997849 2.261696 11697996
11.149432 9.871191 2.125123 11697996
9.811950 10.181841 3.511772 11697996
8.950870 9.179175 2.369634 11697996
9.679655 10.399265 2.837682 11697996
10.530333 9.849413 3.817210 11697996
10.546185 9.609251 2.825686 11697996
8.997993 9.468421 2.944386 11697996
10.808591 11.218632 2.773612 11697996
11.214494 10.704843 0.462879 11697996
11.248674 8.760137 1.759556 11697996
9.803721 9.918893 2.488791 11697996
10.448799 8.905868 3.621892 11697996
10.647784 9.604546 1.701721 11697996
10.334616 8.874090 1.260619 11697996
9.718349 10.451050 3.790065 11697996
10.615922 10.461559 1.332609 11697996
10.154882 10.310504 3.654004 11697996
10.190946 9.226779 0.579855 11697996
9.829089 9.096751 1.046565 11697996
10.622818 10.646452 1.760520 11697996
9.949553 10.160453 0.469243 11697996
10.090532 10.421223 3.731720 11697996
10.224749 9.624228 1.570568 11697996
11.066894 9.458744 3.312735 11697996
9.750451 8.782183 3.524707 11697996
9.389717 9.784993 1.270868 11697996
8.923908 8.968383 3.430010 11697996
10.509505 10.534702 1.279866 11697996
10.252008 10.100597 0.203671 11697996
9.013402 10.461359 2.985014 11697996
10.696562 8.779468 1.109525 11697996
8.969927 9.045960 3.290297 11697996
9.746438 11.123252 2.944348 11697996
9.772315 10.938074 0.204683 11697996
11.042003 9.499845 2.043821 11697996
10.545633 10.141942 3.019039 11697996
9.232390 10.587134 2.762506 11697996
11.164910 10.896811 0.179386 11697996
10.095384 9.146818 1.887942 11697996
10.655701 10.237202 2.285965 11697996
11.209750 9.851780 3.123900 11697996
9.043292 10.033099 2.501631 11697996
10.909068 9.108128 1.238392 11697996
11.135839 10.812159 0.170152 11697996
10.406451 10.967354 3.284188 11697996
10.693494 10.841275 3.030102 11697996
9.515177 9.297657 1.110369 11697996
8.867314 9.922338 2.692027 11697996
10.021593 10.571489 3.663441 11697996
10.307894 10.473096 0.911831 11697996
10.285730 9.390771 2.797241 11697996
11.170581 10.989485 2.704860 11697996
9.569904 8.818385 1.097194 11697996
9.461215 9.606380 1.514584 11697996
10.143960 11.120686 2.541194 11697996
9.096302 9.252412 1.707031 11697996
9.374825 8.955575 2.923865 11697996
9.696065 9.750089 2.022701 11697996
10.729984 11.090083 3.675177 11697996
11.110743 10.395311 3.789980 11697996
10.980887 9.190151 -0.007998 11697996
11.118462 10.407000 3.178610 11697996
8.962699 9.008820 1.233611 11697996
8.914267 10.277024 3.059997 11697996
9.005874 9.532271 0.975482 11697996
9.303627 9.577029 2.694730 11697996
10.065814 9.138675 3.152374 11697996
8.763256 8.949979 0.454409 11697996
10.142730 10.306840 1.253437 11697996
8.821662 10.253659 0.915265 11697996
9.473425 10.128901 0.406384 11697996
9.588415 9.865789 1.772505 11697996
9.285461 9.136186 1.366417 11697996
10.000270 9.031993 0.946808 11697996
9.376298 9.538941 0.369001 11697996
9.284273 9.585612 0.311146 11697996
9.551339 10.386083 1.883536 11697996
9.052110 9.818734 3.728993 11697996
9.490068 10.025364 0.527349 11697996
9.785081 10.378033 0.654292 11697996
10.757438 11.165523 1.665686 11697996
11.020759 10.212649 0.753291 11697996
9.365309 9.080993 2.478962 11697996
10.081001 9.434444 1.642665 11697996
9.509803 10.062319 2.806027 11697996
10.072294 10.536319 2.631142 11697996
10.959207 9.709356 2.193782 11697996
10.818212 9.534382 0.723548 11697996
9.484524 11.239462 3.649890 11697996
11.203870 10.309345 0.534918 11697996
10.957765 10.510688 3.540972 11697996
11.005735 10.132427 2.394748 11697996
9.443066 8.812752 1.767618 11697996
10.426825 11.068090 0.513444 11697996
9.691606 9.010201 2.023039 11697996
9.668124 9.552140 2.036164 11697996
10.321031 9.628485 1.261062 11697996
9.989933 10.530238 1.335297 11697996
10.348008 9.673123 3.565278 11697996
11.205136 8.876464 0.824038 11697996
10.193344 9.140421 2.830055 11697996
9.520603 9.271631 2.113127 11697996
8.758185 9.386895 0.371372 11697996
9.667250 9.508533 0.689474 11697996
9.058908 10.126494 1.901005 11697996
11.043737 10.256083 1.538042 11697996
9.377628 10.072675 0.700036 11697996
10.133094 8.762871 0.024641 11697996
9.979162 10.487682 3.001069 11697996
9.158336 9.237589 2.538922 11697996
9.328162 9.306341 0.476213 11697996
10.787353 11.130652 3.970860 11697996
9.221498 10.324673 1.556961 11697996
9.886843 9.508341 3.546527 11697996
8.761010 9.426552 2.240429 11697996
10.345306 9.679389 2.777566 11697996
9.753103 11.198872 3.782419 11697996
10.350024 10.570979 2.989214 11697996
10.591941 10.992133 3.943366 11697996
11.205999 9.075974 2.745476 11697996
9.842279 9.368438 2.482882 11697996
10.288145 10.748671 3.257972 11697996
9.514750 10.215130 3.510608 11697996
9.277361 9.930446 0.100100 11697996
10.219494 10.807384 1.661903 11697996
10.733922 10.268151 1.997224 11697996
10.945720 10.593287 1.061342 11697996
10.114687 8.850424 1.846697 11697996
9.993108 10.325027 1.244632 11697996
11.104050 9.623186 1.924714 11697996
10.464825 9.476561 3.613876 11697996
9.964152 10.102213 0.936717 11697996
10.873553 10.954105 1.254190 11697996
10.222685 9.810666 2.546082 11697996
9.724625 9.148965 3.368261 11697996
9.737606 10.915697 2.219436 11697996
9.468275 10.394852 0.878093 11697996
10.903376 10.632046 3.434074 11697996
9.232268 9.623137 2.338609 11697996
9.003180 10.764428 0.005981 11697996
9.402379 10.898967 1.957553 11697996
9.886679 8.847960 3.050179 11697996
8.824544 9.773145 2.045821 11697996
8.975313 10.604174 0.329224 11697996
8.793107 9.259913 1.222589 11697996
10.865019 9.353236 1.052065 11697996
10.899219 10.438856 3.052654 11697996
9.096320 10.869580 3.839633 11697996
10.948979 9.471505 2.948104 11697996
10.888530 8.755133 0.329065 11697996
9.026050 10.371494 1.026555 11697996
10.409658 8.814431 1.923200 11697996
9.383349 9.307255 0.112380 11697996
9.598393 9.922969 1.239725 11697996
10.693952 8.936097 1.132103 11697996
9.073013 10.554929 0.984759 11697996
10.539373 10.178854 0.419773 11697996
11.026371 9.313666 1.907521 11697996
9.104632 9.895691 2.033526 11697996
10.134667 11.097873 2.777350 11697996
8.860272 9.169252 0.633729 11697996
9.504671 10.828074 3.743254 11697996
9.232520 9.646608 2.224455 11697996
9.268246 10.459455 0.187000 11697996
10.709049 9.881609 2.509040 11697996
9.523640 8.843122 3.752359 11697996
10.927799 10.051038 1.499479 11697996
9.094003 10.375543 1.704172 11697996
9.330078 9.364282 2.017058 11697996
10.264924 8.807317 3.904355 11697996
10.065034 9.184398 3.281568 11697996
10.707374 10.052576 3.201441 11697996
11.229415 10.604749 3.818545 11697996
9.269066 9.322477 2.121776 11697996
9.510284 10.939477 3.275452 11697996
10.014598 9.318095 0.505910 11697996
9.495415 10.447660 2.361236 11697996
10.943896 8.913905 1.127805 11697996
9.669884 10.353097 1.554132 11697996
10.512275 10.443743 1.542716 11697996
9.864732 9.094684 2.520809 11697996
9.289495 10.520025 2.094159 11697996
9.226564 10.070953 0.672059 11697996
9.602935 10.459431 3.771894 11697996
10.309066 9.825857 3.607049 11697996
10.031947 9.297094 2.000941 11697996
10.603087 9.805655 0.428729 11697996
11.217001 10.553884 3.156296 11697996
10.715852 9.656039 3.248879 11697996
10.248683 10.376273 0.757073 11697996
9.617831 10.314574 2.671525 11697996
10.986630 11.139298 3.950646 11697996
11.112700 11.191310 2.008450 11697996
9.213301 9.016980 0.248934 11697996
9.764538 9.776930 3.582028 11697996
9.314551 11.130465 1.598861 11697996
8.892663 10.561277 0.402628 11697996
11.153799 11.017216 2.701556 11697996
8.860595 10.680813 1.592115 11697996
10.643532 9.444712 1.051835 11697996
10.831472 9.595575 3.141331 11697996
10.159916 10.234679 0.966019 11697996
9.097816 9.698787 2.369958 11697996
11.092789 9.131518 0.528034 11697996
9.333684 8.848991 2.216239 11697996
10.910902 10.870708 2.321594 11697996
10.420075 10.712501 3.780207 11697996
9.465996 10.929461 0.975319 11697996
9.302622 10.209394 3.492479 11697996
10.334197 9.494395 2.915429 11697996
10.586323 10.433228 3.614992 11697996
8.849332 11.136344 1.247653 11697996
9.549454 10.206388 1.119797 11697996
9.632236 9.995082 3.169312 11697996
10.698846 10.348912 3.217886 11697996
10.147208 9.564054 0.175240 11697996
9.064120 8.884265 0.053841 11697996
9.533669 10.224294 1.434448 11697996
10.640353 9.565195 3.530911 11697996
9.110659 11.162243 0.550156 11697996
9.525599 11.142488 0.477033 11697996
10.729898 8.847932 1.585943 11697996
10.407748 10.814354 2.138955 11697996
11.222035 10.929630 3.066679 11697996
11.151878 8.898084 2.605570 11697996
9.908268 10.766944 3.915846 11697996
9.468584 10.403411 3.923301 11697996
9.130758 9.175092 3.171263 11697996
9.134834 10.542265 3.433437 11697996
10.963323 11.066359 2.828394 11697996
9.558717 10.458899 2.056967 11697996
9.387345 9.984962 3.711811 11697996
10.920336 9.709277 3.772976 11697996
9.612564 9.088361 0.408427 11697996
9.088593 9.184996 0.567031 11697996
9.536119 9.037361 1.351135 11697996
9.701116 10.347333 3.249712 11697996
10.819431 9.313241 0.739549 11697996
9.071959 10.186369 1.975830 11697996
9.500811 10.528130 1.108682 11697996
10.115750 9.260813 2.738628 11697996
9.491346 10.201362 -0.003821 11697996
9.400569 9.181145 0.210229 11697996
10.817789 9.861500 1.486894 11697996
9.839828 10.771817 0.167131 11697996
9.000882 9.698413 0.885318 11697996
10.182312 9.427979 2.039982 11697996
10.901774 9.242727 1.056181 11697996
8.894384 10.249141 1.847482 11697996
8.811365 11.009130 3.566293 11697996
10.564719 9.102955 2.376267 11697996
9.331881 10.930882 1.788726 11697996
10.599947 9.920106 0.552475 11697996
9.480857 9.150026 3.736253 11697996
10.309412 10.298269 0.012126 11697996
10.708998 9.038511 3.659718 11697996
9.127398 11.123540 3.954961 11697996
10.273765 9.271468 1.968974 11697996
8.826492 9.013728 3.657469 11697996
10.294650 9.212774 2.648122 11697996
9.749117 9.996808 3.927504 11697996
8.768675 9.790524 1.470021 11697996
9.258970 10.476557 2.126416 11697996
9.660357 10.687842 2.746497 11697996
9.292698 9.816865 2.140394 11697996
8.761655 10.227294 3.212668 11697996
9.299733 10.950908 0.111684 11697996
8.842370 9.438023 2.496875 11697996
10.875054 9.785688 1.544611 11697996
10.263855 9.788878 1.772786 11697996
10.423790 10.060549 2.360750 11697996
10.132185 9.201628 2.933554 11697996
10.112531 10.323661 3.486568 11697996
9.154873 10.090748 1.012924 11697996
9.358704 8.843662 2.607560 11697996
11.265413 11.131298 1.215619 11697996
9.074451 10.177096 2.592091 11697996
9.638239 9.702737 2.761686 11697996
9.363722 9.776544 1.709597 11697996
9.411527 10.849439 3.573278 11697996
10.689869 8.847002 2.784531 11697996
10.155112 9.317644 1.577637 11697996
10.934713 10.732517 3.820650 11697996
9.097739 9.430290 3.338841 11697996
10.084140 9.646591 0.876809 11697996
9.227938 10.985952 0.461243 11697996
9.014578 10.984561 1.953025 11697996
10.942882 10.820401 1.335158 11697996
9.904349 9.240979 3.214753 11697996
10.405568 9.835909 1.340211 11697996
10.273410 9.876874 3.906106 11697996
9.452365 9.095957 3.591648 11697996
9.750783 10.450104 3.213304 11697996
8.985153 9.818846 2.807440 11697996
10.325093 10.973909 0.428999 11697996
10.099095 10.988624 3.026918 11697996
9.033371 9.505930 0.275490 11697996
8.751793 10.172176 0.964372 11697996
9.674977 10.671958 0.555226 11697996
10.377945 10.163856 3.332218 11697996
9.135603 10.238169 3.665002 11697996
11.208669 10.334682 2.511201 11697996
10.953371 10.022376 2.828626 11697996
10.187263 10.015984 0.116962 11697996
10.528013 9.465183 1.674018 11697996
9.067247 9.133874 0.493787 11697996
8.908028 10.897487 0.523101 11697996
9.111266 10.219028 2.242027 11697996
9.781871 10.608302 2.003772 11697996
10.932714 9.396711 3.387048 11697996
9.009809 10.759378 2.015811 11697996
8.844841 10.141889 2.776895 11697996
9.734035 10.103287 0.640150 11697996
10.721093 10.712979 0.489235 11697996
9.371240 10.090045 3.239277 11697996
8.760683 8.995910 1.701236 11697996
9.595055 9.706707 1.406069 11697996
9.625795 11.140583 2.493697 11697996
11.056561 9.878314 2.824787 11697996
9.437067 9.416114 2.585880 11697996
9.322577 9.572648 1.670267 11697996
10.528508 11.206998 0.430523 11697996
9.260649 8.913794 3.384263 11697996
10.556205 9.767086 2.310004 11697996
9.987903 10.676181 1.587397 11697996
9.792665 11.172754 2.146335 11697996
10.622112 10.999011 2.302327 11697996
9.739513 11.090652 3.448915 11697996
10.114774 8.976812 0.088158 11697996
9.775770 10.486931 1.628116 11697996
8.859729 9.788001 2.764385 11697996
10.162427 9.924987 2.378997 11697996
10.958584 9.901619 1.825103 11697996
10.115222 10.698571 1.080968 11697996
9.245482 8.990911 3.228271 11697996
9.646561 9.631936 0.815556 11697996
9.795754 10.170268 0.988533 11697996
10.033222 9.896048 2.438620 11697996
11.199028 10.532360 3.340369 11697996
9.634342 9.979529 1.920567 11697996
10.653032 8.828701 0.228260 11697996
11.135700 9.361461 0.011252 11697996
11.121641 9.362959 0.852699 11697996
9.740695 10.322564 1.562007 11697996
10.388126 8.951344 0.623250 11697996
11.139635 8.854343 2.802608 11697996
11.219837 9.411710 3.252563 11697996
11.106583 9.201960 2.086495 11697996
11.171817 10.739365 3.947775 11697996
10.524595 9.705070 2.570036 11697996
10.102367 10.151675 0.357285 11697996
10.822291 10.445250 1.384449 11697996
9.522551 8.820703 1.571058 11697996
9.336133 9.983832 3.423349 11697996
10.728777 10.512701 2.072269 11697996
10.867520 8.830386 2.293172 11697996
9.030627 8.852521 3.380236 11697996
10.200665 10.761756 0.399771 11697996
11.119435 10.945411 3.482087 11697996
10.673668 10.461783 3.063099 11697996
9.352883 9.982975 3.400494 11697996
10.357186 11.075216 0.787765 11697996
10.070574 9.370104 0.881567 11697996
10.606814 10.377720 1.693978 11697996
9.998828 10.168334 3.390038 11697996
9.610902 10.035642 2.746299 11697996
10.492897 9.168623 1.188688 11697996
9.970011 9.576443 1.764459 11697996
10.776749 10.251303 1.752239 11697996
10.693797 11.031836 0.903473 11697996
11.096635 9.866678 2.072378 11697996
10.475320 10.157335 1.554327 11697996
11.042893 9.270823 3.884089 11697996
9.177755 9.692595 2.571419 11697996
10.528208 10.313090 2.317533 11697996
9.542620 10.817180 1.726085 11697996
10.510939 9.518091 3.997299 11697996
10.322634 10.343181 1.581816 11697996
9.313224 9.787287 0.304788 11697996
9.039820 10.663183 2.502266 11697996
11.075099 10.992861 3.016804 11697996
9.340549 9.528627 0.114453 11697996
9.417944 10.502480 2.603926 11697996
9.275484 10.072208 -0.015316 11697996
10.360137 9.587644 0.279262 11697996
9.931330 11.009907 1.133454 11697996
10.080694 9.898358 0.975734 11697996
9.987666 9.888572 1.799363 11697996
8.954394 9.031922 0.519463 11697996
10.222535 10.352115 3.602777 11697996
10.799355 10.470388 1.530758 11697996
9.289408 10.566339 3.032173 11697996
8.972888 9.331515 3.947765 11697996
9.276910 9.357583 3.747019 11697996
10.510902 10.339790 0.154075 11697996
11.169992 11.040518 2.777070 11697996
10.143188 10.422097 4.021412 11697996
9.030670 11.031123 2.443451 11697996
9.960525 10.584234 1.078743 11697996
10.730029 10.425823 0.990187 11697996
10.291246 9.887535 1.930714 11697996
9.258095 9.845828 3.128692 11697996
10.848541 9.950619 1.312461 11697996
11.222225 8.813847 0.174382 11697996
9.269847 9.550394 1.905967 11697996
9.461098 10.233809 3.936484 11697996
10.611505 10.937895 2.732615 11697996
9.786015 9.407131 2.248993 11697996
11.173872 10.715610 1.627611 11697996
9.087501 10.805153 0.267089 11697996
9.664622 9.686505 0.144327 11697996
9.750059 9.011345 2.254794 11697996
9.858133 11.051958 3.580089 11697996
10.626992 9.151970 3.457294 11697996
9.440322 10.163223 1.861053 11697996
9.660241 9.875201 3.415203 11697996
10.212915 9.603278 3.201634 11697996
10.904367 8.800128 0.651135 11697996
10.185042 9.802217 1.636699 11697996
9.429833 8.995796 3.401889 11697996
10.102262 10.824984 2.295600 11697996
10.128047 9.894299 3.392862 11697996
9.801699 9.055361 2.992704 11697996
11.130073 9.586002 1.217350 11697996
9.169943 9.642374 2.730564 11697996
9.119820 10.052460 1.830480 11697996
11.039356 10.307016 3.435134 11697996
9.025008 9.597863 0.175155 11697996
10.621502 9.783016 1.377018 11697996
10.990568 10.150767 0.084102 11697996
10.424872 10.177043 2.331282 11697996
10.415533 10.573798 2.559247 11697996
10.958926 9.784459 3.770278 11697996
9.425526 10.741844 3.118075 11697996
8.784986 9.802773 3.747663 11697996
10.421686 9.070431 0.423864 11697996
8.877245 9.582797 0.128028 11697996
10.935389 9.872317 1.893228 11697996
10.407295 10.338279 1.409482 11697996
9.034124 9.183702 1.538114 11697996
11.041991 8.934659 1.410585 11697996
9.215096 10.498799 1.169952 11697996
9.557272 11.011838 0.782978 11697996
10.636673 10.976480 2.837171 11697996
11.140933 10.751073 0.130676 11697996
9.153818 8.893292 0.230628 11697996
9.884425 10.006123 3.841159 11697996
10.465324 9.552895 2.674804 11697996
11.078678 10.859679 2.927309 11697996
9.992306 10.762147 0.062599 11697996
10.311979 9.048102 0.303544 11697996
10.406157 10.929297 0.982320 11697996
8.763222 9.453716 0.781005 11697996
9.331673 11.065517 1.245351 11697996
10.708956 8.988862 1.534628 11697996
9.966662 10.645237 0.410732 11697996
10.686609 9.838522 1.734685 11697996
10.266825 10.112408 3.918467 11697996
10.610100 9.425106 3.062742 11697996
10.147901 11.147310 0.270940 11697996
8.996758 9.898347 1.672750 11697996
9.570776 10.110298 3.799281 11697996
9.727324 10.764184 1.264240 11697996
11.068813 11.010339 0.428799 11697996
10.245377 9.204940 2.170457 11697996
8.783450 9.141309 1.856247 11697996
8.745701 9.216627 1.232976 11697996
8.871791 9.562387 2.078659 11697996
9.322354 10.870076 1.820899 11697996
9.024907 10.285720 2.108581 11697996
8.982980 10.653191 1.964468 11697996
9.172734 10.550442 0.329792 11697996
10.114252 11.187932 2.690847 11697996
9.339929 10.151746 3.504678 11697996
11.104960 10.556308 2.657116 11697996
10.702937 9.798008 0.645037 11697996
9.622611 8.983753 2.030290 11697996
10.361983 10.295339 3.023275 11697996
10.207927 9.184704 1.894648 11697996
11.244724 9.865613 1.960025 11697996
11.058418 9.208936 2.240693 11697996
9.940828 11.000601 1.746989 11697996
11.195378 9.515270 1.490549 11697996
9.976802 9.171051 1.409490 11697996
10.675745 10.583517 3.135962 11697996
11.085620 11.144620 3.769758 11697996
9.913390 9.207464 3.639773 11697996
11.223852 11.186662 0.618735 11697996
9.183469 9.260346 3.891845 11697996
10.810081 10.282449 2.593811 11697996
10.128411 10.211399 0.380182 11697996
9.825080 10.261506 0.590565 11697996
10.367597 8.750777 0.273562 11697996
10.466831 9.635522 2.674085 11697996
9.452812 9.158814 2.370518 11697996
8.771794 10.461941 3.933660 11697996
10.849071 10.104928 2.881341 11697996
10.604262 11.038538 3.469470 11697996
9.111588 9.716397 3.619548 11697996
8.804880 9.473443 0.874181 11697996
9.309353 10.840261 2.037534 11697996
10.187593 9.496394 2.940611 11697996
9.653364 9.833589 0.643554 11697996
11.063146 9.802619 2.106852 11697996
10.094608 10.327396 2.323524 11697996
10.745532 11.136264 1.871181 11697996
10.210286 9.660429 3.256452 11697996
8.787568 9.200391 0.259884 11697996
10.780487 9.792369 3.115001 11697996
11.207627 8.823643 0.987345 11697996
9.688166 10.464770 2.701704 11697996
10.909220 10.540480 1.844511 11697996
9.785908 10.806164 3.992404 11697996
10.674918 10.451305 0.131211 11697996
11.048747 9.003353 1.007047 11697996
10.184458 9.153285 0.968496 11697996
10.210759 11.155843 2.427987 11697996
9.527278 11.008792 0.762585 11697996
9.586045 10.613008 0.784481 11697996
9.028714 8.959159 1.423286 11697996
10.746656 9.792027 2.770046 11697996
10.428385 10.020269 2.193205 11697996
10.568200 8.876137 2.495475 11697996
9.002844 11.182162 1.118409 11697996
9.614277 10.179487 3.544538 11697996
9.655466 10.909724 2.907752 11697996
10.581666 9.148557 0.997194 11697996
8.838117 9.149640 1.162615 11697996
11.090001 10.719890 1.713340 11697996
8.932574 9.610790 3.355748 11697996
10.677025 9.115709 2.221873 11697996
10.688997 9.843992 3.855802 11697996
8.854696 9.438783 1.891995 11697996
10.009398 9.287947 1.368751 11697996
10.589454 9.940073 0.745516 11697996
9.520125 10.780534 3.172085 11697996
9.237171 9.559554 3.048401 11697996
10.187219 9.446152 2.866395 11697996
11.203358 9.866337 0.526697 11697996
10.867863 9.453050 0.513467 11697996
10.017765 11.171621 0.781626 11697996
9.640065 9.369580 0.554266 11697996
9.495242 9.592960 3.624943 11697996
9.701198 9.355030 3.474443 11697996
9.862362 9.978145 3.144298 11697996
9.260226 9.731929 2.406309 11697996
9.617261 9.346955 1.804271 11697996
8.788716 9.997755 0.802945 11697996
10.822746 10.533426 0.119821 11697996
8.893111 10.703098 0.369957 11697996
11.089429 11.198268 3.641105 11697996
10.426210 9.255366 1.190742 11697996
10.364671 8.859872 3.465558 11697996
11.181903 11.253596 3.789614 11697996
10.985733 9.805553 1.203712 11697996
11.089588 9.341275 2.894193 11697996
10.031005 10.891903 3.847670 11697996
9.992264 9.918595 2.978722 11697996
10.635987 11.032026 1.456845 11697996
9.921995 10.878894 0.988536 11697996
9.792279 9.637660 2.258455 11697996
10.768038 9.306252 3.287520 11697996
9.460250 9.714318 0.265859 11697996
10.504015 9.131202 2.421632 11697996
8.830304 9.352011 1.341074 11697996
10.530520 9.536179 3.660994 11697996
11.085823 9.098003 1.261074 11697996
10.314045 8.785782 1.717330 11697996
10.905021 10.704451 2.708280 11697996
9.624718 8.987408 1.281172 11697996
8.785767 9.695908 0.377865 11697996
8.840179 9.089671 3.142377 11697996
10.559462 10.720448 2.096534 11697996
10.430960 9.858912 1.362543 11697996
10.388926 8.994440 3.775033 11697996
10.340594 10.697748 2.369780 11697996
11.016991 8.817734 0.191100 11697996
9.029171 9.534629 2.725776 11697996
10.519238 9.772359 2.975818 11697996
10.765560 10.273920 3.111974 11697996
10.416245 8.979435 1.403028 11697996
10.126251 9.673494 2.033389 11697996
9.530286 11.071913 1.920159 11697996
9.778621 9.477508 1.377047 11697996
9.297297 10.489141 3.820621 11697996
10.904809 9.668024 0.740957 11697996
9.786558 10.576137 2.614024 11697996
8.835503 9.833141 1.605631 11697996
10.276295 10.296420 3.730068 11697996
8.760612 9.752304 1.665498 11697996
9.408204 10.166694 1.820163 11697996
9.473139 9.539978 0.057277 11697996
9.906736 10.147017 1.846198 11697996
9.457573 8.768759 2.146783 11697996
9.430747 10.118164 0.435164 11697996
9.298013 8.774484 3.969829 11697996
8.967396 10.383108 2.375042 11697996
9.612038 10.052277 1.686725 11697996
9.250310 9.874478 0.885375 11697996
10.792158 10.844891 1.393802 11697996
11.178879 9.872404 3.180773 11697996
10.551757 10.234154 1.272254 11697996
8.953564 10.603854 3.737893 11697996
10.545983 10.233997 2.767859 11697996
9.731081 9.257736 3.528728 11697996
10.949142 11.138062 0.942608 11697996
10.371453 10.674282 2.625485 11697996
10.207546 10.642903 1.225721 11697996
10.484310 9.438476 2.190419 11697996
9.904385 9.364483 0.055442 11697996
9.605133 10.686126 0.604489 11697996
10.355988 9.278563 0.275565 11697996
9.014494 10.760761 0.486949 11697996
10.395262 10.933211 2.008863 11697996
10.051241 9.057405 2.648112 11697996
10.181362 9.212292 3.797036 11697996
10.827826 9.850662 2.887775 11697996
10.333694 11.152528 1.071075 11697996
10.971630 9.057312 0.483532 11697996
11.141210 10.032629 1.427430 11697996
9.393063 10.222382 3.564091 11697996
9.054177 8.820275 1.272058 11697996
10.328843 10.549565 1.349210 11697996
8.953934 8.930591 3.231644 11697996
10.256693 9.177476 3.885008 11697996
9.127664 10.314597 2.630303 11697996
9.214025 9.836998 0.662100 11697996
9.835456 11.094984 3.310753 11697996
8.990434 10.307600 3.208958 11697996
8.826934 11.229064 2.886580 11697996
9.402816 10.309287 3.551596 11697996
11.148636 11.214604 0.490005 11697996
8.959905 9.276915 0.621607 11697996
10.241007 8.991353 3.669586 11697996
10.441573 11.085988 0.589249 11697996
8.746508 9.820814 3.644862 11697996
10.142287 10.359853 3.555027 11697996
9.589877 10.205636 1.125623 11697996
9.688047 8.778759 3.140413 11697996
10.029604 9.503916 3.121287 11697996
10.551795 9.809861 2.854985 11697996
9.348447 9.013384 1.068942 11697996
10.808929 11.055875 1.584868 11697996
9.900725 9.296497 3.081768 11697996
10.327391 9.413518 1.290082 11697996
10.398727 10.912187 3.294806 11697996
8.862963 9.647855 1.932218 11697996
9.234422 10.800787 3.026361 11697996
9.398949 10.790664 1.303733 11697996
9.300413 9.870308 2.368463 11697996
11.098548 9.035046 0.223682 11697996
10.076402 8.999452 1.884203 11697996
10.685287 9.904934 1.133243 11697996
10.330353 10.170156 0.632996 11697996
10.947489 9.682275 3.089658 11697996
8.866867 10.648996 1.584870 11697996
10.215889 9.642558 3.059330 11697996
9.036766 10.516232 3.420388 11697996
10.238069 10.455697 -0.011214 11697996
9.095303 10.392004 2.126696 11697996
9.823869 10.521878 1.653144 11697996
10.087496 9.871295 1.472779 11697996
10.849552 9.918709 1.295173 11697996
9.522691 8.989236 1.841843 11697996
10.582979 9.207668 2.174667 11697996
11.215805 10.329546 3.100760 11697996
11.208946 9.356397 3.491059 11697996
9.941741 9.034101 1.561673 11697996
10.971214 9.814503 1.110696 11697996
11.203438 10.062423 0.404655 11697996
9.857202 8.786570 2.287810 11697996
10.052191 9.498490 2.355526 11697996
9.994727 10.758773 1.731239 11697996
9.910566 9.972178 2.861767 11697996
9.935296 10.692316 3.816398 11697996
10.717379 9.334527 2.481308 11697996
9.462349 8.940804 0.272041 11697996
9.331872 8.844442 0.481400 11697996
9.076613 10.615272 3.223596 11697996
8.927547 9.536490 3.312599 11697996
