# .PCD v0.7 - Point Cloud Data file format
VERSION 0.7
FIELDS x y z rgb
SIZE 4 4 4 4
TYPE F F F U
COUNT 1 1 1 1
WIDTH 1278
HEIGHT 1
VIEWPOINT 0 0 0 1 0 0 0
POINTS 1278
DATA ascii
10.085093 9.998075 2.265578 11697996
11.143906 9.847828 2.140493 11697996
9.838691 10.177778 3.467504 11697996
8.978196 9.194831 2.384656 11697996
9.646963 10.384461 2.852630 11697996
10.534758 9.824086 3.809413 11697996
10.571380 9.581367 2.805949 11697996
8.996511 9.476116 2.938645 11697996
10.843909 11.225818 2.778506 11697996
11.206264 10.731731 0.442459 11697996
11.215003 8.769223 1.772695 11697996
9.820663 9.933795 2.503164 11697996
10.470593 8.928384 3.620217 11697996
10.674621 9.621338 1.679002 11697996
10.315839 8.936872 1.274403 11697996
9.735953 10.450040 3.816125 11697996
10.609441 10.432940 1.296645 11697996
10.149676 10.337123 3.657816 11697996
10.185257 9.214876 0.614195 11697996
9.837924 9.092414 1.043222 11697996
10.564682 10.667780 1.781098 11697996
9.952801 10.181911 0.434929 11697996
10.067540 10.390464 3.712774 11697996
10.208625 9.621405 1.572444 11697996
11.086167 9.452805 3.307578 11697996
9.745262 8.760859 3.526634 11697996
9.394654 9.815000 1.276446 11697996
8.940225 8.981194 3.408280 11697996
10.495318 10.518120 1.238500 11697996
10.237524 10.072894 0.215506 11697996
8.999355 10.440831 2.973331 11697996
10.698393 8.811670 1.091205 11697996
8.965314 9.035867 3.287557 11697996
9.771813 11.126917 2.941391 11697996
9.774112 10.935734 0.198947 11697996
11.029958 9.478671 2.016232 11697996
10.517518 10.115635 3.023118 11697996
9.229098 10.598763 2.799978 11697996
11.163711 10.902690 0.198651 11697996
10.102974 9.158962 1.891023 11697996
10.646160 10.269937 2.272673 11697996
11.192563 9.854922 3.093299 11697996
9.007567 10.069998 2.467667 11697996
10.945656 9.100498 1.206730 11697996
11.133785 10.801378 0.172210 11697996
10.387288 10.986667 3.271331 11697996
10.708103 10.789358 3.021019 11697996
9.476565 9.331962 1.089300 11697996
8.900853 9.894332 2.680932 11697996
9.993563 10.550824 3.693058 11697996
10.289930 10.458841 0.928391 11697996
10.270582 9.399651 2.794884 11697996
11.162627 10.990883 2.700121 11697996
9.571267 8.824430 1.105360 11697996
9.486618 9.577173 1.526503 11697996
10.148705 11.115403 2.546518 11697996
9.116741 9.231877 1.737585 11697996
9.349536 8.940426 2.935906 11697996
9.671950 9.712371 2.031155 11697996
10.710443 11.068861 3.687194 11697996
11.106817 10.377248 3.789469 11697996
10.967863 9.175144 0.012708 11697996
11.140724 10.428850 3.180648 11697996
8.973231 9.036409 1.214348 11697996
8.907134 10.251618 3.077336 11697996
9.008935 9.533804 0.979829 11697996
9.313144 9.567825 2.680771 11697996
10.080403 9.139298 3.156224 11697996
8.762288 8.946542 0.442188 11697996
10.132948 10.313613 1.254940 11697996
8.832136 10.260852 0.911862 11697996
9.498755 10.145399 0.404585 11697996
9.616461 9.891689 1.759466 11697996
9.308297 9.177114 1.343236 11697996
9.993793 9.024328 0.961448 11697996
9.389326 9.549236 0.347876 11697996
9.258477 9.590829 0.288417 11697996
9.561639 10.350796 1.857723 11697996
9.053279 9.840148 3.710565 11697996
9.495665 10.024010 0.505246 11697996
9.817736 10.369947 0.692355 11697996
10.765558 11.140894 1.674475 11697996
10.997880 10.242771 0.758421 11697996
9.354845 9.093966 2.481149 11697996
10.053537 9.436681 1.662088 11697996
9.499840 10.052962 2.807801 11697996
10.074370 10.522197 2.626720 11697996
10.976284 9.715313 2.190485 11697996
10.808091 9.563764 0.680033 11697996
9.448492 11.230322 3.624250 11697996
11.201259 10.272444 0.554399 11697996
10.930989 10.506558 3.549370 11697996
11.002756 10.102913 2.400645 11697996
9.421897 8.813779 1.804279 11697996
10.409021 11.081173 0.529921 11697996
9.693041 9.010053 1.999193 11697996
9.667130 9.570692 2.033603 11697996
10.311933 9.604935 1.246502 11697996
9.976041 10.500434 1.350806 11697996
10.369154 9.675128 3.552150 11697996
11.183063 8.867382 0.829606 11697996
10.193957 9.132303 2.863617 11697996
9.514256 9.310595 2.091836 11697996
8.741430 9.391397 0.362908 11697996
9.711585 9.479723 0.679004 11697996
9.046919 10.138959 1.870833 11697996
11.058757 10.259299 1.540120 11697996
9.377922 10.099196 0.677647 11697996
10.125072 8.771691 0.031302 11697996
10.003746 10.468619 3.024173 11697996
9.121775 9.231010 2.544727 11697996
9.309013 9.281039 0.494197 11697996
10.781509 11.170105 3.959167 11697996
9.203785 10.308114 1.514734 11697996
9.912407 9.502052 3.573357 11697996
8.809215 9.445178 2.243435 11697996
10.342419 9.682307 2.784187 11697996
9.770626 11.191452 3.796092 11697996
10.338855 10.576569 3.025610 11697996
10.566159 10.956856 3.961600 11697996
11.210535 9.113076 2.787836 11697996
9.822032 9.394214 2.460845 11697996
10.280965 10.726842 3.245163 11697996
9.504787 10.212571 3.499205 11697996
9.279065 9.976904 0.113896 11697996
10.246311 10.848378 1.705128 11697996
10.737256 10.291118 1.996825 11697996
10.899783 10.598933 1.061695 11697996
10.128429 8.878659 1.868814 11697996
10.031613 10.303082 1.228206 11697996
11.124770 9.611990 1.921142 11697996
10.478803 9.467239 3.631058 11697996
9.946227 10.072050 0.900318 11697996
10.863079 10.938346 1.249480 11697996
10.238379 9.808066 2.545908 11697996
9.704268 9.184578 3.361111 11697996
9.716628 10.902835 2.221066 11697996
9.497727 10.394788 0.843914 11697996
10.865339 10.650110 3.406846 11697996
9.243954 9.611896 2.330016 11697996
9.034672 10.753633 0.019274 11697996
9.444177 10.914117 1.948311 11697996
9.875487 8.867371 3.053736 11697996
8.837688 9.797787 2.033878 11697996
8.989018 10.636250 0.318107 11697996
8.794809 9.290029 1.228642 11697996
10.885539 9.344697 1.049306 11697996
10.899951 10.442285 3.041993 11697996
9.066764 10.850156 3.809770 11697996
10.946486 9.523427 2.983481 11697996
10.872317 8.760402 0.321020 11697996
9.024145 10.377007 1.040062 11697996
10.403702 8.835218 1.943134 11697996
9.371159 9.304770 0.064291 11697996
9.596489 9.930151 1.246189 11697996
10.736359 8.951988 1.108079 11697996
9.085847 10.535920 0.997442 11697996
10.563297 10.172985 0.392761 11697996
11.025159 9.327495 1.882846 11697996
9.074377 9.881242 1.973422 11697996
10.113206 11.117043 2.749036 11697996
8.848661 9.199616 0.641752 11697996
9.516695 10.808284 3.745664 11697996
9.264482 9.637762 2.213765 11697996
9.227732 10.440753 0.161674 11697996
10.682256 9.870012 2.489633 11697996
9.545456 8.820737 3.778798 11697996
10.931124 10.038593 1.485605 11697996
9.058543 10.364285 1.676939 11697996
9.329307 9.378868 2.023443 11697996
10.269041 8.829035 3.935050 11697996
10.073952 9.189753 3.280771 11697996
10.722125 10.054536 3.188066 11697996
11.222816 10.633399 3.800548 11697996
9.263187 9.286169 2.153152 11697996
9.518519 10.982763 3.251747 11697996
10.040352 9.338110 0.459885 11697996
9.518798 10.471561 2.372778 11697996
10.926063 8.914128 1.130318 11697996
9.657555 10.350196 1.572498 11697996
10.507959 10.429295 1.516425 11697996
9.866775 9.085843 2.533562 11697996
9.299335 10.528014 2.091615 11697996
9.209107 10.051671 0.654995 11697996
9.618815 10.464915 3.783864 11697996
10.297234 9.792774 3.623906 11697996
10.029820 9.302094 2.002169 11697996
10.645722 9.816015 0.436311 11697996
11.246650 10.541579 3.189377 11697996
10.731965 9.621178 3.233309 11697996
10.248971 10.371842 0.743824 11697996
9.628079 10.316348 2.642485 11697996
10.997258 11.131477 3.960589 11697996
11.101989 11.189746 2.000857 11697996
9.204298 9.014753 0.235325 11697996
9.779227 9.781580 3.567507 11697996
9.299103 11.094744 1.631677 11697996
8.931298 10.580199 0.406343 11697996
11.190320 11.011177 2.691897 11697996
8.876203 10.661202 1.575392 11697996
10.652069 9.407957 1.038962 11697996
10.856743 9.582255 3.182930 11697996
10.176682 10.230820 0.963257 11697996
9.078255 9.686483 2.353792 11697996
11.103456 9.103401 0.556957 11697996
9.341365 8.841561 2.192523 11697996
10.929401 10.886198 2.315349 11697996
10.466635 10.735772 3.780310 11697996
9.478576 10.949208 0.988927 11697996
9.279480 10.248487 3.525482 11697996
10.328383 9.470655 2.937914 11697996
10.598894 10.433054 3.607729 11697996
8.852328 11.123377 1.211194 11697996
9.527416 10.231102 1.107316 11697996
9.617147 10.025568 3.208749 11697996
10.715340 10.355108 3.198110 11697996
10.176034 9.546725 0.182908 11697996
9.045238 8.883144 0.029791 11697996
9.544675 10.229585 1.435958 11697996
10.633552 9.582560 3.580667 11697996
9.121348 11.189533 0.585930 11697996
9.564464 11.141189 0.446241 11697996
10.732727 8.832987 1.576324 11697996
10.422007 10.824118 2.128035 11697996
11.225972 10.925325 3.062102 11697996
11.167311 8.890937 2.594154 11697996
9.912332 10.774527 3.914453 11697996
9.443351 10.399671 3.939617 11697996
9.124798 9.183864 3.169483 11697996
9.145482 10.562162 3.418652 11697996
10.920541 11.071449 2.867021 11697996
9.589466 10.454291 2.087105 11697996
9.367627 9.980079 3.717031 11697996
10.903504 9.731406 3.803327 11697996
9.616364 9.064472 0.387133 11697996
9.095431 9.208549 0.567015 11697996
9.505979 9.068211 1.346995 11697996
9.758958 10.335109 3.275836 11697996
10.824952 9.304691 0.769006 11697996
9.045584 10.182351 1.974446 11697996
9.517529 10.530024 1.093739 11697996
10.103121 9.251147 2.758278 11697996
9.466112 10.172638 0.030109 11697996
9.416338 9.187038 0.244123 11697996
10.840921 9.870717 1.521576 11697996
9.830900 10.762709 0.192894 11697996
9.009248 9.736873 0.907243 11697996
10.188774 9.425869 2.047521 11697996
10.916759 9.266418 1.041260 11697996
8.880480 10.268418 1.825816 11697996
8.813842 10.975798 3.591734 11697996
10.563000 9.123044 2.365922 11697996
9.316630 10.923615 1.824653 11697996
10.585946 9.895569 0.565282 11697996
9.469777 9.139000 3.731122 11697996
10.306363 10.267748 0.044814 11697996
10.706894 8.999110 3.692649 11697996
9.127566 11.079078 3.945940 11697996
10.268933 9.313866 1.957898 11697996
8.816626 9.022856 3.648656 11697996
10.293544 9.239630 2.686466 11697996
9.752440 9.987160 3.951472 11697996
8.764632 9.816604 1.515421 11697996
9.275681 10.464058 2.115675 11697996
9.669543 10.671350 2.785197 11697996
9.311302 9.840354 2.114595 11697996
8.766636 10.275431 3.207401 11697996
9.290513 10.958155 0.061001 11697996
8.830379 9.466184 2.490755 11697996
10.853362 9.806938 1.550291 11697996
10.252501 9.785063 1.744971 11697996
10.472034 10.061488 2.327926 11697996
10.153884 9.203405 2.924713 11697996
10.117119 10.325977 3.497676 11697996
9.144589 10.059998 1.005447 11697996
9.370700 8.849726 2.590558 11697996
11.247846 11.132747 1.202461 11697996
9.105311 10.156009 2.578128 11697996
9.649884 9.721612 2.742684 11697996
9.366398 9.786257 1.668687 11697996
9.356165 10.824679 3.580709 11697996
10.715839 8.866800 2.796212 11697996
10.152562 9.359827 1.600007 11697996
10.920578 10.703420 3.806873 11697996
9.127967 9.459154 3.330121 11697996
10.043168 9.647442 0.882819 11697996
9.230012 10.931127 0.440491 11697996
9.018740 11.018633 1.929146 11697996
10.926466 10.838528 1.333158 11697996
9.878915 9.267915 3.213784 11697996
10.362693 9.812302 1.346940 11697996
10.295809 9.884118 3.887145 11697996
9.463878 9.082283 3.597169 11697996
9.800016 10.478338 3.214043 11697996
8.988119 9.800035 2.776235 11697996
10.370859 10.974988 0.429342 11697996
10.141256 10.981805 2.986022 11697996
8.990379 9.479152 0.252235 11697996
8.764808 10.151609 1.002898 11697996
9.695736 10.656391 0.577050 11697996
10.353795 10.169992 3.299084 11697996
9.103273 10.242025 3.660627 11697996
11.215408 10.313941 2.538961 11697996
10.931739 10.020682 2.840229 11697996
10.179473 10.017333 0.118535 11697996
10.534789 9.421641 1.676115 11697996
9.110595 9.141106 0.522704 11697996
8.908214 10.907099 0.514656 11697996
9.110479 10.211449 2.269099 11697996
9.795229 10.624769 2.023185 11697996
10.943021 9.384293 3.398185 11697996
9.006572 10.760970 2.058483 11697996
8.836519 10.146904 2.773169 11697996
9.759116 10.075795 0.633460 11697996
10.745514 10.682825 0.507641 11697996
9.352547 10.118364 3.245443 11697996
8.793652 8.948548 1.695822 11697996
9.627734 9.718889 1.413066 11697996
9.554461 11.097534 2.495046 11697996
11.040833 9.895575 2.822539 11697996
9.449869 9.437163 2.575628 11697996
9.317361 9.605800 1.716914 11697996
10.572200 11.213667 0.389501 11697996
9.258531 8.885355 3.416949 11697996
10.620993 9.801786 2.302556 11697996
9.966999 10.643507 1.568732 11697996
9.827966 11.150845 2.141165 11697996
10.634230 11.009615 2.288766 11697996
9.696188 11.093464 3.442696 11697996
10.126228 8.969940 0.105593 11697996
9.767506 10.479202 1.660252 11697996
8.835175 9.772321 2.744539 11697996
10.153092 9.924389 2.378332 11697996
10.967489 9.908756 1.835180 11697996
10.122104 10.697728 1.102963 11697996
9.275626 8.980531 3.208007 11697996
9.633971 9.616992 0.803649 11697996
9.775295 10.168413 1.036594 11697996
10.057520 9.919478 2.445384 11697996
11.218180 10.533690 3.326100 11697996
9.630027 9.976596 1.910745 11697996
10.679479 8.828537 0.230164 11697996
11.164989 9.345729 0.006418 11697996
11.115812 9.345345 0.841763 11697996
9.742762 10.274435 1.569981 11697996
10.401934 8.960808 0.704723 11697996
11.139857 8.872804 2.802835 11697996
11.237883 9.419758 3.310318 11697996
11.101334 9.173311 2.065974 11697996
11.159004 10.740378 3.912939 11697996
10.552918 9.692633 2.559057 11697996
10.089867 10.165040 0.342221 11697996
10.807490 10.481384 1.365792 11697996
9.500476 8.838696 1.556626 11697996
9.298131 9.927574 3.450045 11697996
10.712974 10.502606 2.083750 11697996
10.917200 8.823956 2.281046 11697996
9.038285 8.877840 3.389798 11697996
10.212366 10.754198 0.429518 11697996
11.118567 10.928811 3.497509 11697996
10.632381 10.453932 3.024112 11697996
9.320115 10.001651 3.410307 11697996
10.410191 11.053414 0.764435 11697996
10.099224 9.366661 0.847542 11697996
10.535732 10.387506 1.668483 11697996
10.020153 10.151917 3.388302 11697996
9.655032 10.031339 2.746878 11697996
10.535994 9.151258 1.170814 11697996
9.971265 9.572110 1.774459 11697996
10.769332 10.235399 1.786111 11697996
10.691705 11.032461 0.921614 11697996
11.091658 9.853017 2.081556 11697996
10.464825 10.197584 1.545708 11697996
11.007933 9.282078 3.908558 11697996
9.168923 9.710819 2.580278 11697996
10.524680 10.313425 2.333957 11697996
9.553786 10.826530 1.697706 11697996
10.504622 9.509132 3.965492 11697996
10.298053 10.349709 1.581861 11697996
9.320045 9.782462 0.269856 11697996
9.006575 10.665419 2.504270 11697996
11.017181 10.989905 2.963804 11697996
9.255705 9.530993 0.101357 11697996
9.413466 10.510286 2.626281 11697996
9.260063 10.089639 0.017260 11697996
10.382547 9.604152 0.333254 11697996
9.953899 11.037518 1.122906 11697996
10.082885 9.874467 0.946711 11697996
10.002139 9.902558 1.782117 11697996
8.977380 9.023811 0.495680 11697996
10.195166 10.350235 3.627133 11697996
10.823832 10.472204 1.525097 11697996
9.286294 10.545496 3.041658 11697996
8.965363 9.324314 3.934541 11697996
9.283837 9.367256 3.737778 11697996
10.502654 10.315203 0.159881 11697996
11.215813 11.058779 2.785040 11697996
10.155724 10.426203 4.004468 11697996
9.007613 11.071093 2.430143 11697996
10.001503 10.592970 1.087107 11697996
10.718388 10.400814 0.979794 11697996
10.273385 9.910951 1.923913 11697996
9.245263 9.860273 3.120164 11697996
10.856026 9.964566 1.291864 11697996
11.235532 8.808065 0.130169 11697996
9.282843 9.569922 1.867479 11697996
9.443264 10.238738 3.926682 11697996
10.633730 10.943713 2.742252 11697996
9.801573 9.436987 2.249521 11697996
11.169621 10.754805 1.636461 11697996
9.069344 10.788284 0.289230 11697996
9.630973 9.679127 0.161235 11697996
9.746160 9.029949 2.249522 11697996
9.848094 11.048022 3.553776 11697996
10.637009 9.145442 3.468167 11697996
9.447374 10.159615 1.861195 11697996
9.662433 9.860186 3.424362 11697996
10.200185 9.600874 3.208359 11697996
10.890104 8.792449 0.606335 11697996
10.185850 9.774047 1.618707 11697996
9.487106 9.023168 3.374093 11697996
10.097946 10.784613 2.281119 11697996
10.137191 9.895585 3.368764 11697996
9.789348 9.079126 3.055718 11697996
11.152346 9.555614 1.207612 11697996
9.203783 9.650064 2.728771 11697996
9.147147 10.077487 1.820479 11697996
11.003860 10.274038 3.427724 11697996
9.035981 9.574208 0.194506 11697996
10.629007 9.826116 1.396202 11697996
11.011741 10.134945 0.084461 11697996
10.432070 10.158115 2.307472 11697996
10.440726 10.578679 2.578617 11697996
10.971076 9.819545 3.750483 11697996
9.421699 10.753028 3.121154 11697996
8.820922 9.798512 3.773892 11697996
10.422523 9.076388 0.425591 11697996
8.863537 9.577318 0.116263 11697996
10.932663 9.871916 1.917512 11697996
10.389433 10.354574 1.384146 11697996
9.034736 9.198826 1.561462 11697996
11.032491 8.940187 1.398019 11697996
9.207373 10.459176 1.193494 11697996
9.521290 11.039327 0.763772 11697996
10.632601 10.995328 2.859344 11697996
11.117306 10.751055 0.138035 11697996
9.115976 8.882784 0.237237 11697996
9.898606 10.015479 3.837466 11697996
10.447711 9.534909 2.680053 11697996
11.039540 10.859647 2.964495 11697996
9.953306 10.776664 0.090359 11697996
10.316222 9.039544 0.285361 11697996
10.416272 10.957315 0.973358 11697996
8.749897 9.440270 0.791197 11697996
9.335929 11.078526 1.229071 11697996
10.729166 9.030655 1.537084 11697996
9.978467 10.629182 0.433030 11697996
10.699499 9.830019 1.747973 11697996
10.248948 10.093893 3.913578 11697996
10.659788 9.418031 3.071992 11697996
10.141313 11.130077 0.278376 11697996
9.028152 9.867351 1.736689 11697996
9.581503 10.098543 3.813647 11697996
9.726398 10.770168 1.240564 11697996
11.022568 11.035992 0.433239 11697996
10.286444 9.176849 2.200632 11697996
8.759120 9.127228 1.869452 11697996
8.774166 9.226134 1.263538 11697996
8.881584 9.571182 2.084379 11697996
9.341257 10.835275 1.791795 11697996
9.035984 10.279096 2.100233 11697996
8.966199 10.662513 1.963975 11697996
9.187742 10.558860 0.341865 11697996
10.098792 11.181520 2.708929 11697996
9.299340 10.164669 3.498933 11697996
11.112490 10.546581 2.650722 11697996
10.691564 9.787775 0.649353 11697996
9.607446 8.983351 2.043800 11697996
10.364721 10.313219 3.020360 11697996
10.209725 9.208818 1.916555 11697996
11.226657 9.845646 1.991199 11697996
11.091601 9.238371 2.209859 11697996
9.984159 11.039976 1.770321 11697996
11.215446 9.481550 1.488085 11697996
9.993272 9.155530 1.402945 11697996
10.698513 10.535833 3.123559 11697996
11.108407 11.161856 3.783766 11697996
9.908208 9.180621 3.628994 11697996
11.204305 11.170093 0.614920 11697996
9.212559 9.218194 3.894121 11697996
10.813160 10.286690 2.550242 11697996
10.148526 10.164638 0.368374 11697996
9.850317 10.223984 0.592769 11697996
10.358171 8.753002 0.293400 11697996
10.463348 9.598149 2.708668 11697996
9.430212 9.135608 2.354606 11697996
8.752908 10.480870 3.911227 11697996
10.880919 10.127378 2.859824 11697996
10.571634 11.013421 3.486286 11697996
9.113435 9.710402 3.643019 11697996
8.784576 9.465627 0.873594 11697996
9.289896 10.803327 2.066919 11697996
10.163987 9.544330 2.946014 11697996
9.642064 9.844301 0.647576 11697996
11.089107 9.813834 2.111038 11697996
10.076139 10.313351 2.309118 11697996
10.766106 11.143686 1.874856 11697996
10.188691 9.669003 3.199433 11697996
8.823318 9.228438 0.233490 11697996
10.787723 9.791255 3.111940 11697996
11.200278 8.798293 1.005934 11697996
9.708383 10.458551 2.716990 11697996
10.936732 10.534142 1.871414 11697996
9.799970 10.785368 3.957058 11697996
10.673101 10.414738 0.146129 11697996
11.043687 9.005347 1.044113 11697996
10.206269 9.198584 0.981654 11697996
10.213974 11.148993 2.409675 11697996
9.520608 10.977618 0.754272 11697996
9.581641 10.597119 0.773522 11697996
9.042701 8.977287 1.467204 11697996
10.758473 9.786703 2.755469 11697996
10.453703 9.994325 2.198009 11697996
10.556274 8.879868 2.490809 11697996
9.037475 11.173254 1.100956 11697996
9.641477 10.149037 3.574587 11697996
9.650002 10.930683 2.869472 11697996
10.580238 9.110219 0.966824 11697996
8.824841 9.131639 1.178755 11697996
11.103802 10.671598 1.730416 11697996
8.919367 9.646484 3.333984 11697996
10.704633 9.133780 2.201853 11697996
10.693463 9.839658 3.841970 11697996
8.890069 9.403812 1.896335 11697996
9.986480 9.269208 1.368265 11697996
10.580748 9.906469 0.748805 11697996
9.540911 10.753073 3.153532 11697996
9.222142 9.587315 3.062891 11697996
10.178357 9.460000 2.931198 11697996
11.198216 9.880872 0.533713 11697996
10.872931 9.479124 0.494190 11697996
9.993496 11.171734 0.786366 11697996
9.610205 9.361712 0.572668 11697996
9.487212 9.579972 3.625915 11697996
9.721110 9.352813 3.491416 11697996
9.880260 9.962310 3.146634 11697996
9.234062 9.790572 2.404693 11697996
9.595831 9.349201 1.778330 11697996
8.797851 9.990439 0.811141 11697996
10.814651 10.506764 0.103698 11697996
8.873339 10.677735 0.372677 11697996
11.102049 11.202781 3.620025 11697996
10.410641 9.251872 1.197956 11697996
10.358162 8.861493 3.429301 11697996
11.165028 11.267759 3.812481 11697996
10.924575 9.790637 1.183323 11697996
11.043092 9.324586 2.901528 11697996
10.041405 10.885535 3.852891 11697996
9.991637 9.961713 2.979642 11697996
10.686288 11.026690 1.463177 11697996
9.900425 10.915816 0.931971 11697996
9.796042 9.627927 2.252613 11697996
10.753343 9.270287 3.282939 11697996
9.484689 9.693563 0.304732 11697996
10.518357 9.105678 2.415183 11697996
8.839233 9.336071 1.287380 11697996
10.575832 9.536589 3.667924 11697996
11.082813 9.122610 1.265497 11697996
10.339312 8.780954 1.684719 11697996
10.890230 10.723304 2.725256 11697996
9.568519 8.943504 1.260255 11697996
8.794111 9.677268 0.376028 11697996
8.835001 9.100562 3.159991 11697996
10.554510 10.681317 2.077101 11697996
10.447149 9.861402 1.378777 11697996
10.378557 8.973766 3.772117 11697996
10.348325 10.712626 2.356561 11697996
11.011877 8.823229 0.150308 11697996
9.025393 9.532207 2.719661 11697996
10.516109 9.752434 2.959554 11697996
10.802239 10.242029 3.124455 11697996
10.373749 9.025305 1.415075 11697996
10.106175 9.680201 2.065669 11697996
9.521373 11.019031 1.952815 11697996
9.770857 9.491570 1.410193 11697996
9.291660 10.533135 3.869191 11697996
10.887739 9.647464 0.664585 11697996
9.756737 10.566616 2.663311 11697996
8.841688 9.873774 1.607663 11697996
10.274745 10.317842 3.749623 11697996
8.746363 9.750866 1.679721 11697996
9.410534 10.170240 1.811247 11697996
9.474397 9.545959 0.044633 11697996
9.892748 10.159359 1.879658 11697996
9.476855 8.763033 2.184994 11697996
9.448412 10.127622 0.426271 11697996
9.335046 8.802491 3.955331 11697996
8.962620 10.376782 2.398727 11697996
9.580624 10.033236 1.685606 11697996
9.280289 9.867326 0.905725 11697996
10.755289 10.855265 1.381726 11697996
11.159833 9.896112 3.173923 11697996
10.563556 10.217039 1.251727 11697996
8.923763 10.616687 3.736984 11697996
10.545116 10.257109 2.748240 11697996
9.701955 9.291286 3.525544 11697996
10.975604 11.163735 0.954245 11697996
10.399241 10.660324 2.600394 11697996
10.188900 10.674917 1.183576 11697996
10.474240 9.449918 2.185353 11697996
9.898670 9.363449 0.060408 11697996
9.589506 10.688375 0.595474 11697996
10.358130 9.251335 0.250343 11697996
9.051723 10.759064 0.486626 11697996
10.400081 10.922663 2.002565 11697996
10.052126 9.069367 2.654446 11697996
10.195555 9.218205 3.772925 11697996
10.834351 9.825225 2.882106 11697996
10.325923 11.169208 1.075651 11697996
10.960613 9.076347 0.500323 11697996
11.144177 10.072625 1.419257 11697996
9.370960 10.231074 3.557819 11697996
9.064710 8.799771 1.236905 11697996
10.350348 10.530106 1.340812 11697996
8.935842 8.911227 3.256778 11697996
10.261792 9.178280 3.921348 11697996
9.130671 10.325964 2.646496 11697996
9.233064 9.826193 0.682082 11697996
9.873627 11.038355 3.349679 11697996
8.993061 10.310221 3.224990 11697996
8.819734 11.236632 2.918727 11697996
9.381172 10.331402 3.592042 11697996
11.157749 11.180342 0.495577 11697996
8.978593 9.256395 0.636129 11697996
10.270122 8.991767 3.662158 11697996
10.441646 11.076530 0.591001 11697996
8.774169 9.830103 3.628258 11697996
10.123801 10.385917 3.568840 11697996
9.557561 10.217482 1.112429 11697996
9.698476 8.795163 3.111939 11697996
9.995831 9.498103 3.131459 11697996
10.545146 9.818989 2.884634 11697996
9.363690 9.031281 1.064985 11697996
10.787519 11.094507 1.599913 11697996
9.925527 9.332831 3.117307 11697996
10.332143 9.415875 1.321748 11697996
10.417262 10.894733 3.322549 11697996
8.842114 9.677420 1.896634 11697996
9.242160 10.794081 3.061591 11697996
9.400743 10.799451 1.308675 11697996
9.319607 9.887491 2.337242 11697996
11.080274 9.032914 0.177821 11697996
10.097797 9.009873 1.853722 11697996
10.689533 9.886026 1.084634 11697996
10.319188 10.194550 0.633192 11697996
10.972557 9.657232 3.089766 11697996
8.873136 10.630719 1.601368 11697996
10.216859 9.665924 3.041514 11697996
9.049349 10.496546 3.392930 11697996
10.215805 10.460634 0.016150 11697996
9.058908 10.401152 2.093955 11697996
9.827054 10.508045 1.648854 11697996
10.065846 9.845231 1.454681 11697996
10.844954 9.906425 1.310825 11697996
9.498704 8.965211 1.804224 11697996
10.575487 9.208698 2.176820 11697996
11.215253 10.349728 3.134473 11697996
11.235880 9.371778 3.466477 11697996
9.937710 9.076329 1.574855 11697996
10.927371 9.811792 1.108829 11697996
11.225896 10.076915 0.408401 11697996
9.877350 8.786594 2.295231 11697996
10.052588 9.520121 2.334546 11697996
9.997020 10.728037 1.719362 11697996
9.917779 9.966783 2.878587 11697996
9.953541 10.721726 3.816051 11697996
10.698049 9.305151 2.467145 11697996
9.429820 8.932244 0.281177 11697996
9.358448 8.887710 0.518240 11697996
9.067092 10.592458 3.235155 11697996
8.936810 9.546270 3.342224 11697996
10.128405 11.014676 0.101936 11697996
8.778578 10.515107 3.781478 11697996
10.326737 8.828898 3.536454 11697996
9.292760 10.590506 1.810238 11697996
9.447482 10.891150 1.910969 11697996
8.945093 9.917922 0.203208 11697996
10.427296 9.496294 2.752417 11697996
10.488021 9.611962 3.296308 11697996
10.268000 9.759142 0.835230 11697996
9.250797 10.100399 0.241937 11697996
8.810224 10.337347 0.920162 11697996
10.474341 11.232854 3.562403 11697996
9.031887 8.953946 2.871733 11697996
9.518703 10.371696 3.727940 11697996
8.761815 10.065315 2.474514 11697996
10.760169 10.605203 3.444192 11697996
11.033663 11.216877 3.624699 11697996
10.485147 8.805818 0.950269 11697996
8.930432 10.281531 0.067884 11697996
9.088956 9.433780 0.720703 11697996
9.282570 8.937707 0.311373 11697996
9.579741 9.184504 0.229910 11697996
10.877489 10.332060 1.706807 11697996
9.834548 10.228864 3.566303 11697996
9.121543 9.830935 1.808471 11697996
9.889866 9.463516 1.266572 11697996
9.390362 9.164048 1.527255 11697996
10.194653 10.492756 3.103930 11697996
10.141469 9.912324 0.757307 11697996
11.036737 9.112998 1.681967 11697996
8.771498 10.494334 0.279450 11697996
10.441365 11.095144 2.019821 11697996
9.876110 9.538909 1.747452 11697996
11.212855 10.147304 0.762423 11697996
9.825532 9.162642 1.815086 11697996
9.746944 9.659577 2.915081 11697996
10.743859 9.429290 3.018996 11697996
10.604964 8.747366 2.896878 11697996
10.635202 10.557319 2.343086 11697996
9.337847 9.803541 3.234581 11697996
10.364716 10.714071 2.614193 11697996
10.369703 10.519220 2.552794 11697996
8.770470 8.891089 0.457671 11697996
10.186635 9.041651 2.609900 11697996
9.899708 10.300666 2.011884 11697996
9.810795 11.191412 2.485499 11697996
8.780524 9.454496 0.020557 11697996
10.590663 9.494667 0.310645 11697996
-9.803583 -10.480093 0.692925 6730418
-10.275308 -10.955304 1.091304 6730418
-10.577052 -9.864519 2.155958 6730418
-10.436963 -9.393248 0.320745 6730418
-9.658356 -9.583525 1.811138 6730418
-9.915017 -9.396487 2.423299 6730418
-9.975667 -10.279780 2.925943 6730418
-9.641416 -9.312932 0.195058 6730418
-9.578304 -9.695455 2.377840 6730418
-9.411221 -10.316013 0.259501 6730418
-10.773274 -9.769761 1.208084 6730418
-9.435257 -10.338077 1.972158 6730418
-9.642344 -10.831612 2.897425 6730418
-10.245162 -10.153100 1.414248 6730418
-9.482697 -10.155844 0.767680 6730418
-9.310611 -10.600171 1.744330 6730418
-10.491308 -9.801081 0.142122 6730418
-9.317780 -10.716657 1.795530 6730418
-9.601535 -10.765539 1.326065 6730418
-9.873090 -10.451828 1.616783 6730418
-9.396010 -10.520985 1.791135 6730418
-9.820992 -9.230120 1.205638 6730418
-9.844533 -9.038488 2.109926 6730418
-9.763398 -10.738889 0.103932 6730418
-10.302132 -10.095443 0.305553 6730418
-10.121940 -9.691425 0.868930 6730418
-10.293008 -10.500619 0.454160 6730418
-9.923181 -9.602898 0.903607 6730418
-10.383843 -10.499091 0.966029 6730418
-9.612175 -10.431735 2.089194 6730418
-10.210352 -10.599297 2.003871 6730418
-9.476241 -9.315562 2.827103 6730418
-9.978515 -10.907667 1.209079 6730418
-10.790386 -9.459336 1.757032 6730418
-9.578312 -9.375022 2.133461 6730418
-10.482786 -9.800756 0.346272 6730418
-9.876461 -9.750418 1.185124 6730418
-9.566525 -10.575525 1.062378 6730418
-9.745120 -10.741079 1.911202 6730418
-9.378701 -9.474786 1.117934 6730418
-9.138132 -10.298626 0.439644 6730418
-9.914012 -10.759084 0.233242 6730418
-10.011033 -9.135542 2.591087 6730418
-9.534297 -10.175139 2.723622 6730418
-9.863636 -9.389944 2.493958 6730418
-10.342132 -9.803224 1.859494 6730418
-9.793830 -10.372335 0.857363 6730418
-9.386609 -9.402325 1.202009 6730418
-10.535090 -10.483794 1.869716 6730418
-9.491088 -9.450338 2.363791 6730418
-10.791502 -10.312362 2.759840 6730418
-9.266084 -9.869578 2.687199 6730418
-10.586941 -10.006748 1.948782 6730418
-9.899992 -10.140234 1.179091 6730418
-10.386503 -10.517015 2.536596 6730418
-9.915280 -10.450873 0.696102 6730418
-9.814920 -9.804817 1.389424 6730418
-9.482488 -10.263085 2.610069 6730418
-9.787977 -9.339608 1.773086 6730418
-9.773238 -10.542513 2.925071 6730418
-10.265913 -10.200818 1.285534 6730418
-9.112599 -9.756485 1.244874 6730418
-9.364968 -9.985776 2.106879 6730418
-10.248115 -9.077502 2.126565 6730418
-9.307864 -9.720157 2.725135 6730418
-10.188231 -9.339058 1.070929 6730418
-9.662946 -9.643624 1.176254 6730418
-10.077020 -9.079613 1.190800 6730418
-9.803273 -9.924633 0.936150 6730418
-10.584233 -10.599743 0.651518 6730418
-9.184113 -10.571041 0.753131 6730418
-10.082916 -10.896700 1.831922 6730418
-9.992640 -9.601160 2.852800 6730418
-9.716279 -10.113631 0.372619 6730418
-9.961506 -10.062159 1.506048 6730418
-9.525740 -9.304275 1.916486 6730418
-9.141531 -9.547394 1.151147 6730418
-10.032968 -9.138843 0.102481 6730418
-9.583268 -9.929763 0.729596 6730418
-9.793386 -9.909866 2.325011 6730418
-9.376818 -10.722526 1.986850 6730418
-10.463050 -9.452368 1.182553 6730418
-10.383686 -9.635734 2.677062 6730418
-9.118818 -9.884599 2.782574 6730418
-9.410912 -10.340519 0.116600 6730418
-10.218401 -9.464492 1.601285 6730418
-10.751046 -9.842544 1.482884 6730418
-10.192760 -9.818124 2.219374 6730418
-10.521704 -9.443870 1.181511 6730418
-9.992065 -9.371622 0.607472 6730418
-10.838194 -10.221973 2.646093 6730418
-9.951854 -9.717981 2.320195 6730418
-10.806813 -9.884819 1.501052 6730418
-10.710710 -9.755880 0.852797 6730418
-9.694869 -10.530723 2.734422 6730418
-10.681035 -10.572880 1.390344 6730418
-10.035966 -10.327824 1.561994 6730418
-9.762220 -10.963181 0.366999 6730418
-10.038143 -10.356871 1.161474 6730418
-9.435477 -10.260823 1.135943 6730418
-9.652773 -10.250359 2.196759 6730418
-9.077280 -9.828851 0.375495 6730418
-10.615758 -10.147127 0.468233 6730418
-9.516222 -10.488415 1.541148 6730418
-9.800012 -10.371487 1.990219 6730418
-9.976985 -10.259439 2.835124 6730418
-10.032425 -10.253949 2.410068 6730418
-9.451131 -9.572650 0.737799 6730418
-9.485259 -9.875396 2.663301 6730418
-9.718426 -10.488735 2.094560 6730418
-9.470578 -10.221489 0.566178 6730418
-9.023297 -10.285971 1.052047 6730418
-9.749163 -9.095385 0.940938 6730418
-9.214951 -10.443938 2.450269 6730418
-9.701815 -9.771443 2.770035 6730418
-9.133798 -10.303285 0.113038 6730418
-9.629599 -10.426585 0.989615 6730418
-10.388041 -10.473308 2.315799 6730418
-9.606334 -9.111627 1.865538 6730418
-9.293364 -10.108638 1.539411 6730418
-9.110610 -9.562221 1.744637 6730418
-9.345881 -9.517398 2.229873 6730418
-10.346740 -10.658408 0.634054 6730418
-9.255261 -10.355512 0.988547 6730418
-9.219941 -9.501831 0.336573 6730418
-9.313414 -10.016008 1.405671 6730418
-9.161508 -10.188369 1.863268 6730418
-10.367493 -9.304342 0.731874 6730418
-10.903913 -10.106937 2.242938 6730418
-9.872199 -9.407111 2.642188 6730418
-10.824094 -9.547360 1.628433 6730418
-9.210484 -10.181160 2.024898 6730418
-9.470914 -10.872732 2.822588 6730418
-9.436261 -10.427285 2.795491 6730418
-10.491735 -10.360887 2.117767 6730418
-9.987372 -10.544789 1.570092 6730418
-9.555873 -9.166077 2.669070 6730418
-9.962525 -10.542336 2.548859 6730418
-10.901398 -10.280823 1.735905 6730418
-10.276921 -9.487118 1.497335 6730418
-9.594339 -10.632695 2.414758 6730418
-9.412235 -9.956356 1.859709 6730418
-9.913359 -10.242672 0.044484 6730418
-10.630961 -10.390313 0.222620 6730418
-9.198776 -9.997824 0.044228 6730418
-10.778725 -10.309758 0.314259 6730418
-9.476860 -9.750035 1.858827 6730418
-10.508762 -9.856841 0.914515 6730418
-9.484821 -10.017932 1.516049 6730418
-9.922318 -10.312488 0.943916 6730418
-9.795044 -10.932251 0.065871 6730418
-10.004709 -9.553608 2.238577 6730418
-9.738469 -10.066408 2.036144 6730418
-9.155534 -10.463101 2.750321 6730418
-10.197030 -9.964916 2.043596 6730418
-10.387491 -9.961177 2.513069 6730418
-9.648201 -10.171693 2.531070 6730418
-10.143193 -9.951419 2.531195 6730418
-9.211460 -10.399398 1.131874 6730418
-10.358959 -10.707102 2.789405 6730418
-10.037589 -9.627161 2.825047 6730418
-9.285644 -10.643638 0.790101 6730418
-10.216446 -9.445959 1.212242 6730418
-10.019978 -9.239679 1.016009 6730418
-10.297094 -9.189281 2.755759 6730418
-9.374404 -10.533855 0.644151 6730418
-10.794501 -10.009764 0.974442 6730418
-9.921842 -10.633773 0.086007 6730418
-9.285206 -9.967739 1.836482 6730418
-9.362334 -9.242159 1.592360 6730418
-10.845602 -9.569265 0.608239 6730418
-9.504090 -9.846818 1.164351 6730418
-10.152518 -9.960111 1.360381 6730418
-10.102259 -9.885328 1.565924 6730418
-10.248834 -10.136966 2.143875 6730418
-9.625320 -9.449451 1.106221 6730418
-10.431454 -9.752189 0.860673 6730418
-10.347679 -9.385785 1.680763 6730418
-10.417232 -10.529509 2.947314 6730418
-10.260423 -10.972142 2.900140 6730418
-9.966619 -10.833450 2.324259 6730418
-9.897981 -9.540099 1.218273 6730418
-9.863807 -9.884845 2.518807 6730418
-9.553380 -9.395459 1.141332 6730418
-10.522392 -10.247070 1.010119 6730418
-9.811801 -9.962304 1.111314 6730418
-9.862233 -10.332711 2.093437 6730418
-9.654472 -9.561792 2.304887 6730418
-9.625948 -10.627131 2.326642 6730418
-9.807647 -9.192491 2.023247 6730418
-10.454628 -10.364060 0.602423 6730418
-10.004937 -10.968654 1.992267 6730418
-9.264871 -10.130705 0.089197 6730418
-10.454061 -9.509813 2.953301 6730418
-9.214131 -9.435153 2.264832 6730418
-10.127730 -9.211919 0.139188 6730418
-9.873821 -9.161310 2.215639 6730418
-9.048555 -9.832183 1.467003 6730418
-10.253078 -10.512286 0.403738 6730418
-9.716341 -9.098761 1.472483 6730418
-9.196454 -9.697198 1.678168 6730418
-9.201883 -9.580791 0.813613 6730418
-9.422194 -10.098632 0.644223 6730418
-9.437877 -10.371199 2.588238 6730418
-10.794418 -10.018301 0.449779 6730418
-10.717706 -9.859190 1.924743 6730418
-9.059535 -9.698089 0.666360 6730418
-9.794906 -9.719577 1.553683 6730418
-10.356117 -10.451921 1.539348 6730418
-9.215096 -9.491614 1.091976 6730418
-10.189732 -9.189816 2.268343 6730418
-10.805693 -9.640032 0.927491 6730418
-9.235558 -9.667448 0.442553 6730418
-9.689783 -9.770978 3.027178 6730418
-10.774411 -10.234934 2.394363 6730418
-9.256024 -9.825744 0.093309 6730418
-10.052446 -9.182912 2.152622 6730418
-9.704876 -10.285729 2.725405 6730418
-10.241459 -10.799923 1.896540 6730418
-9.493201 -10.107527 1.054776 6730418
-10.210320 -10.243606 1.194249 6730418
-10.161386 -9.820817 2.525267 6730418
-10.889276 -9.970673 1.796473 6730418
-9.254086 -9.582237 1.951733 6730418
-9.228931 -9.454969 2.002870 6730418
-9.861242 -10.237224 2.636661 6730418
-10.758321 -10.482325 2.466931 6730418
-9.325748 -10.363467 1.755791 6730418
-10.418394 -9.702380 1.213060 6730418
-10.170161 -10.182067 2.947084 6730418
-9.579249 -9.311419 1.761667 6730418
-9.409794 -10.818911 1.433267 6730418
-9.774175 -10.365309 0.655188 6730418
-9.580202 -10.313534 1.347730 6730418
-9.362626 -10.167615 1.229104 6730418
-9.369345 -9.256834 0.289423 6730418
-10.195889 -10.670706 0.952350 6730418
-10.520385 -10.489838 1.482035 6730418
-10.453972 -10.513486 2.452472 6730418
-10.572518 -9.994602 0.857898 6730418
-9.613197 -10.940994 1.936753 6730418
-9.244142 -10.496704 1.888772 6730418
-10.427428 -9.770910 2.687750 6730418
-10.383957 -10.209764 0.449260 6730418
-9.798863 -10.636736 2.633332 6730418
-10.909758 -10.053329 2.572007 6730418
-9.523312 -9.153845 0.844084 6730418
-10.056619 -10.308990 0.617998 6730418
-10.278137 -9.888954 0.364901 6730418
-9.944675 -9.849449 0.722404 6730418
-9.342734 -10.578866 0.696981 6730418
-10.713975 -10.152392 2.551701 6730418
-9.441726 -9.242773 2.951494 6730418
-9.975574 -9.412354 2.251001 6730418
-10.842597 -9.508595 2.588326 6730418
-10.001577 -10.440740 2.599938 6730418
-10.508401 -10.491371 2.356628 6730418
-9.520846 -9.852252 2.255778 6730418
-10.786346 -10.463811 0.629898 6730418
-10.593097 -9.239864 0.288655 6730418
-9.698468 -9.262033 1.743556 6730418
-9.252188 -9.995057 1.007757 6730418
-10.118292 -10.371737 2.342268 6730418
-10.791497 -10.198255 1.686540 6730418
-9.972005 -9.470377 1.379466 6730418
-9.233058 -10.177105 1.252921 6730418
-9.748113 -10.545486 0.314025 6730418
-10.101889 -10.259786 1.555175 6730418
-10.838539 -10.038914 1.509566 6730418
-10.019228 -10.628854 0.140078 6730418
-10.695712 -9.759712 2.610014 6730418
-9.153529 -10.111135 2.686380 6730418
-9.842690 -10.291363 2.659283 6730418
-10.898532 -10.192888 2.605999 6730418
-10.515100 -9.160086 0.936670 6730418
-10.008349 -9.489992 2.383047 6730418
-9.452144 -10.475635 0.820519 6730418
-10.590908 -9.180656 2.253122 6730418
-10.095682 -10.180728 1.163345 6730418
-9.476996 -9.152462 2.036919 6730418
-9.356853 -9.650394 2.115127 6730418
-9.986297 -9.877063 2.349131 6730418
-10.294538 -9.278756 0.026872 6730418
-10.144124 -9.487433 1.596554 6730418
-10.714313 -10.568526 1.061435 6730418
-10.653568 -9.869244 1.924789 6730418
-9.113737 -9.954101 1.910357 6730418
-9.401444 -9.779469 1.211169 6730418
-9.815250 -9.201248 1.319280 6730418
-9.871161 -9.184622 0.067769 6730418
-9.062014 -9.954863 0.054415 6730418
-9.397820 -10.708958 0.524124 6730418
-10.619452 -9.857806 0.431296 6730418
-10.505874 -10.169574 2.548862 6730418
-9.666091 -10.290075 1.081728 6730418
-9.459538 -9.459488 0.598660 6730418
-9.463160 -10.793917 1.611182 6730418
-10.008616 -9.490413 0.226823 6730418
-10.715785 -10.021791 1.238763 6730418
-9.802852 -10.649753 0.613520 6730418
-9.204594 -9.552885 0.740648 6730418
-9.609446 -9.448071 2.174680 6730418
-9.805936 -10.918886 0.201474 6730418
-10.142226 -9.254825 2.422617 6730418
-10.394391 -9.505632 1.041306 6730418
-10.714954 -10.318363 1.922615 6730418
-10.867231 -10.425283 2.215344 6730418
-10.322276 -10.596971 1.116097 6730418
-10.086171 -10.711079 1.019466 6730418
-9.679450 -9.800975 1.480889 6730418
-10.609306 -10.336114 1.208288 6730418
-10.573984 -10.791177 2.175498 6730418
-10.914220 -10.193006 2.563642 6730418
-10.758622 -10.478999 2.162141 6730418
-10.094162 -9.393394 1.210773 6730418
-9.502162 -10.299941 0.543306 6730418
-10.171094 -10.666237 0.694120 6730418
-9.378615 -10.723615 0.084807 6730418
-9.491806 -9.435763 1.597244 6730418
-10.527239 -9.361668 1.605108 6730418
-10.526815 -10.540142 2.091429 6730418
-10.141317 -9.642124 2.048408 6730418
-10.779739 -9.605519 0.631744 6730418
-10.565926 -9.997546 2.846577 6730418
-10.858558 -9.889742 2.955458 6730418
-9.716640 -9.766147 1.112511 6730418
-10.879792 -9.681868 0.167450 6730418
-9.890571 -9.785564 2.582305 6730418
-9.510746 -9.256843 2.613981 6730418
-9.256398 -9.350762 0.317796 6730418
-9.888577 -9.711143 2.402320 6730418
-10.403816 -9.654882 0.322776 6730418
-10.809096 -9.957971 0.625110 6730418
-9.977759 -9.159184 1.642273 6730418
-9.769255 -9.038316 2.241328 6730418
-10.477560 -9.262135 1.227330 6730418
-10.136700 -10.046064 1.958588 6730418
-9.573444 -10.090513 0.137244 6730418
-9.384909 -9.220427 2.609622 6730418
-10.380093 -10.083737 1.016443 6730418
-10.242584 -10.209229 1.134672 6730418
-10.624410 -10.263783 0.530268 6730418
-10.490818 -10.181004 2.232771 6730418
-9.884963 -9.434946 2.236249 6730418
-9.263479 -9.361372 0.678661 6730418
-10.001165 -10.150806 1.474734 6730418
-10.347496 -9.664330 1.786765 6730418
-10.493033 -10.162298 2.448075 6730418
-9.782255 -10.357033 2.337908 6730418
-9.568038 -9.542028 2.969661 6730418
-10.709030 -9.966964 2.786249 6730418
-9.542740 -10.310540 2.321912 6730418
-9.969438 -10.053744 2.602251 6730418
-10.340274 -10.560003 1.221272 6730418
-10.055066 -9.947779 1.279427 6730418
-10.306880 -9.183707 1.305593 6730418
-9.578846 -10.154447 0.637098 6730418
-9.865856 -10.602511 0.182880 6730418
-9.763149 -10.249652 0.847335 6730418
-10.676538 -10.616358 2.933610 6730418
-9.588825 -9.374964 0.753608 6730418
-10.962392 -10.279386 1.373780 6730418
-10.307030 -9.926512 2.225186 6730418
-9.702219 -9.557744 0.905871 6730418
-9.810875 -9.139083 2.389765 6730418
-9.623775 -9.652354 1.383923 6730418
-9.210049 -9.631964 2.452658 6730418
-10.098581 -9.414531 2.587686 6730418
-10.554631 -9.715439 2.855011 6730418
-9.617312 -10.374891 2.181360 6730418
-9.477784 -10.709688 1.905316 6730418
-10.301472 -9.046179 1.848261 6730418
-10.322700 -10.357807 1.702159 6730418
-9.480900 -9.340504 1.177945 6730418
-9.899762 -10.227262 2.157259 6730418
-10.160395 -9.749298 1.863282 6730418
-10.858835 -10.300778 0.886734 6730418
-10.715854 -9.769832 0.662414 6730418
-9.326728 -9.346239 1.789067 6730418
-9.062799 -9.974416 0.083088 6730418
-10.750729 -9.489634 0.284273 6730418
-10.134738 -9.569997 1.722516 6730418
-10.448770 -9.531781 1.267990 6730418
-10.744861 -9.447368 1.139210 6730418
-10.286672 -10.045132 2.077159 6730418
-9.974415 -9.432398 2.754360 6730418
-10.798856 -9.583411 1.787638 6730418
-10.620557 -10.047944 1.105253 6730418
-10.879309 -9.742048 0.498293 6730418
-10.094300 -10.144303 0.965180 6730418
-9.412867 -9.647435 2.055038 6730418
-10.059104 -9.542380 2.778415 6730418
-10.642861 -9.413373 0.480651 6730418
-10.090725 -9.412982 0.851606 6730418
-10.765001 -10.233802 2.035996 6730418
-10.440051 -9.911539 0.653978 6730418
-9.337279 -10.498494 1.169290 6730418
-9.652506 -10.610915 1.789731 6730418
-9.967135 -10.323071 2.967680 6730418
-10.707093 -10.616276 0.361161 6730418
-10.069881 -10.039529 1.034460 6730418
-10.404462 -9.100399 0.783236 6730418
-10.088872 -10.498498 0.272438 6730418
-10.478103 -10.160390 1.746310 6730418
-9.247239 -9.386651 0.071674 6730418
-10.348752 -9.986032 0.718942 6730418
-10.457127 -9.551838 2.575977 6730418
-9.238031 -10.050908 2.906354 6730418
-10.530651 -9.823647 2.189954 6730418
-9.813884 -10.099148 0.970274 6730418
-10.321475 -10.543959 0.238965 6730418
-10.917846 -9.952597 1.604457 6730418
-9.205421 -9.859101 2.318143 6730418
-9.710702 -9.129848 0.201796 6730418
-10.599942 -10.028778 2.357692 6730418
-10.126166 -10.760354 1.956820 6730418
-10.899026 -9.753871 0.022000 6730418
-10.652754 -9.878695 0.825081 6730418
-10.206856 -10.330041 2.542272 6730418
-10.410388 -10.605145 1.210020 6730418
-10.673815 -9.366204 2.630582 6730418
-9.191212 -10.625421 0.529184 6730418
-9.897063 -9.659727 2.514663 6730418
-9.143221 -9.908983 2.417043 6730418
-10.216280 -10.373020 1.050464 6730418
-9.334598 -9.841436 1.036224 6730418
-10.318487 -10.708101 2.760084 6730418
-9.678483 -10.211777 0.753001 6730418
-10.586406 -9.784058 2.075877 6730418
-9.954968 -10.955669 2.259292 6730418
-9.807797 -9.719330 2.222262 6730418
-10.180000 -9.236507 1.060637 6730418
-10.220997 -10.450316 1.647145 6730418
-9.588995 -9.947153 0.555025 6730418
-10.159016 -10.117040 2.335192 6730418
-9.288086 -10.690187 1.205036 6730418
-9.187914 -10.242156 0.616224 6730418
-9.593602 -9.934081 1.065417 6730418
-9.869815 -9.605049 2.594891 6730418
-10.493790 -9.795462 0.641955 6730418
-10.218572 -9.876529 0.470880 6730418
-10.475792 -10.669045 3.023862 6730418
-9.476308 -9.702996 2.447453 6730418
-9.104759 -10.255122 2.823791 6730418
-9.906086 -10.723475 0.830486 6730418
-9.876258 -10.749126 3.006366 6730418
-10.343192 -10.228472 1.002841 6730418
-10.464767 -10.415936 1.262674 6730418
-10.478531 -10.361335 1.806145 6730418
-10.548554 -10.755496 2.437748 6730418
-10.096827 -9.609921 2.176299 6730418
-9.992896 -9.566862 0.595010 6730418
-10.775802 -10.493421 1.142636 6730418
-9.034750 -10.118102 1.454982 6730418
-10.338805 -10.921979 0.037232 6730418
-9.789084 -9.543912 2.725409 6730418
-10.394691 -10.481208 2.435514 6730418
-9.872254 -10.726865 2.140467 6730418
-9.189678 -9.807859 0.903102 6730418
-9.387536 -10.774485 2.827596 6730418
-10.589989 -10.559102 0.097595 6730418
-9.954920 -9.905041 0.906323 6730418
-10.075206 -9.725846 2.020144 6730418
-9.762046 -9.894299 0.475166 6730418
-9.098732 -10.340307 0.554190 6730418
-9.812362 -10.314288 1.343632 6730418
-10.670491 -10.090757 1.345047 6730418
-9.015469 -9.867761 2.134595 6730418
-10.436797 -10.542053 0.662099 6730418
-10.138187 -9.775523 2.886047 6730418
-9.103006 -10.463956 0.057569 6730418
-10.973909 -9.844006 1.473965 6730418
-10.177254 -10.127987 2.212542 6730418
-10.364498 -10.322459 0.367316 6730418
-9.291012 -10.570442 1.025690 6730418
-10.098785 -10.057370 1.063898 6730418
-10.722350 -10.258533 2.489770 6730418
-9.797809 -10.496642 2.992768 6730418
-9.853498 -10.002124 1.279421 6730418
-9.741763 -10.815198 2.316966 6730418
-9.191613 -10.327387 1.511541 6730418
-10.483532 -9.563563 1.434611 6730418
-9.624963 -10.202248 2.721164 6730418
-10.617563 -9.386106 2.083860 6730418
-10.077554 -9.253356 1.649884 6730418
-10.444235 -9.770727 0.288844 6730418
-9.217105 -10.176921 2.906964 6730418
-10.758654 -10.096202 0.177768 6730418
-9.313997 -10.174905 2.812681 6730418
-10.068944 -10.806640 1.436040 6730418
-9.652992 -10.220959 1.113786 6730418
-10.891202 -10.035661 2.057577 6730418
-9.618987 -9.223813 2.524846 6730418
-10.574191 -9.237703 0.267198 6730418
-9.107620 -10.304133 2.746489 6730418
-10.186795 -10.642695 1.677024 6730418
-9.325575 -10.234733 0.449450 6730418
-10.386238 -10.305856 1.436548 6730418
-10.317115 -9.548300 2.605482 6730418
-10.877289 -9.512810 2.896088 6730418
-9.986219 -9.232959 0.817544 6730418
-9.278659 -9.488786 2.427529 6730418
-10.169756 -9.169055 2.768678 6730418
-10.773898 -9.750694 2.614295 6730418
-9.426053 -9.487499 0.286485 6730418
-9.318038 -9.519824 2.085545 6730418
-10.211833 -10.891680 0.379288 6730418
-9.097128 -10.312532 0.468328 6730418
-10.866615 -9.534647 1.393190 6730418
-10.003064 -10.118679 0.549960 6730418
-10.308462 -9.764915 1.571638 6730418
-10.709792 -9.692316 2.407611 6730418
-10.192426 -9.405407 1.677667 6730418
-9.513716 -10.141612 2.433425 6730418
-10.337826 -10.717860 2.953523 6730418
-10.008115 -10.459834 0.496655 6730418
-9.511831 -10.650327 2.256170 6730418
-9.565239 -10.741481 0.036698 6730418
-9.533947 -9.235644 1.178642 6730418
-9.432789 -9.468293 2.417881 6730418
-9.605048 -9.159439 0.176474 6730418
-10.246769 -10.230766 0.652362 6730418
-9.746158 -10.340425 0.049414 6730418
-10.378357 -9.304053 2.436885 6730418
-10.287576 -10.445014 0.106733 6730418
-9.456517 -10.719245 2.584515 6730418
-9.626503 -9.406616 0.477781 6730418
-9.131855 -10.006712 2.682558 6730418
-9.950695 -9.974733 2.753268 6730418
-10.532478 -10.475340 0.476628 6730418
-9.566508 -10.793141 1.816212 6730418
-10.692612 -10.379711 0.956050 6730418
-10.303411 -9.251726 1.194941 6730418
-10.537619 -10.033907 0.199776 6730418
-10.735172 -10.102747 0.701444 6730418
-9.856598 -10.846569 2.497124 6730418
-10.482784 -9.566110 2.816586 6730418
-10.769450 -10.461825 2.959435 6730418
-9.528083 -10.299900 1.709027 6730418
-10.379335 -9.938885 1.939578 6730418
-10.409972 -10.451419 0.930886 6730418
-10.337736 -9.791876 0.289856 6730418
-9.724965 -10.353999 0.130922 6730418
-10.708813 -10.032939 1.575438 6730418
-10.709422 -10.546597 0.171768 6730418
-10.270899 -10.190223 0.933738 6730418
-9.353583 -10.304719 1.258910 6730418
-9.466397 -9.215919 1.699311 6730418
-10.462167 -10.337881 0.908442 6730418
