# .PCD v0.7 - Point Cloud Data file format
VERSION 0.7
FIELDS x y z rgb
SIZE 4 4 4 4
TYPE F F F U
COUNT 1 1 1 1
WIDTH 1292
HEIGHT 1
VIEWPOINT 0 0 0 1 0 0 0
POINTS 1292
DATA ascii
9.561658 9.530226 2.055599 11697996
8.868966 9.977098 1.953385 11697996
9.095939 10.756783 0.892094 11697996
8.798698 10.794058 1.713326 11697996
9.781968 9.979541 2.068892 11697996
10.301589 8.972677 1.738223 11697996
9.497842 9.884989 0.562083 11697996
9.324662 9.648013 0.697343 11697996
8.816841 10.271076 3.147009 11697996
10.474438 10.220046 3.682052 11697996
10.772159 10.780923 0.019541 11697996
10.258439 10.136436 0.500024 11697996
11.024533 9.869765 1.880955 11697996
9.832071 9.276401 2.229507 11697996
10.052779 9.020574 0.101921 11697996
9.686945 10.034151 0.923134 11697996
10.564981 10.050063 1.591005 11697996
9.260327 11.096419 2.403373 11697996
9.688927 10.092250 0.734497 11697996
9.886706 10.898582 0.173262 11697996
10.420515 10.491820 2.059529 11697996
9.128030 10.009130 0.501552 11697996
8.863314 11.034585 0.849542 11697996
11.100625 9.352194 0.789179 11697996
10.145558 9.263544 2.599138 11697996
10.967213 10.849926 0.467191 11697996
10.470604 11.032417 2.129090 11697996
8.995266 10.295282 3.539021 11697996
9.414852 9.635668 0.136826 11697996
11.087413 9.017648 3.012920 11697996
11.069159 8.970400 3.880928 11697996
8.877072 10.548402 0.417939 11697996
8.867476 9.460297 0.737617 11697996
10.290750 11.127319 2.987062 11697996
8.791085 10.157373 0.896438 11697996
8.764812 8.793676 3.806741 11697996
11.235390 10.576437 2.114735 11697996
10.403116 9.041528 3.183438 11697996
9.344304 9.209653 0.537726 11697996
10.917139 9.717867 3.358486 11697996
10.623113 10.416298 0.427509 11697996
9.778702 8.972154 3.743238 11697996
9.332809 9.441588 2.417020 11697996
9.094922 9.236257 3.880301 11697996
9.814290 9.753948 2.012360 11697996
10.460363 10.566899 0.000415 11697996
9.530005 10.840320 1.260221 11697996
10.329267 10.419401 2.595982 11697996
11.009517 11.009008 0.613289 11697996
9.219683 9.472812 1.107389 11697996
9.571850 9.263260 2.831197 11697996
9.663823 10.379267 1.366535 11697996
10.082855 10.933258 3.166912 11697996
11.157930 9.765091 0.038416 11697996
9.463508 9.513705 0.960800 11697996
8.951359 10.680704 1.243202 11697996
9.079732 9.114902 3.699611 11697996
10.871234 9.819122 2.448875 11697996
11.214643 8.955486 3.980895 11697996
9.967980 10.820493 1.889153 11697996
8.949334 9.002293 0.985333 11697996
9.663251 10.173970 1.051030 11697996
10.331741 9.551659 1.550362 11697996
10.800983 10.374139 1.334840 11697996
10.271850 9.385471 3.975890 11697996
10.102243 9.567527 3.275558 11697996
9.029594 10.394530 0.962260 11697996
9.840612 9.204509 3.751555 11697996
11.149528 8.978492 2.083382 11697996
10.816215 10.799442 0.408724 11697996
9.177305 10.328329 0.854961 11697996
9.360058 11.108480 3.202874 11697996
9.779375 9.024514 0.138947 11697996
10.022916 9.641864 0.422126 11697996
8.834782 10.026835 2.492090 11697996
9.957037 11.122396 0.900053 11697996
10.438779 9.980145 0.075612 11697996
10.282147 9.592525 2.962315 11697996
10.014380 9.213872 3.332117 11697996
10.306561 9.810416 3.825537 11697996
9.333249 11.147477 1.627233 11697996
9.092509 10.518128 1.376671 11697996
8.869340 9.936151 2.252169 11697996
9.815026 10.253034 2.361321 11697996
10.854542 10.578981 1.353943 11697996
10.964656 9.885609 3.730571 11697996
10.284756 10.019179 2.680762 11697996
8.889586 9.587488 2.014786 11697996
10.946991 10.791598 1.458670 11697996
10.824642 8.863462 3.011654 11697996
9.039389 10.243878 3.197134 11697996
10.801414 8.934216 1.554016 11697996
9.238113 10.913020 0.472948 11697996
10.790118 9.952376 0.026236 11697996
10.700840 10.325093 3.537875 11697996
10.870867 10.965905 2.295665 11697996
10.045405 9.553221 3.351719 11697996
10.992420 10.246163 0.241797 11697996
8.887325 9.283693 2.637212 11697996
9.405127 8.832356 2.987541 11697996
9.400461 10.158001 1.938162 11697996
10.812042 10.806915 3.215718 11697996
8.955796 8.915653 0.464994 11697996
10.824389 10.646524 3.071723 11697996
9.942852 10.087581 3.254796 11697996
11.185008 10.654591 2.843800 11697996
11.066105 10.050403 1.974331 11697996
9.223553 9.999146 2.781641 11697996
10.574205 10.785256 3.229470 11697996
9.351765 10.766250 1.756787 11697996
11.194092 9.444001 3.522155 11697996
10.985224 9.563793 1.037182 11697996
8.914158 11.000379 0.436322 11697996
8.821154 10.922186 0.133703 11697996
10.204368 10.033829 1.337295 11697996
10.643570 10.283933 1.494225 11697996
8.952922 9.982005 3.792369 11697996
10.466105 10.571446 1.842263 11697996
9.643914 11.146032 2.680602 11697996
10.877791 9.680216 3.160187 11697996
8.837010 10.883655 3.938116 11697996
10.850873 10.447870 1.891383 11697996
10.733827 9.696465 1.146538 11697996
9.808113 9.422328 0.410657 11697996
10.076701 10.054890 2.751242 11697996
9.778100 11.157560 0.764615 11697996
8.993704 10.054443 3.958489 11697996
10.472186 9.806071 3.115046 11697996
9.394698 9.756950 0.707271 11697996
8.962033 11.157855 3.036159 11697996
9.260290 9.034839 3.733847 11697996
11.105243 9.036055 2.138880 11697996
11.249825 10.792914 0.953243 11697996
10.859533 10.583290 3.704175 11697996
9.113810 9.626322 3.957028 11697996
10.756363 10.613568 2.166708 11697996
10.658839 10.557380 0.441091 11697996
9.206823 9.026500 1.674520 11697996
9.298177 9.933728 3.763851 11697996
8.922292 9.631084 1.856256 11697996
10.663752 8.961653 1.617660 11697996
10.692110 10.510636 2.332985 11697996
10.637979 9.811702 1.859957 11697996
10.882250 10.102869 4.014482 11697996
9.043097 9.467768 2.746188 11697996
10.461268 9.725041 3.177848 11697996
10.749504 9.018336 2.143702 11697996
9.083121 10.817946 0.145553 11697996
9.217552 11.044942 3.195523 11697996
9.889021 10.913438 0.784321 11697996
10.897014 10.752933 0.861900 11697996
9.215330 9.456208 1.054915 11697996
10.432165 9.672898 3.625110 11697996
10.878391 11.191378 0.716277 11697996
9.220771 11.105605 2.170712 11697996
9.608614 10.656796 1.789783 11697996
10.075831 9.911304 3.941394 11697996
9.358389 10.937454 2.702630 11697996
10.814939 10.509237 3.167957 11697996
10.813413 10.892219 3.067559 11697996
9.734221 10.526839 1.337420 11697996
10.822739 9.348465 1.122982 11697996
10.005566 9.352171 0.555817 11697996
9.036110 9.588123 1.033054 11697996
9.173370 9.180479 0.224995 11697996
9.305071 10.310757 3.853632 11697996
9.724923 8.946573 0.443605 11697996
9.182277 8.722282 2.309438 11697996
10.890190 9.169250 2.989651 11697996
8.911284 9.668420 3.894817 11697996
9.602399 10.143880 3.693502 11697996
11.083993 9.227173 0.920496 11697996
10.696087 9.470338 1.244167 11697996
9.847235 9.614513 1.575804 11697996
8.765262 11.165064 2.157891 11697996
11.119698 10.287036 2.341294 11697996
11.169581 9.593651 1.156027 11697996
11.217607 9.799915 0.688852 11697996
9.161460 9.793602 2.519890 11697996
9.151955 10.278170 3.231914 11697996
9.525671 9.415607 2.878303 11697996
8.815967 9.536482 3.746094 11697996
10.177562 10.809202 2.570283 11697996
10.591537 10.293525 3.810089 11697996
10.008253 10.119390 3.919633 11697996
8.845880 8.893560 1.719748 11697996
10.226549 8.957411 0.246372 11697996
9.130487 10.971955 0.771126 11697996
8.787189 8.864995 3.076396 11697996
9.918104 8.906961 3.151398 11697996
11.173002 10.932470 2.202988 11697996
9.269442 8.746666 0.921385 11697996
8.992383 9.092450 1.587172 11697996
9.287266 10.215618 1.369337 11697996
10.484562 8.768419 3.289898 11697996
10.748463 9.814826 3.704785 11697996
9.576365 9.745376 0.406983 11697996
9.353838 8.840914 3.330973 11697996
10.695281 9.531194 2.432641 11697996
10.169802 9.523843 3.959364 11697996
9.599455 9.801335 1.664794 11697996
9.799304 10.159136 2.998977 11697996
10.013719 9.413055 1.834330 11697996
10.749626 10.955882 1.440856 11697996
9.952111 8.852637 1.500595 11697996
9.219497 10.439036 1.912580 11697996
9.145188 11.054309 2.042178 11697996
9.995370 9.807378 3.676046 11697996
11.025603 10.116938 0.176219 11697996
9.352029 10.999281 1.401921 11697996
9.890418 10.187098 3.388944 11697996
11.254134 10.646181 0.217121 11697996
10.023396 9.583230 1.280513 11697996
10.858793 9.397700 2.353542 11697996
10.581210 8.761093 1.610745 11697996
8.879482 10.799530 2.375194 11697996
9.019048 9.469342 1.792024 11697996
9.181471 8.846331 3.776337 11697996
9.786887 9.070118 1.121229 11697996
9.603550 8.815878 3.055061 11697996
10.593072 8.762928 2.829619 11697996
11.167085 9.424333 0.283901 11697996
11.235455 9.890906 2.893617 11697996
10.187599 11.213275 0.613986 11697996
9.988276 10.797730 2.007185 11697996
9.791502 10.512179 1.101094 11697996
10.732189 9.844152 2.498647 11697996
10.738769 8.879651 1.754542 11697996
10.656717 9.191770 0.595668 11697996
10.409891 10.765022 0.649837 11697996
8.770949 9.221226 3.446021 11697996
9.897058 10.362415 1.021589 11697996
10.025044 10.827518 1.682371 11697996
8.881336 10.296363 3.873382 11697996
9.452089 10.064352 1.593023 11697996
10.842085 9.830492 1.625501 11697996
8.787127 8.900221 1.070902 11697996
9.389898 11.086994 1.661674 11697996
10.882665 9.482573 1.680211 11697996
8.803780 11.199785 2.963975 11697996
8.884110 10.104965 0.901363 11697996
10.641259 10.737938 0.864061 11697996
9.108150 8.814810 2.655922 11697996
10.024777 9.525866 2.644812 11697996
8.860246 10.093366 3.367090 11697996
10.603001 9.483896 2.518042 11697996
8.899588 9.844046 0.505338 11697996
9.565624 10.182088 3.926140 11697996
8.828528 9.954724 1.312124 11697996
9.189733 10.317412 3.118778 11697996
11.219741 11.043977 0.823895 11697996
9.785743 9.872790 0.346040 11697996
9.653888 9.924232 0.259792 11697996
10.967855 9.952133 1.349257 11697996
9.254292 11.174072 0.625907 11697996
11.074494 11.109896 2.973153 11697996
11.042229 10.663872 1.331614 11697996
10.507524 10.487245 0.226160 11697996
10.016543 11.202831 1.483533 11697996
10.521013 10.257730 3.818667 11697996
9.389016 10.530398 0.591419 11697996
10.605378 9.427423 3.100788 11697996
10.244401 10.725577 0.790480 11697996
8.801561 10.017582 1.669164 11697996
11.162990 9.727400 1.512336 11697996
8.945124 9.283706 3.434175 11697996
10.312152 8.847438 3.550269 11697996
10.457066 8.807886 3.928017 11697996
9.284621 9.116024 2.124613 11697996
10.471962 10.807238 0.624226 11697996
10.684954 9.727391 0.427845 11697996
10.662430 9.891212 1.889534 11697996
9.405659 9.810099 3.603065 11697996
8.935064 9.150769 2.869623 11697996
10.325165 9.164679 2.859554 11697996
10.029427 11.075438 3.042798 11697996
10.369775 10.591682 3.512162 11697996
10.102769 10.104032 0.856371 11697996
9.972468 9.613187 0.410209 11697996
9.502120 11.002682 1.451704 11697996
10.126102 8.903011 1.162634 11697996
10.068392 11.147767 2.636847 11697996
10.114184 9.376999 2.281122 11697996
9.032084 8.853281 0.264052 11697996
9.245192 9.247046 2.080883 11697996
9.303998 10.886859 0.808431 11697996
11.177890 9.685917 1.982766 11697996
10.518320 11.223377 2.000734 11697996
9.168483 11.048782 0.576713 11697996
8.774304 11.224833 0.084720 11697996
9.434159 10.134516 0.724401 11697996
10.621251 10.529340 2.633524 11697996
10.782315 10.317300 1.033315 11697996
9.605581 11.001484 1.471118 11697996
9.019778 9.003861 1.554235 11697996
9.714632 11.035675 1.272243 11697996
9.769667 9.054467 0.635416 11697996
9.242775 8.952325 2.043064 11697996
10.939179 10.368272 0.056513 11697996
10.604916 9.251337 1.810452 11697996
10.009943 9.933952 1.125637 11697996
10.286597 10.529955 3.153208 11697996
9.951097 10.970289 0.361193 11697996
9.083082 10.563156 3.443591 11697996
9.646987 11.211352 3.417054 11697996
9.006002 10.553496 0.487495 11697996
10.141562 8.898206 3.261699 11697996
10.797043 10.305558 0.785398 11697996
10.077900 8.846210 2.434735 11697996
11.230905 9.067428 0.452348 11697996
9.532595 9.229480 0.605662 11697996
11.235243 9.008476 3.281516 11697996
9.179854 9.762097 0.781908 11697996
9.348522 9.258416 4.010628 11697996
10.472644 9.250496 2.556349 11697996
9.820095 9.413064 1.036864 11697996
10.051911 11.198695 2.935602 11697996
11.113124 10.367918 0.298187 11697996
10.840813 9.260586 1.019796 11697996
10.583265 10.660133 3.146839 11697996
10.577348 10.924531 1.436068 11697996
9.930195 9.050940 0.807270 11697996
10.719608 9.760156 0.208035 11697996
9.033732 9.985919 0.479501 11697996
10.833014 9.634253 1.410572 11697996
10.595243 11.213155 3.929365 11697996
10.612928 9.606772 3.751518 11697996
11.231078 9.931747 2.956123 11697996
11.076267 10.024675 3.047781 11697996
8.813726 10.893919 2.787040 11697996
11.088280 9.834337 2.781088 11697996
9.280560 9.772621 3.441086 11697996
9.303905 8.996253 3.424192 11697996
9.844704 10.703584 2.534200 11697996
10.939318 9.210103 0.191186 11697996
10.744805 10.494907 1.258891 11697996
9.928072 10.684920 2.363947 11697996
9.129632 10.374929 1.745847 11697996
10.188684 9.324665 2.197053 11697996
11.041577 10.191244 0.212218 11697996
10.051024 11.155365 2.973470 11697996
10.616814 10.986616 3.823711 11697996
9.754505 8.795288 1.541817 11697996
9.586866 9.449942 1.376459 11697996
10.682001 10.714757 1.659578 11697996
9.594924 10.481500 2.739312 11697996
10.244405 11.240206 0.334753 11697996
9.592133 8.827572 3.305461 11697996
9.544203 10.270678 3.178794 11697996
10.332150 9.110050 3.354610 11697996
9.383343 10.317761 2.972139 11697996
9.617120 10.650610 1.736716 11697996
9.080144 10.818800 2.152018 11697996
10.797493 10.518141 0.918342 11697996
10.805753 10.939610 3.726873 11697996
10.697001 10.974187 1.672356 11697996
11.205245 9.282091 3.277207 11697996
9.869168 11.247335 1.735096 11697996
8.815749 8.790440 2.476742 11697996
9.153769 10.114754 3.119916 11697996
10.575414 10.070532 0.215881 11697996
8.864709 10.222265 3.424046 11697996
10.297313 9.539332 0.845376 11697996
10.246407 8.984489 1.421739 11697996
9.567365 8.907813 3.623860 11697996
9.745657 9.838228 1.573463 11697996
10.865829 9.948923 3.081165 11697996
10.684755 10.312238 3.282237 11697996
10.786549 10.514875 0.670496 11697996
10.765756 10.270362 3.879076 11697996
11.127301 9.505113 1.690693 11697996
9.507653 10.793568 2.565970 11697996
10.236175 8.763203 3.110654 11697996
11.157034 9.495037 2.681275 11697996
10.330412 10.063009 2.075847 11697996
10.337869 10.036708 1.000949 11697996
8.892766 10.981728 3.411834 11697996
10.645321 9.904289 1.743141 11697996
9.471219 10.000791 2.152092 11697996
10.118057 10.688344 3.240899 11697996
9.268503 10.492466 1.852054 11697996
9.246348 9.698866 2.729672 11697996
9.790299 9.148738 3.538156 11697996
9.598572 11.071169 2.010161 11697996
10.587798 8.862979 1.263375 11697996
8.904843 11.115819 0.044725 11697996
11.035307 10.350631 2.074063 11697996
8.879901 11.164745 0.043482 11697996
9.283048 11.114915 1.575252 11697996
10.107858 9.192941 1.474944 11697996
9.186456 10.602422 0.545004 11697996
10.792830 10.949092 3.795048 11697996
10.179626 9.813881 2.672332 11697996
10.958055 10.461089 2.329812 11697996
11.150988 9.913631 2.102566 11697996
9.991449 10.214704 2.199934 11697996
10.015617 10.182379 2.024463 11697996
8.902469 9.507332 0.953055 11697996
10.413021 11.017983 2.187654 11697996
10.982671 10.921676 1.657525 11697996
9.994191 8.842009 0.536880 11697996
9.291400 10.389857 3.302341 11697996
11.158950 9.222785 3.179134 11697996
11.116493 10.619174 2.386725 11697996
10.855053 11.167139 1.191924 11697996
10.745824 9.583982 2.737560 11697996
9.986309 10.839039 1.067307 11697996
11.058729 10.038538 1.290888 11697996
8.992667 10.072313 2.590102 11697996
10.058415 10.383646 0.467802 11697996
10.843798 9.905764 3.423136 11697996
9.822617 10.375765 3.106885 11697996
10.103293 11.169435 1.582833 11697996
9.566564 9.927843 1.538610 11697996
10.306294 10.222148 3.233242 11697996
10.888274 10.713114 3.139991 11697996
10.723800 10.670547 0.891852 11697996
10.699378 10.089592 1.574429 11697996
9.734610 10.702130 4.019450 11697996
10.833846 9.580818 1.386441 11697996
9.044438 10.142492 3.898676 11697996
9.134511 9.585461 0.252211 11697996
10.977850 10.904162 1.638174 11697996
10.165592 10.238533 2.390131 11697996
9.530880 10.969714 1.795826 11697996
10.164515 10.725183 0.206348 11697996
10.890023 8.900863 0.786409 11697996
9.099208 10.848793 0.670009 11697996
11.009170 11.016771 0.522627 11697996
10.079265 10.197080 3.181591 11697996
10.385343 9.963580 0.174459 11697996
10.249698 8.912683 1.603124 11697996
9.282597 8.917994 1.484529 11697996
8.966226 10.329125 3.112995 11697996
10.485832 9.339525 1.538067 11697996
9.162476 9.340439 3.716572 11697996
9.476432 9.200560 0.579270 11697996
10.322645 11.062227 1.181639 11697996
10.490633 9.140063 1.489715 11697996
11.135106 10.355744 1.902299 11697996
10.651622 8.983311 3.660031 11697996
10.923206 10.817825 0.816039 11697996
10.873062 9.201016 1.485420 11697996
9.577913 11.171904 1.836996 11697996
8.953245 10.206455 1.806477 11697996
11.229448 10.129109 0.220250 11697996
10.021792 10.991470 3.622353 11697996
10.608730 10.311229 0.276493 11697996
8.842514 10.585609 0.599748 11697996
8.998810 8.848776 1.483626 11697996
10.899204 9.470729 0.167645 11697996
10.389901 9.475380 3.710242 11697996
10.259528 10.454078 0.765167 11697996
10.395421 10.757939 0.180048 11697996
10.793888 9.163321 1.225686 11697996
10.950896 9.792878 3.729480 11697996
10.487320 9.575766 1.581391 11697996
8.831669 8.948447 0.563633 11697996
10.168033 10.270852 3.679262 11697996
9.244284 10.992640 0.652659 11697996
10.807724 8.829723 0.560287 11697996
8.982962 10.711529 2.524816 11697996
10.734957 9.467287 3.124728 11697996
9.546019 9.762925 0.852252 11697996
10.961040 11.152385 2.361648 11697996
9.594628 10.536321 2.891060 11697996
9.672772 11.115449 1.284420 11697996
9.800159 11.160696 2.741218 11697996
10.323686 10.304156 3.016247 11697996
10.420010 10.655664 3.519861 11697996
10.920938 10.700445 1.437212 11697996
9.110388 10.899694 2.671078 11697996
10.857493 9.643369 0.372539 11697996
11.002811 10.564749 3.090973 11697996
8.810235 9.107755 4.017578 11697996
9.499202 9.435048 2.499951 11697996
10.716937 10.240582 2.477633 11697996
8.800879 9.471192 0.664432 11697996
10.266564 9.231524 3.718134 11697996
10.164735 9.106763 2.560184 11697996
10.354739 11.049377 2.545755 11697996
9.062201 9.514001 1.881008 11697996
10.040725 9.386004 2.219327 11697996
9.197698 9.386660 0.672902 11697996
11.021416 9.551839 3.932266 11697996
10.274239 10.721458 1.868993 11697996
11.017588 9.981251 2.436535 11697996
10.259863 10.957249 1.688235 11697996
9.656066 9.764112 3.329793 11697996
10.569877 8.866698 1.952139 11697996
9.299384 10.693551 1.514559 11697996
9.404906 9.273240 2.062773 11697996
9.119770 9.100988 3.230137 11697996
9.414293 10.489919 2.027150 11697996
11.121246 9.033648 2.289725 11697996
11.131961 9.898042 2.440597 11697996
9.312980 11.154249 2.903665 11697996
9.626087 11.204680 1.194188 11697996
9.074037 9.524570 3.188629 11697996
11.135552 8.951037 1.387457 11697996
10.218863 9.988606 1.682100 11697996
10.086346 10.446996 2.648314 11697996
9.358364 9.152310 0.730066 11697996
9.962276 9.405684 0.400148 11697996
9.103672 8.935471 1.408439 11697996
8.840326 10.340385 2.395399 11697996
9.738107 8.958964 2.976632 11697996
10.120667 10.984262 0.843423 11697996
11.046863 9.241285 3.992826 11697996
10.783459 8.992338 1.236538 11697996
9.654208 9.948599 2.812565 11697996
10.072303 9.339148 2.820574 11697996
10.069338 11.123625 3.066646 11697996
11.024561 10.885933 3.210235 11697996
9.444257 10.947011 1.008967 11697996
9.574344 10.777470 1.080707 11697996
8.760015 9.324035 0.052318 11697996
10.488285 10.800522 2.044175 11697996
10.459517 10.674613 2.464309 11697996
10.196614 9.116608 2.941733 11697996
10.317824 9.616935 3.707133 11697996
9.172265 10.711372 3.720155 11697996
9.721870 10.840429 2.552073 11697996
11.012345 9.893684 0.443034 11697996
10.609909 10.854194 3.367901 11697996
10.747491 10.269526 2.103118 11697996
10.356392 10.434781 0.323168 11697996
11.010703 10.467505 2.647918 11697996
9.707882 9.678868 2.617049 11697996
11.124436 10.949116 1.293528 11697996
9.382389 9.472453 3.149515 11697996
10.924925 8.916893 3.580092 11697996
11.220057 9.814097 1.936624 11697996
10.434793 10.311381 2.654394 11697996
9.679988 9.125300 0.417037 11697996
11.247121 10.427113 0.263400 11697996
9.945513 9.248828 0.993750 11697996
10.393774 10.345118 2.379713 11697996
10.789621 8.761515 1.201020 11697996
9.986560 9.064399 0.567843 11697996
9.705442 11.200432 0.840046 11697996
10.134799 9.198134 1.160908 11697996
8.865801 9.471127 1.549815 11697996
9.716523 8.920519 1.714497 11697996
9.820546 9.864925 1.095686 11697996
10.123164 10.841609 3.408927 11697996
10.271543 8.940780 1.120147 11697996
9.066123 10.174212 1.298456 11697996
11.091038 8.827716 2.001309 11697996
11.080586 9.328524 2.234401 11697996
11.052275 9.192398 3.970502 11697996
8.878658 10.411284 2.272712 11697996
8.874277 10.438767 0.515974 11697996
9.051679 11.094630 3.770233 11697996
9.191979 9.716952 0.816685 11697996
9.216151 10.780596 1.393958 11697996
9.352983 10.730186 1.337901 11697996
10.973665 10.234315 1.972382 11697996
10.358444 10.554821 2.574486 11697996
8.859722 10.237010 3.302425 11697996
9.489134 10.208999 3.576108 11697996
9.052427 10.923340 3.191043 11697996
11.150680 10.280299 0.728312 11697996
9.421988 9.070933 2.438110 11697996
9.135348 10.082030 1.073992 11697996
11.074510 9.505613 2.040123 11697996
10.827051 9.498339 0.276465 11697996
9.756660 10.369572 1.834587 11697996
10.250464 10.089512 1.190049 11697996
8.754355 10.406376 3.070139 11697996
10.348714 9.226303 1.376593 11697996
9.752197 9.289412 0.020280 11697996
9.231052 9.977636 2.863873 11697996
10.562939 9.539926 0.871221 11697996
10.198198 10.179733 3.562175 11697996
8.927888 11.076422 1.861470 11697996
11.033191 9.223406 1.316591 11697996
9.215589 9.769554 2.964084 11697996
8.927116 9.066165 2.182025 11697996
9.423115 10.244553 1.064598 11697996
11.055134 9.628951 3.481691 11697996
9.622859 10.064932 1.929906 11697996
10.599305 11.215725 0.070604 11697996
9.670123 9.643739 1.391670 11697996
10.775494 8.891084 3.641806 11697996
9.601066 10.419657 0.302535 11697996
10.774386 10.062600 2.890385 11697996
9.095245 10.036070 3.766895 11697996
8.986267 10.807214 3.436917 11697996
10.656034 8.919075 1.554554 11697996
9.139284 10.571774 2.748078 11697996
9.944088 10.026208 3.960359 11697996
10.190971 10.902470 2.300555 11697996
9.874147 10.130387 0.315734 11697996
8.878934 8.906484 2.146378 11697996
10.206787 9.751790 3.831518 11697996
10.640929 11.183346 2.241252 11697996
9.313890 10.132114 3.184971 11697996
9.866584 9.887957 2.623308 11697996
8.937481 10.265120 0.197380 11697996
10.764908 10.483192 1.934976 11697996
10.148925 9.678221 3.352687 11697996
10.958132 10.183368 3.393496 11697996
8.937640 9.209085 3.909936 11697996
9.325651 10.828221 3.358423 11697996
10.273265 10.708989 0.944909 11697996
10.792745 9.907929 2.261833 11697996
10.476754 8.762355 3.504629 11697996
10.833468 8.934765 0.898859 11697996
9.416443 10.237546 2.544570 11697996
9.107135 10.844216 1.161651 11697996
10.315513 8.837602 3.307526 11697996
9.686310 10.801073 2.909992 11697996
9.880892 10.559362 1.129027 11697996
11.117920 11.026926 1.422828 11697996
9.576157 8.855293 3.896945 11697996
10.744840 9.859369 2.299892 11697996
8.758928 9.346588 1.190597 11697996
10.843154 11.086654 3.752482 11697996
10.693682 10.933048 2.507963 11697996
9.523415 9.789083 1.186383 11697996
10.205860 9.262125 2.003597 11697996
9.776566 9.996123 2.720628 11697996
10.011844 9.723780 0.812723 11697996
10.328949 11.207497 1.885929 11697996
10.692799 9.177367 0.219519 11697996
9.523559 10.708320 1.205842 11697996
11.188821 11.024583 2.546653 11697996
10.501462 9.737783 2.078010 11697996
8.985297 10.369247 3.877793 11697996
9.186755 10.593914 0.135478 11697996
10.296187 10.024893 3.643508 11697996
10.776810 10.636583 3.121424 11697996
9.610266 11.239182 3.629086 11697996
9.366717 9.232449 2.984183 11697996
10.029838 9.287452 1.206397 11697996
9.155813 9.002885 0.838884 11697996
10.361968 9.626952 3.081975 11697996
10.566204 11.100859 2.244072 11697996
10.175227 8.901476 0.531641 11697996
10.707934 10.072604 3.480781 11697996
9.094810 10.962428 2.182504 11697996
11.013047 10.148310 1.555725 11697996
10.633389 10.403847 0.587374 11697996
8.827829 10.853773 2.879011 11697996
8.803691 10.492505 0.275669 11697996
9.403415 10.146893 3.560844 11697996
9.046494 9.321675 2.147377 11697996
9.637896 9.736779 2.089685 11697996
10.346805 10.032947 1.882236 11697996
9.220027 9.314741 2.297368 11697996
9.517392 10.874345 3.363639 11697996
10.059031 9.994979 3.335751 11697996
10.687014 8.809691 0.852151 11697996
9.204009 11.236772 3.926870 11697996
9.420588 9.875605 0.968791 11697996
8.875839 11.216754 2.721111 11697996
10.167542 9.620264 3.437913 11697996
11.254230 10.317352 0.198452 11697996
9.312862 8.999417 2.717789 11697996
8.952041 9.327097 1.303949 11697996
9.003545 9.772594 1.633296 11697996
8.913465 9.703851 2.175939 11697996
11.048830 11.073226 3.592766 11697996
10.398532 9.881325 2.998947 11697996
8.766617 9.720514 3.471775 11697996
10.293802 9.634969 0.355594 11697996
10.447247 10.579835 1.917296 11697996
10.747073 9.629299 0.082730 11697996
11.158157 8.938169 3.995354 11697996
10.542110 10.456840 2.045562 11697996
10.237624 10.190336 0.759557 11697996
9.989164 9.152120 1.461385 11697996
11.086396 9.268585 2.204152 11697996
9.071475 11.196460 0.946231 11697996
9.028392 9.472397 3.318110 11697996
10.482903 9.957849 2.782705 11697996
8.785726 11.217625 1.142511 11697996
10.537513 9.781610 3.043144 11697996
9.123727 10.665699 3.388890 11697996
9.142556 10.170692 3.988347 11697996
10.922290 10.260337 1.960865 11697996
10.910716 9.685467 1.018667 11697996
9.373591 8.960196 3.854639 11697996
8.764737 9.824336 2.460414 11697996
10.280095 10.422720 1.854207 11697996
11.098156 10.948106 3.558691 11697996
8.864111 9.426493 3.871097 11697996
9.881102 9.122521 3.467481 11697996
9.979214 9.630780 2.135374 11697996
8.913291 10.009479 2.453428 11697996
9.668201 9.939957 3.711203 11697996
9.920211 10.912482 2.630922 11697996
10.914632 11.123562 0.852218 11697996
9.323676 9.065620 0.083603 11697996
9.708793 10.847307 0.153566 11697996
10.183081 10.308511 3.554027 11697996
10.920671 9.058372 0.964357 11697996
9.330056 11.022360 1.784383 11697996
10.153378 9.224845 2.181530 11697996
8.782821 10.033962 0.766388 11697996
9.726226 9.913113 3.939302 11697996
9.933100 11.211157 2.389509 11697996
9.342337 10.890289 2.967085 11697996
10.670596 9.618151 2.204350 11697996
10.893302 9.027423 2.770705 11697996
10.901964 10.893421 1.773658 11697996
11.232703 9.882723 2.238319 11697996
9.680646 9.341074 2.493609 11697996
9.327328 8.847692 2.926897 11697996
11.012239 8.973050 2.681976 11697996
9.835853 8.816682 0.586902 11697996
9.814784 9.028581 3.573899 11697996
10.971224 9.800311 0.871443 11697996
11.117731 9.013242 3.668023 11697996
10.460972 9.174191 2.300741 11697996
10.795756 10.415143 1.401347 11697996
9.385849 10.562218 0.183158 11697996
9.370713 10.709558 2.755026 11697996
9.563231 9.338886 3.906154 11697996
9.074316 10.933105 2.171134 11697996
9.776658 9.924067 0.548661 11697996
10.549472 10.127257 1.791028 11697996
11.169386 11.043361 0.280149 11697996
8.929641 10.438624 2.836851 11697996
10.411428 10.064213 1.534028 11697996
10.574166 10.341877 0.796188 11697996
10.561931 9.682164 3.565085 11697996
11.042165 8.857588 0.304624 11697996
11.004440 11.201653 0.015875 11697996
10.746505 9.738057 3.568184 11697996
9.686209 10.821219 3.379395 11697996
9.535520 9.451285 2.248313 11697996
10.485429 9.562134 1.599572 11697996
11.014951 9.448872 1.922746 11697996
10.443743 10.029480 0.540140 11697996
9.794579 11.177945 2.401332 11697996
11.103203 8.916440 2.346821 11697996
10.962445 9.605268 2.542582 11697996
9.739140 10.900887 2.649656 11697996
9.152399 10.359580 0.906026 11697996
9.316216 8.832208 2.181627 11697996
11.068728 9.839265 3.017892 11697996
9.427644 10.890167 1.266470 11697996
10.253141 9.278886 1.503181 11697996
9.611749 10.416185 2.000379 11697996
9.704736 9.176875 2.278255 11697996
9.230080 9.146656 0.663176 11697996
10.516113 11.099794 3.449290 11697996
9.871828 9.793383 2.147800 11697996
10.148393 9.163790 3.313275 11697996
10.413226 10.088881 1.518368 11697996
9.239622 10.870124 1.159480 11697996
9.646698 10.217060 3.950039 11697996
9.779120 8.983126 3.518735 11697996
8.962090 9.506729 0.267586 11697996
10.611806 10.419732 0.139872 11697996
9.299918 10.513719 1.868787 11697996
10.545222 8.994834 2.473569 11697996
10.477960 10.318921 0.606426 11697996
9.945262 10.064108 3.664750 11697996
9.763242 9.713476 0.635482 11697996
11.204256 10.481912 2.836108 11697996
9.677932 10.622191 1.952649 11697996
9.154682 10.854168 3.785166 11697996
9.269730 11.068143 1.239614 11697996
11.098343 11.089987 3.816383 11697996
10.372860 10.187497 2.410542 11697996
9.883204 10.080598 3.640016 11697996
9.085674 9.106859 1.792659 11697996
9.551736 9.954838 3.271845 11697996
10.920912 9.245681 0.161231 11697996
11.069379 9.190455 0.621476 11697996
9.795790 11.137619 2.580956 11697996
10.987415 9.341038 1.456119 11697996
9.283919 9.909022 2.535751 11697996
11.216705 11.131506 0.860007 11697996
11.190175 10.587849 1.825075 11697996
10.348824 8.843678 3.728231 11697996
9.309535 9.701369 3.155478 11697996
10.341618 9.027920 0.851056 11697996
9.572536 9.459374 0.086008 11697996
10.050882 8.875618 3.141553 11697996
10.806422 10.417771 3.045175 11697996
8.754419 9.101486 3.508473 11697996
10.021370 9.575494 1.117260 11697996
10.348857 9.400247 2.330536 11697996
11.126228 9.599030 3.444623 11697996
9.873910 11.204380 3.235206 11697996
11.015018 10.565213 2.626312 11697996
10.682414 10.380044 0.618766 11697996
9.022068 9.124078 2.272760 11697996
10.188965 9.517662 3.783254 11697996
10.822417 10.728746 0.711143 11697996
11.249945 8.813363 0.930456 11697996
9.303588 9.556548 3.767348 11697996
11.249051 10.250974 1.600028 11697996
10.951093 9.427523 1.663095 11697996
11.009020 10.151697 2.374811 11697996
8.865389 10.790195 1.225938 11697996
9.616573 9.836047 0.353298 11697996
10.304214 8.990519 3.273399 11697996
9.556361 8.843627 1.278515 11697996
11.004698 9.143220 1.133572 11697996
10.341038 8.814443 0.400488 11697996
9.875261 9.670772 2.810156 11697996
10.842196 9.773495 3.962362 11697996
9.071426 9.317937 3.409111 11697996
10.027411 10.843210 0.703504 11697996
10.136979 8.793240 3.077535 11697996
10.855602 9.274476 3.637306 11697996
9.516297 9.792619 3.400329 11697996
9.490930 8.948674 3.453301 11697996
10.134195 9.202394 1.276853 11697996
10.607146 9.083171 1.763503 11697996
9.864237 10.890187 3.593522 11697996
11.080750 9.653956 3.526765 11697996
9.789243 10.889920 3.259783 11697996
10.066633 9.544551 0.545725 11697996
9.194084 9.280385 2.879208 11697996
10.452949 8.971607 3.134677 11697996
9.841418 9.576005 0.401977 11697996
8.782129 10.849190 3.301057 11697996
10.313526 9.641521 0.708308 11697996
10.521349 10.908997 1.660496 11697996
9.793112 10.718210 1.948867 11697996
9.249788 10.230960 2.036022 11697996
10.546999 10.696651 3.655956 11697996
10.112793 9.868518 3.176423 11697996
9.955194 9.636365 1.595646 11697996
9.350504 9.859952 3.466460 11697996
9.909265 11.143398 3.836237 11697996
8.991848 11.150489 0.971184 11697996
10.584212 10.088080 0.154590 11697996
10.535047 10.323442 1.783771 11697996
10.071510 9.101301 0.800748 11697996
9.404397 9.571883 2.578393 11697996
11.109861 10.958860 1.007520 11697996
10.627960 11.133615 1.041508 11697996
9.625951 10.405653 1.018424 11697996
8.865933 11.219528 1.622813 11697996
10.182191 10.034827 2.962401 11697996
8.944787 9.274940 2.003695 11697996
11.019917 9.031631 0.647905 11697996
9.783628 8.767076 0.788208 11697996
9.180426 10.408450 1.663608 11697996
10.864973 9.235747 0.563487 11697996
9.839952 9.577423 2.841176 11697996
9.779971 10.214669 0.237659 11697996
11.022582 10.480894 0.423987 11697996
9.484287 10.100092 1.532089 11697996
8.755446 11.102203 2.472193 11697996
10.308929 9.492171 0.526890 11697996
10.666645 8.877965 0.207887 11697996
11.234518 9.414275 2.622110 11697996
9.512166 10.722865 1.221474 11697996
10.225475 9.001994 1.036148 11697996
10.718192 10.817552 1.703166 11697996
9.550492 9.986837 2.348188 11697996
10.386019 9.140024 0.470594 11697996
10.605285 9.021737 2.450426 11697996
10.726015 10.150901 1.185859 11697996
9.352352 9.179019 1.748545 11697996
9.849392 10.252556 2.002596 11697996
9.139256 9.049972 1.659971 11697996
9.616445 8.996308 2.449398 11697996
9.503379 11.222108 1.603308 11697996
11.172978 9.644758 1.510191 11697996
9.657218 8.859202 0.418904 11697996
10.322071 10.642351 2.678384 11697996
10.992727 8.771110 2.031014 11697996
9.514062 9.058462 0.066625 11697996
10.007874 10.307849 2.644852 11697996
9.463680 9.645269 1.642764 11697996
9.394433 10.689638 2.869720 11697996
9.937346 9.758310 1.020882 11697996
9.159307 10.272094 2.867239 11697996
9.442234 10.643496 0.816979 11697996
10.062770 9.757821 3.943288 11697996
9.076649 10.592770 2.239627 11697996
8.763048 8.939503 1.141017 11697996
10.609747 9.161037 1.343642 11697996
10.072487 9.726739 2.256649 11697996
11.106003 10.359321 0.231848 11697996
11.086473 10.325788 3.531299 11697996
9.103753 10.195517 1.797805 11697996
9.947271 10.874844 3.229479 11697996
10.712385 10.688353 1.181653 11697996
11.214249 10.132444 1.940159 11697996
10.889524 11.241754 1.350044 11697996
10.724154 11.064596 3.761119 11697996
9.877257 10.249282 1.986121 11697996
11.284182 10.339571 0.475920 11697996
10.511078 10.058101 2.092138 11697996
10.103805 9.790944 3.648995 11697996
9.392373 10.692332 2.036862 11697996
9.597251 10.285028 2.698805 11697996
9.822434 9.654630 0.950806 11697996
9.094514 8.887376 3.344972 11697996
9.526072 8.961759 0.087691 11697996
10.754579 10.031740 2.267186 11697996
9.477383 9.150033 3.779456 11697996
9.937318 9.882997 2.128856 11697996
9.381802 10.530400 0.394799 11697996
9.674613 10.206560 2.064527 11697996
9.370243 11.113178 3.832087 11697996
9.913250 9.959093 2.241885 11697996
8.959311 10.293022 0.908362 11697996
9.621121 9.606499 2.312527 11697996
11.137840 10.459909 1.147467 11697996
10.872144 10.420094 1.625515 11697996
9.377407 9.366196 0.092113 11697996
9.908802 10.039405 1.269244 11697996
11.181118 9.870178 1.119904 11697996
9.799680 9.306209 -0.001849 11697996
9.026990 9.537743 1.815318 11697996
10.843052 9.473542 0.616381 11697996
9.642426 10.029109 1.443158 11697996
9.677573 10.802413 0.262346 11697996
11.195447 10.304337 3.998133 11697996
8.753031 9.721626 2.618239 11697996
9.988682 10.793509 3.158902 11697996
10.079625 9.979138 2.289553 11697996
11.158433 9.841768 2.127834 11697996
9.784553 10.228084 3.484836 11697996
8.953770 9.185348 2.411095 11697996
9.693311 10.417921 2.839469 11697996
10.561426 9.863429 3.813897 11697996
10.563147 9.592711 2.834352 11697996
9.001299 9.484921 2.913008 11697996
10.795951 11.201683 2.782472 11697996
11.196713 10.710939 0.461774 11697996
11.236974 8.760684 1.748506 11697996
9.813859 9.942084 2.504564 11697996
10.445130 8.922528 3.630265 11697996
10.666927 9.630046 1.695920 11697996
10.281306 8.922857 1.246462 11697996
9.726824 10.446143 3.819221 11697996
10.606211 10.467971 1.311345 11697996
10.159493 10.334740 3.675986 11697996
10.162918 9.175574 0.586436 11697996
9.852915 9.079656 1.045420 11697996
10.541801 10.697139 1.736116 11697996
9.941122 10.166747 0.467527 11697996
10.063627 10.409247 3.711292 11697996
10.235862 9.654975 1.572910 11697996
11.078105 9.473504 3.356203 11697996
9.773119 8.792356 3.538137 11697996
9.407746 9.787027 1.265636 11697996
8.925185 8.960182 3.390780 11697996
10.507920 10.499092 1.274319 11697996
10.221068 10.108562 0.191344 11697996
9.012514 10.471025 2.981781 11697996
10.725297 8.800720 1.075231 11697996
8.976244 9.038929 3.286299 11697996
9.718499 11.132878 2.923284 11697996
9.761345 10.943515 0.224288 11697996
11.035015 9.502028 2.003577 11697996
10.532062 10.124627 3.046855 11697996
9.254753 10.575454 2.786331 11697996
11.123592 10.904469 0.181641 11697996
10.096785 9.172422 1.877026 11697996
10.602284 10.277689 2.265853 11697996
11.224010 9.866041 3.093939 11697996
9.041133 10.087049 2.475219 11697996
10.907273 9.129116 1.250617 11697996
11.165116 10.812957 0.152204 11697996
10.407112 10.968390 3.293310 11697996
10.705451 10.820899 3.017609 11697996
9.462985 9.313218 1.084607 11697996
8.883156 9.860724 2.666646 11697996
10.015606 10.591660 3.702509 11697996
10.280398 10.462088 0.924824 11697996
10.291132 9.379615 2.788090 11697996
11.120747 10.987767 2.701526 11697996
9.570892 8.818309 1.119283 11697996
9.444347 9.586301 1.500597 11697996
10.153787 11.148468 2.570874 11697996
9.110922 9.205601 1.703653 11697996
9.379818 8.942758 2.951448 11697996
9.684553 9.736920 2.014279 11697996
10.711424 11.084294 3.668488 11697996
11.104753 10.387426 3.774200 11697996
10.968267 9.201443 0.041860 11697996
11.102230 10.457000 3.192011 11697996
8.970762 9.032638 1.214409 11697996
8.923677 10.279339 3.046911 11697996
9.019064 9.499845 0.942274 11697996
9.327052 9.565861 2.651987 11697996
10.067763 9.128516 3.167763 11697996
8.770236 8.939498 0.435410 11697996
10.120344 10.315069 1.258754 11697996
8.808242 10.269724 0.892734 11697996
9.466763 10.142068 0.411112 11697996
9.603306 9.901756 1.774798 11697996
9.313250 9.147164 1.355635 11697996
9.967093 9.044004 0.971492 11697996
9.386115 9.520353 0.363711 11697996
9.285157 9.603625 0.287857 11697996
9.543616 10.365343 1.883049 11697996
9.062162 9.844441 3.722900 11697996
9.513406 10.009153 0.532147 11697996
9.778154 10.368423 0.702003 11697996
10.778199 11.184690 1.705125 11697996
11.001623 10.232388 0.746012 11697996
9.341379 9.084398 2.483341 11697996
10.036732 9.451789 1.630290 11697996
9.523694 10.070436 2.804399 11697996
10.066057 10.536551 2.638913 11697996
10.936357 9.704161 2.165866 11697996
10.796170 9.547290 0.693951 11697996
9.469144 11.228986 3.637653 11697996
11.186073 10.277500 0.542913 11697996
10.960607 10.486258 3.546065 11697996
10.984673 10.131062 2.376426 11697996
9.430978 8.837207 1.790107 11697996
10.411167 11.049846 0.481331 11697996
9.675474 9.040100 2.022464 11697996
9.653311 9.562927 2.039034 11697996
10.273149 9.636085 1.275426 11697996
9.978557 10.502402 1.322200 11697996
10.388425 9.690498 3.500536 11697996
11.210379 8.877141 0.832301 11697996
10.159266 9.185524 2.857375 11697996
9.523048 9.289469 2.143934 11697996
8.774275 9.354495 0.355306 11697996
9.692178 9.489058 0.693342 11697996
9.034781 10.130053 1.917454 11697996
11.086557 10.284328 1.532525 11697996
9.370389 10.100923 0.690644 11697996
10.126531 8.777468 0.014995 11697996
9.996730 10.472206 3.013869 11697996
9.154037 9.271057 2.517188 11697996
9.291225 9.316887 0.480712 11697996
10.769629 11.171082 3.968938 11697996
9.208164 10.321956 1.548497 11697996
9.874817 9.502459 3.535176 11697996
8.774809 9.411090 2.232154 11697996
10.357294 9.666287 2.768589 11697996
9.753039 11.224966 3.787164 11697996
10.379620 10.583035 2.999877 11697996
10.552779 10.990782 3.992960 11697996
11.206505 9.086461 2.753618 11697996
9.807402 9.383228 2.500006 11697996
10.302939 10.738574 3.267360 11697996
9.536680 10.197267 3.539573 11697996
9.292839 9.965093 0.118632 11697996
10.258772 10.818104 1.657618 11697996
10.754538 10.229252 1.977650 11697996
10.904673 10.592588 1.053245 11697996
10.135128 8.858963 1.848086 11697996
10.001417 10.331928 1.258192 11697996
11.144004 9.632180 1.914739 11697996
10.473683 9.461368 3.619531 11697996
9.980088 10.102280 0.924472 11697996
10.861111 10.949639 1.236198 11697996
10.255506 9.798573 2.570302 11697996
9.708638 9.199307 3.342405 11697996
9.719926 10.900851 2.218369 11697996
9.472059 10.424988 0.883016 11697996
10.874233 10.641199 3.459638 11697996
9.259700 9.603370 2.329121 11697996
9.018875 10.800779 0.016854 11697996
9.389718 10.869118 1.945355 11697996
9.868527 8.877178 3.063852 11697996
8.845662 9.767677 2.048323 11697996
8.989839 10.617813 0.346568 11697996
8.824885 9.285410 1.235589 11697996
10.900638 9.349807 1.043646 11697996
10.902327 10.435212 3.057337 11697996
9.041683 10.855061 3.803616 11697996
10.925735 9.486961 2.966479 11697996
10.871312 8.747189 0.344688 11697996
9.001857 10.373286 1.008788 11697996
10.423510 8.842501 1.972043 11697996
9.352120 9.307299 0.049452 11697996
9.598966 9.959562 1.240721 11697996
10.691488 8.917843 1.081506 11697996
9.105958 10.573359 0.988306 11697996
10.556835 10.201971 0.420522 11697996
11.031593 9.323971 1.894343 11697996
9.048888 9.881782 1.981248 11697996
10.119025 11.115955 2.739005 11697996
8.863140 9.210644 0.623277 11697996
9.530310 10.832642 3.770663 11697996
9.233384 9.644047 2.208252 11697996
9.280214 10.449102 0.159077 11697996
10.689111 9.865923 2.482443 11697996
9.556583 8.831854 3.789842 11697996
10.934098 10.071951 1.480635 11697996
9.053886 10.378162 1.683948 11697996
9.329293 9.385316 2.017763 11697996
10.230423 8.815975 3.905241 11697996
10.037355 9.187387 3.293842 11697996
10.699213 10.087128 3.190816 11697996
11.256083 10.652407 3.807782 11697996
9.270989 9.292733 2.122113 11697996
9.512330 10.962263 3.243306 11697996
10.034017 9.307069 0.476511 11697996
9.519189 10.481823 2.362259 11697996
10.932486 8.921188 1.140702 11697996
9.650054 10.343967 1.579313 11697996
10.504443 10.438523 1.544736 11697996
9.867683 9.063120 2.525015 11697996
9.287069 10.497221 2.074015 11697996
9.234844 10.059500 0.664501 11697996
9.623949 10.461612 3.780044 11697996
10.289910 9.828285 3.609896 11697996
10.013262 9.281938 1.998400 11697996
10.630286 9.822304 0.423045 11697996
11.225866 10.590031 3.229335 11697996
10.663823 9.639377 3.247919 11697996
10.222495 10.374043 0.758885 11697996
9.633301 10.317178 2.657491 11697996
10.995581 11.134592 3.941278 11697996
11.113899 11.183905 2.005673 11697996
9.242344 9.024265 0.247321 11697996
9.743045 9.796638 3.545522 11697996
9.307948 11.071975 1.624983 11697996
8.938475 10.579241 0.439749 11697996
11.169005 11.000299 2.740801 11697996
8.858779 10.661872 1.612543 11697996
10.658403 9.434406 1.028963 11697996
10.846873 9.584288 3.169140 11697996
10.157745 10.197272 0.942102 11697996
9.079995 9.672494 2.381546 11697996
11.109169 9.115191 0.506993 11697996
9.374341 8.823138 2.214364 11697996
10.919398 10.875877 2.302671 11697996
10.439803 10.744041 3.771518 11697996
9.486954 10.922100 0.961065 11697996
9.287724 10.228978 3.501126 11697996
10.327147 9.463183 2.909549 11697996
10.585766 10.430341 3.619371 11697996
8.847853 11.150946 1.224021 11697996
9.556801 10.232107 1.125359 11697996
9.612598 10.026700 3.134269 11697996
10.712293 10.379927 3.214709 11697996
10.160675 9.563091 0.165695 11697996
9.046063 8.928675 0.035323 11697996
9.515521 10.282688 1.428529 11697996
10.643934 9.594920 3.556431 11697996
9.101345 11.193977 0.568892 11697996
9.519840 11.148319 0.461197 11697996
10.724612 8.863215 1.588233 11697996
10.414853 10.808544 2.127123 11697996
11.229892 10.938631 3.058994 11697996
11.138524 8.908439 2.592474 11697996
9.910431 10.762180 3.928780 11697996
9.469498 10.390144 3.913260 11697996
9.121468 9.167733 3.151440 11697996
9.148689 10.570505 3.419637 11697996
10.956302 11.044251 2.821838 11697996
9.605746 10.443098 2.043928 11697996
9.371904 9.979663 3.692027 11697996
10.928926 9.744129 3.794079 11697996
9.638364 9.056810 0.397925 11697996
9.093545 9.206232 0.596963 11697996
9.513239 9.065664 1.357923 11697996
9.706844 10.350870 3.234003 11697996
10.830955 9.310592 0.773978 11697996
9.063921 10.149486 1.977234 11697996
9.516532 10.524703 1.095582 11697996
10.115856 9.218548 2.760840 11697996
9.506270 10.190548 0.034111 11697996
9.380446 9.201790 0.259519 11697996
10.838566 9.859253 1.484765 11697996
9.832138 10.746902 0.184784 11697996
8.997558 9.720737 0.894933 11697996
10.181597 9.465202 2.061303 11697996
10.876507 9.260093 1.059458 11697996
8.876845 10.213995 1.881208 11697996
8.813782 10.983190 3.611989 11697996
10.603355 9.094110 2.370506 11697996
9.287011 10.924183 1.814463 11697996
10.622080 9.908242 0.560628 11697996
9.490504 9.139616 3.733245 11697996
10.338587 10.296285 0.019257 11697996
10.715835 9.024806 3.692603 11697996
9.145775 11.102084 3.947775 11697996
10.264592 9.283487 1.957699 11697996
8.789212 9.011145 3.664110 11697996
10.305201 9.256143 2.651733 11697996
9.737378 9.978421 3.932308 11697996
8.768975 9.779654 1.457690 11697996
9.250353 10.473535 2.151069 11697996
9.655479 10.712579 2.766238 11697996
9.298881 9.818886 2.144666 11697996
8.750068 10.274122 3.197357 11697996
9.325644 10.931990 0.120331 11697996
8.815399 9.457544 2.489498 11697996
10.860038 9.811144 1.541627 11697996
10.267113 9.784502 1.762410 11697996
10.440013 10.070675 2.351578 11697996
10.128540 9.187215 2.952318 11697996
10.107624 10.332182 3.504860 11697996
9.166105 10.100330 0.990164 11697996
9.349660 8.844074 2.620014 11697996
11.215535 11.133683 1.264519 11697996
9.091352 10.195091 2.612233 11697996
9.632018 9.738676 2.737170 11697996
9.380149 9.756001 1.699554 11697996
9.397363 10.868054 3.602918 11697996
10.697857 8.843857 2.776292 11697996
10.130728 9.324722 1.598615 11697996
10.939463 10.728732 3.815231 11697996
9.123670 9.437860 3.361359 11697996
10.075418 9.647729 0.862821 11697996
9.247696 10.958179 0.423911 11697996
9.035271 11.015741 1.970120 11697996
10.931900 10.815258 1.315370 11697996
9.877177 9.259014 3.193524 11697996
10.359556 9.855406 1.341531 11697996
10.322927 9.888681 3.946198 11697996
9.430159 9.103006 3.577960 11697996
9.794648 10.460839 3.197276 11697996
8.978841 9.816952 2.796625 11697996
10.353531 11.014765 0.446932 11697996
10.123760 10.974707 3.014889 11697996
9.000743 9.490582 0.262628 11697996
8.768412 10.177996 0.954970 11697996
9.701112 10.625744 0.545972 11697996
10.387178 10.180810 3.297584 11697996
9.105003 10.232692 3.658991 11697996
11.217824 10.281763 2.515270 11697996
10.929631 10.059924 2.863434 11697996
10.163967 9.976823 0.149269 11697996
10.547663 9.431602 1.632191 11697996
9.093390 9.119313 0.523090 11697996
8.923242 10.901309 0.499692 11697996
9.108381 10.210562 2.233376 11697996
9.799961 10.634667 2.009217 11697996
10.930002 9.390574 3.377163 11697996
9.032531 10.755544 2.014279 11697996
8.839351 10.149123 2.752155 11697996
9.767135 10.071075 0.610953 11697996
10.770210 10.695270 0.510459 11697996
9.345694 10.106875 3.227200 11697996
8.763253 8.952509 1.679785 11697996
9.648612 9.728499 1.434556 11697996
9.585468 11.117461 2.497126 11697996
11.025116 9.851513 2.815129 11697996
9.459580 9.396046 2.583875 11697996
9.341426 9.599224 1.686527 11697996
10.519588 11.196949 0.398823 11697996
9.250201 8.934113 3.425118 11697996
10.587060 9.788856 2.290613 11697996
9.972332 10.662872 1.602898 11697996
9.796470 11.168402 2.140908 11697996
10.617984 11.024263 2.278470 11697996
9.742261 11.076614 3.466389 11697996
10.128251 8.959565 0.095542 11697996
9.770844 10.439002 1.631827 11697996
8.874516 9.761744 2.763414 11697996
10.144328 9.923290 2.383303 11697996
10.994429 9.890203 1.864159 11697996
10.108374 10.667603 1.086301 11697996
9.269520 8.982109 3.207202 11697996
9.635938 9.640391 0.809674 11697996
9.783129 10.161983 1.005724 11697996
10.036011 9.906603 2.436647 11697996
11.208714 10.531882 3.338176 11697996
9.600675 9.966685 1.902779 11697996
10.647089 8.831701 0.204094 11697996
11.135875 9.333161 0.014739 11697996
11.119966 9.344779 0.830978 11697996
9.750670 10.308292 1.576072 11697996
10.404902 8.973191 0.668427 11697996
11.103953 8.887833 2.819424 11697996
11.179105 9.408805 3.281384 11697996
11.085664 9.186974 2.098138 11697996
11.169381 10.741440 3.908734 11697996
10.538072 9.700741 2.560188 11697996
10.096633 10.180228 0.338882 11697996
10.800589 10.466622 1.358762 11697996
9.497238 8.812317 1.541317 11697996
9.323276 9.965815 3.431727 11697996
10.693343 10.496109 2.071341 11697996
10.904346 8.831460 2.285234 11697996
9.036438 8.860603 3.398746 11697996
10.208621 10.747542 0.408170 11697996
11.122170 10.931178 3.505949 11697996
10.644044 10.446658 3.044942 11697996
9.351754 10.005342 3.379428 11697996
10.382528 11.086951 0.789258 11697996
10.062300 9.372348 0.901331 11697996
10.571200 10.378288 1.707470 11697996
10.010012 10.151580 3.379676 11697996
9.626164 10.036574 2.706354 11697996
10.505684 9.150746 1.181595 11697996
10.003363 9.574033 1.796330 11697996
10.763809 10.254839 1.780839 11697996
