# .PCD v0.7 - Point Cloud Data file format
VERSION 0.7
FIELDS x y z rgb
SIZE 4 4 4 4
TYPE F F F U
COUNT 1 1 1 1
WIDTH 1292
HEIGHT 1
VIEWPOINT 0 0 0 1 0 0 0
POINTS 1292
DATA ascii
10.566365 10.050786 0.183264 11697996
8.868902 10.169269 3.371136 11697996
10.325121 9.563220 0.811659 11697996
10.208411 8.980052 1.403981 11697996
9.615113 8.876471 3.604834 11697996
9.782170 9.771817 1.603347 11697996
10.889503 9.957388 3.054361 11697996
10.700859 10.318212 3.311017 11697996
10.813525 10.493412 0.664069 11697996
10.776947 10.226966 3.867262 11697996
11.090210 9.506953 1.685583 11697996
9.495376 10.805208 2.601956 11697996
10.229428 8.753239 3.150503 11697996
11.179032 9.482533 2.680644 11697996
10.293546 10.068324 2.071144 11697996
10.326634 10.034804 0.987585 11697996
8.857931 11.009952 3.438470 11697996
10.653515 9.889517 1.761742 11697996
9.479420 10.003861 2.160985 11697996
10.142168 10.718311 3.242090 11697996
9.285827 10.495493 1.894761 11697996
9.203095 9.746804 2.759145 11697996
9.771435 9.131310 3.549724 11697996
9.598761 11.042099 2.011598 11697996
10.622310 8.893077 1.302556 11697996
8.903812 11.147240 0.041501 11697996
11.009727 10.366880 2.101087 11697996
8.880317 11.165126 0.006111 11697996
9.282331 11.125836 1.596989 11697996
10.119307 9.193753 1.471734 11697996
9.182823 10.622856 0.541782 11697996
10.801597 10.943728 3.786613 11697996
10.183069 9.813982 2.667963 11697996
10.964877 10.458030 2.350729 11697996
11.150323 9.898661 2.099670 11697996
9.986629 10.223817 2.215317 11697996
10.017155 10.195368 2.051013 11697996
8.905913 9.521969 0.964597 11697996
10.400159 11.035777 2.184762 11697996
10.991949 10.961250 1.676463 11697996
9.946046 8.857655 0.520439 11697996
9.348245 10.363422 3.291647 11697996
11.152886 9.216213 3.179868 11697996
11.097871 10.597139 2.372144 11697996
10.862562 11.145692 1.196041 11697996
10.729030 9.579288 2.711490 11697996
9.978017 10.829802 1.104619 11697996
11.072964 10.072874 1.284685 11697996
8.995289 10.051554 2.593917 11697996
10.090028 10.382087 0.441238 11697996
10.822852 9.924934 3.408195 11697996
9.839140 10.387486 3.070265 11697996
10.114718 11.184201 1.582177 11697996
9.566782 9.962066 1.541635 11697996
10.343730 10.216892 3.238255 11697996
10.927874 10.683514 3.156335 11697996
10.731614 10.680057 0.899089 11697996
10.742252 10.050309 1.579306 11697996
9.701331 10.684916 3.976487 11697996
10.849221 9.569456 1.402494 11697996
9.057469 10.147903 3.903273 11697996
9.132004 9.554434 0.245355 11697996
10.954622 10.916101 1.594870 11697996
10.154799 10.255283 2.377286 11697996
9.589372 10.959659 1.796199 11697996
10.157290 10.698555 0.177719 11697996
10.867991 8.904368 0.799815 11697996
9.120818 10.874089 0.686221 11697996
11.026648 11.020082 0.533586 11697996
10.072612 10.183837 3.207536 11697996
10.406448 9.987085 0.180902 11697996
10.242480 8.946464 1.571762 11697996
9.300486 8.909157 1.464680 11697996
8.951664 10.329198 3.109043 11697996
10.507435 9.348414 1.561861 11697996
9.147850 9.339833 3.728006 11697996
9.478976 9.196405 0.574779 11697996
10.330479 11.078820 1.174025 11697996
10.480733 9.160526 1.475658 11697996
11.136478 10.376074 1.900455 11697996
10.598383 9.001918 3.678920 11697996
10.910637 10.826738 0.807979 11697996
10.843755 9.173752 1.471459 11697996
9.566924 11.167645 1.843945 11697996
8.967197 10.201240 1.823144 11697996
11.252788 10.145650 0.214161 11697996
10.023540 10.978013 3.606366 11697996
10.635071 10.336050 0.259960 11697996
8.861998 10.540494 0.618936 11697996
8.961604 8.837595 1.462144 11697996
10.872946 9.455559 0.187670 11697996
10.361179 9.480233 3.731286 11697996
10.219325 10.420724 0.775320 11697996
10.392933 10.778255 0.152370 11697996
10.763858 9.165048 1.215663 11697996
10.937248 9.814820 3.716333 11697996
10.471618 9.546544 1.586650 11697996
8.827761 8.955008 0.567215 11697996
10.187152 10.302535 3.665502 11697996
9.279695 10.996831 0.688654 11697996
10.772777 8.826890 0.565655 11697996
8.985869 10.695357 2.549910 11697996
10.705408 9.483479 3.119622 11697996
9.534166 9.804013 0.864513 11697996
10.988912 11.186091 2.343459 11697996
9.616214 10.538188 2.875197 11697996
9.671041 11.099318 1.302866 11697996
9.837929 11.133140 2.717953 11697996
10.348697 10.307767 3.038581 11697996
10.448248 10.636752 3.532010 11697996
10.951452 10.716762 1.410587 11697996
9.105716 10.907991 2.657876 11697996
10.847350 9.650226 0.378097 11697996
10.985746 10.530429 3.103314 11697996
8.791277 9.062016 3.961785 11697996
9.485646 9.429558 2.517003 11697996
10.724058 10.224833 2.467717 11697996
8.785650 9.436857 0.648373 11697996
10.268667 9.237207 3.713557 11697996
10.162457 9.094933 2.564498 11697996
10.362384 11.021895 2.585032 11697996
9.100191 9.489238 1.920975 11697996
10.047061 9.389316 2.237475 11697996
9.164873 9.400309 0.682132 11697996
10.994740 9.574798 3.970891 11697996
10.272357 10.736588 1.861634 11697996
11.005036 9.983058 2.390864 11697996
10.256767 10.947641 1.673936 11697996
9.672743 9.773966 3.338848 11697996
10.597610 8.894115 1.962275 11697996
9.265270 10.743403 1.520568 11697996
9.404503 9.242835 2.071182 11697996
9.136895 9.060440 3.228756 11697996
9.377078 10.492883 2.035308 11697996
11.081322 9.055206 2.306280 11697996
11.171175 9.903384 2.439121 11697996
9.298226 11.172712 2.927252 11697996
9.584950 11.244405 1.185799 11697996
9.061364 9.526383 3.180668 11697996
11.168904 8.935115 1.383621 11697996
10.222275 9.964485 1.707867 11697996
10.080061 10.444364 2.670333 11697996
9.342071 9.144770 0.737425 11697996
9.969081 9.411099 0.372599 11697996
9.083588 8.939679 1.383411 11697996
8.815498 10.323473 2.387272 11697996
9.743267 8.944133 2.944947 11697996
10.136913 10.996215 0.852303 11697996
11.045007 9.255194 4.000721 11697996
10.795336 9.011332 1.269246 11697996
9.638994 9.962788 2.826797 11697996
10.082125 9.346731 2.799231 11697996
10.113396 11.129106 3.090953 11697996
11.061561 10.860724 3.184857 11697996
9.431489 10.923777 0.976307 11697996
9.553956 10.769755 1.067045 11697996
8.739307 9.324844 0.085824 11697996
10.493784 10.800215 2.016116 11697996
10.459014 10.666254 2.457328 11697996
10.187631 9.085090 2.955321 11697996
10.313515 9.626161 3.724016 11697996
9.159976 10.713223 3.739500 11697996
9.709310 10.840123 2.549198 11697996
10.973585 9.908270 0.464181 11697996
10.626693 10.800498 3.347496 11697996
10.751938 10.260072 2.044630 11697996
10.351130 10.463894 0.333759 11697996
11.015342 10.449912 2.661473 11697996
9.696374 9.669815 2.599176 11697996
11.145862 10.916444 1.328798 11697996
9.377949 9.433177 3.145380 11697996
10.945578 8.934075 3.559866 11697996
11.214817 9.826153 1.959777 11697996
10.435482 10.315696 2.661317 11697996
9.686122 9.137552 0.437856 11697996
11.208342 10.408417 0.291656 11697996
9.954823 9.269545 0.963578 11697996
10.410716 10.338593 2.373126 11697996
10.822083 8.765170 1.202125 11697996
9.992784 9.042976 0.515555 11697996
9.727870 11.185653 0.831449 11697996
10.141384 9.170952 1.192126 11697996
8.897920 9.531610 1.556537 11697996
9.721976 8.901075 1.728732 11697996
9.817333 9.856525 1.068389 11697996
10.095589 10.840147 3.406125 11697996
10.298825 8.939454 1.101057 11697996
9.079191 10.201189 1.328537 11697996
11.101872 8.866890 1.988685 11697996
11.075268 9.330312 2.205028 11697996
11.063173 9.175591 3.961048 11697996
8.867833 10.416907 2.277396 11697996
8.861209 10.391974 0.520929 11697996
9.066437 11.120935 3.730402 11697996
9.192055 9.694089 0.811025 11697996
9.222618 10.759956 1.393471 11697996
9.334600 10.733384 1.315818 11697996
10.990268 10.268054 1.976052 11697996
10.392866 10.522872 2.571955 11697996
8.864743 10.210877 3.276852 11697996
9.483554 10.200458 3.573440 11697996
9.090491 10.922843 3.192858 11697996
11.130647 10.302433 0.750150 11697996
9.430048 9.090762 2.430418 11697996
9.156227 10.040172 1.066416 11697996
11.079697 9.496673 2.024637 11697996
10.796457 9.522408 0.273169 11697996
9.772229 10.358587 1.827561 11697996
10.245403 10.114915 1.197265 11697996
8.769359 10.444843 3.075504 11697996
10.297632 9.212762 1.428387 11697996
9.755691 9.297002 0.019186 11697996
9.251729 9.978215 2.841007 11697996
10.562464 9.553932 0.890149 11697996
10.195977 10.172046 3.546963 11697996
8.920975 11.102548 1.866016 11697996
11.015279 9.213732 1.342539 11697996
9.215021 9.762178 2.947734 11697996
8.892287 9.038704 2.155339 11697996
9.424243 10.235782 1.083963 11697996
11.077269 9.635437 3.501600 11697996
9.609153 10.086083 1.940799 11697996
10.602198 11.197926 0.083770 11697996
9.691488 9.664221 1.378185 11697996
10.787581 8.938085 3.637644 11697996
9.623933 10.413194 0.299544 11697996
10.779775 10.004617 2.886427 11697996
9.089328 10.064309 3.788666 11697996
8.985679 10.836846 3.476672 11697996
10.704452 8.924166 1.537861 11697996
9.125811 10.571941 2.759789 11697996
9.934375 10.029121 3.963260 11697996
10.120140 10.938661 2.320451 11697996
9.866002 10.117130 0.299078 11697996
8.891335 8.919702 2.182620 11697996
10.217306 9.797125 3.854232 11697996
10.628510 11.178054 2.229734 11697996
9.319400 10.114116 3.157388 11697996
9.884015 9.951868 2.632144 11697996
8.912385 10.240346 0.222837 11697996
10.785454 10.484389 1.911180 11697996
10.156974 9.660954 3.334511 11697996
10.970510 10.171962 3.387071 11697996
8.947633 9.222153 3.919981 11697996
9.330810 10.822710 3.326093 11697996
10.295510 10.756461 0.986914 11697996
10.802762 9.895465 2.258109 11697996
10.470287 8.781732 3.470418 11697996
10.834695 8.920912 0.860510 11697996
9.390059 10.211340 2.530901 11697996
9.090498 10.835333 1.159763 11697996
10.330945 8.845469 3.273956 11697996
9.668048 10.807432 2.916614 11697996
9.872235 10.543652 1.179638 11697996
11.145957 10.987141 1.439935 11697996
9.562319 8.846135 3.928152 11697996
10.752991 9.845181 2.276073 11697996
8.788368 9.366243 1.186104 11697996
10.840095 11.113019 3.711194 11697996
10.656613 10.936179 2.496463 11697996
9.534390 9.768205 1.184282 11697996
10.196326 9.265697 2.005416 11697996
9.736331 9.999669 2.743989 11697996
10.019980 9.708892 0.831084 11697996
10.358045 11.202945 1.914655 11697996
10.675551 9.197077 0.183435 11697996
9.525469 10.706075 1.215378 11697996
11.206767 11.013842 2.574165 11697996
10.506125 9.751337 2.088212 11697996
8.998252 10.387547 3.884848 11697996
9.188514 10.612246 0.156394 11697996
10.273838 10.042842 3.659998 11697996
10.787642 10.616612 3.107602 11697996
9.595670 11.247779 3.658692 11697996
9.372114 9.253241 3.011786 11697996
10.002270 9.296484 1.206051 11697996
9.142115 8.967414 0.803084 11697996
10.373934 9.655683 3.082166 11697996
10.584951 11.067000 2.271709 11697996
10.197790 8.891354 0.510983 11697996
10.724524 10.086512 3.463744 11697996
9.108365 10.959601 2.198297 11697996
11.053762 10.122941 1.565584 11697996
10.628959 10.412466 0.585249 11697996
8.836885 10.836836 2.853943 11697996
8.826941 10.493735 0.263224 11697996
9.352314 10.164319 3.530678 11697996
9.045358 9.308330 2.109209 11697996
9.659308 9.721888 2.081370 11697996
10.319814 10.058976 1.874094 11697996
9.247121 9.319998 2.345204 11697996
9.483103 10.875483 3.381833 11697996
10.045151 10.018586 3.333233 11697996
10.644855 8.799952 0.851807 11697996
9.181339 11.255803 3.933884 11697996
9.420958 9.884935 0.975343 11697996
8.859482 11.202304 2.712627 11697996
10.148207 9.588165 3.418913 11697996
11.223676 10.337312 0.202952 11697996
9.277719 9.037143 2.750581 11697996
8.941648 9.303298 1.305422 11697996
9.016683 9.772038 1.625338 11697996
8.908079 9.703176 2.170198 11697996
11.057309 11.103239 3.579260 11697996
10.396074 9.875830 3.009027 11697996
8.750715 9.709646 3.475111 11697996
10.280301 9.585621 0.322928 11697996
10.417192 10.573433 1.877234 11697996
10.758238 9.622727 0.090385 11697996
11.149464 8.936895 3.952373 11697996
10.579290 10.441605 2.003615 11697996
10.207992 10.212915 0.750045 11697996
10.007911 9.177084 1.465901 11697996
11.134926 9.252169 2.192350 11697996
9.070701 11.204530 0.924744 11697996
9.050236 9.450764 3.359059 11697996
10.511683 9.966960 2.793782 11697996
8.757804 11.204556 1.136405 11697996
10.559930 9.793357 3.056793 11697996
9.134841 10.659190 3.379642 11697996
9.145645 10.177701 3.991079 11697996
10.930748 10.276045 1.931030 11697996
10.924664 9.679207 1.042929 11697996
9.392674 8.955621 3.839416 11697996
8.741433 9.796681 2.475840 11697996
10.232767 10.418713 1.908223 11697996
11.073486 10.905647 3.579439 11697996
8.853355 9.457099 3.880707 11697996
9.927159 9.116332 3.470373 11697996
9.989199 9.641744 2.126364 11697996
8.929380 9.978902 2.430534 11697996
9.660783 9.933644 3.727512 11697996
9.951393 10.908174 2.648589 11697996
10.915028 11.139351 0.859551 11697996
9.325234 9.069792 0.070628 11697996
9.674568 10.870456 0.137710 11697996
10.179968 10.329846 3.541142 11697996
10.935570 9.060596 0.954887 11697996
9.312344 11.008999 1.749880 11697996
10.129613 9.237782 2.189938 11697996
8.768420 10.019382 0.747299 11697996
9.754327 9.878018 3.948174 11697996
9.939829 11.204354 2.363615 11697996
9.347549 10.912607 2.969202 11697996
10.691274 9.643235 2.227383 11697996
10.912474 9.043954 2.747874 11697996
10.880764 10.880800 1.767292 11697996
11.209335 9.861443 2.217969 11697996
9.673127 9.328156 2.491465 11697996
9.304916 8.834514 2.915567 11697996
11.029644 8.986251 2.695965 11697996
9.870184 8.816205 0.571937 11697996
9.803772 9.025740 3.557035 11697996
10.969640 9.762701 0.861651 11697996
11.140027 9.046822 3.646732 11697996
10.434369 9.156926 2.288089 11697996
10.756461 10.434691 1.383252 11697996
9.365584 10.564462 0.145624 11697996
9.355300 10.718983 2.752434 11697996
9.544900 9.304516 3.925195 11697996
9.059591 10.969735 2.183820 11697996
9.785584 9.915246 0.536398 11697996
10.530286 10.109476 1.760740 11697996
11.207595 11.023489 0.310330 11697996
8.909849 10.457243 2.830672 11697996
10.390244 10.035142 1.545880 11697996
10.616315 10.338779 0.781545 11697996
10.572886 9.673296 3.594153 11697996
11.089832 8.867307 0.316461 11697996
10.982877 11.217188 0.012244 11697996
10.769511 9.760834 3.540913 11697996
9.676561 10.811590 3.336741 11697996
9.533582 9.426462 2.218424 11697996
10.496597 9.565796 1.564592 11697996
11.007647 9.464855 1.966652 11697996
10.408919 10.015936 0.565378 11697996
9.797128 11.156698 2.377208 11697996
11.101462 8.871295 2.331847 11697996
10.982221 9.606427 2.519509 11697996
9.712647 10.901344 2.646857 11697996
9.157098 10.344320 0.902657 11697996
9.314327 8.850002 2.212991 11697996
11.040118 9.879671 3.026692 11697996
9.424586 10.893658 1.307752 11697996
10.259658 9.255800 1.499300 11697996
9.622842 10.457345 1.971179 11697996
9.683604 9.139991 2.262836 11697996
9.192643 9.101708 0.627318 11697996
10.527310 11.072455 3.398821 11697996
9.894161 9.823940 2.145108 11697996
10.150753 9.169475 3.330378 11697996
10.430326 10.086794 1.532491 11697996
9.232027 10.849995 1.182706 11697996
9.632780 10.234270 3.955269 11697996
9.781808 8.981783 3.543801 11697996
8.938326 9.532951 0.280525 11697996
10.638206 10.440712 0.138763 11697996
9.294284 10.506676 1.869581 11697996
10.521058 8.984340 2.436954 11697996
10.482683 10.319963 0.604490 11697996
9.926841 10.073300 3.658525 11697996
9.756310 9.725055 0.624832 11697996
11.190127 10.506075 2.821452 11697996
9.681240 10.600401 1.971844 11697996
9.139094 10.859757 3.750592 11697996
9.267903 11.057011 1.251890 11697996
11.099565 11.123083 3.828368 11697996
10.365528 10.185921 2.398479 11697996
9.884742 10.092313 3.628285 11697996
9.089392 9.120098 1.805289 11697996
9.528384 9.933932 3.292714 11697996
10.923208 9.302268 0.136542 11697996
11.080253 9.177183 0.678313 11697996
9.796688 11.120446 2.561655 11697996
11.017519 9.341333 1.490317 11697996
9.287637 9.900277 2.550217 11697996
11.198945 11.140249 0.884357 11697996
11.198007 10.602112 1.849335 11697996
10.331912 8.833349 3.746756 11697996
9.306960 9.742301 3.161892 11697996
10.348668 9.022892 0.844096 11697996
9.614394 9.416686 0.043105 11697996
10.051992 8.908009 3.159016 11697996
10.786708 10.420717 3.042849 11697996
8.753195 9.133680 3.506983 11697996
10.037583 9.603385 1.104476 11697996
10.350642 9.415809 2.347117 11697996
11.120893 9.581937 3.434213 11697996
9.872412 11.169309 3.239092 11697996
10.995783 10.540868 2.642866 11697996
10.676073 10.368620 0.621276 11697996
9.035687 9.130527 2.292986 11697996
10.183530 9.512361 3.779159 11697996
10.820602 10.714889 0.718496 11697996
11.250964 8.824638 0.944229 11697996
9.296129 9.563087 3.798600 11697996
11.223335 10.231762 1.558252 11697996
10.964076 9.389308 1.697183 11697996
11.036614 10.186232 2.406904 11697996
8.883971 10.764479 1.238526 11697996
9.639782 9.846931 0.325031 11697996
10.304654 9.000747 3.252892 11697996
9.576006 8.818450 1.282367 11697996
11.016098 9.118085 1.157617 11697996
10.330293 8.833578 0.425373 11697996
9.884298 9.665966 2.798611 11697996
10.841197 9.753757 3.948575 11697996
9.068895 9.260122 3.384349 11697996
10.044064 10.877442 0.742899 11697996
10.128980 8.795904 3.058191 11697996
10.859543 9.292655 3.595819 11697996
9.517252 9.781853 3.441492 11697996
9.500597 8.947188 3.475125 11697996
10.160420 9.176516 1.310009 11697996
10.574375 9.059527 1.761797 11697996
9.849782 10.894227 3.654790 11697996
11.083878 9.689112 3.542441 11697996
9.766203 10.938619 3.271393 11697996
10.055689 9.500133 0.522845 11697996
9.185736 9.267749 2.842306 11697996
10.446584 8.989309 3.139232 11697996
9.862455 9.574592 0.423601 11697996
8.792741 10.871766 3.325837 11697996
10.329851 9.629672 0.683724 11697996
10.506419 10.914103 1.666779 11697996
9.763307 10.733912 1.957149 11697996
9.267242 10.224953 2.087514 11697996
10.535213 10.686667 3.647355 11697996
10.096606 9.899447 3.148998 11697996
9.932445 9.645428 1.609056 11697996
9.321993 9.868445 3.453680 11697996
9.910685 11.134035 3.860463 11697996
8.995280 11.158751 0.997262 11697996
10.571692 10.110467 0.138026 11697996
10.500053 10.288975 1.768166 11697996
10.080373 9.101538 0.830817 11697996
9.402676 9.568418 2.571999 11697996
11.094831 10.940140 1.006472 11697996
10.661547 11.121596 1.057331 11697996
9.579974 10.398100 1.012460 11697996
8.859447 11.209012 1.631790 11697996
10.185107 10.079055 2.959728 11697996
8.935946 9.271626 1.960893 11697996
11.026597 9.035048 0.640608 11697996
9.807580 8.737637 0.765215 11697996
9.171296 10.426678 1.665905 11697996
10.854607 9.249161 0.576957 11697996
9.841840 9.616955 2.801262 11697996
9.760976 10.211648 0.244791 11697996
11.003087 10.466642 0.414942 11697996
9.478985 10.098637 1.549261 11697996
8.756195 11.093409 2.508548 11697996
10.314873 9.465950 0.526703 11697996
10.692605 8.845800 0.187468 11697996
11.235419 9.421007 2.648173 11697996
9.522956 10.750992 1.220164 11697996
10.198194 9.015442 1.029800 11697996
10.694771 10.813869 1.692963 11697996
9.517248 9.984308 2.375370 11697996
10.370012 9.145596 0.497746 11697996
10.600296 9.036604 2.436796 11697996
10.753648 10.140602 1.166770 11697996
9.363346 9.231427 1.782969 11697996
9.885161 10.257806 2.008728 11697996
9.184566 9.071183 1.643211 11697996
9.606608 8.973275 2.466615 11697996
9.485664 11.227406 1.600143 11697996
11.211143 9.648211 1.533836 11697996
9.640339 8.857573 0.408821 11697996
10.326406 10.674798 2.648663 11697996
11.009151 8.751475 2.012822 11697996
9.544056 9.056743 0.079910 11697996
9.954496 10.339798 2.670871 11697996
9.450960 9.630927 1.600534 11697996
9.384010 10.707482 2.880880 11697996
9.933661 9.778561 1.007816 11697996
9.151265 10.252489 2.848183 11697996
9.428486 10.666953 0.792379 11697996
10.075663 9.773431 3.940421 11697996
9.096012 10.574658 2.232697 11697996
8.767275 8.951279 1.143638 11697996
10.600503 9.184435 1.294935 11697996
10.059073 9.733433 2.236393 11697996
11.136307 10.350536 0.223140 11697996
11.092340 10.302258 3.513764 11697996
9.105995 10.213429 1.792060 11697996
9.907850 10.872466 3.214216 11697996
10.724088 10.678384 1.204781 11697996
11.191270 10.124869 1.951585 11697996
10.938332 11.224244 1.347758 11697996
10.731125 11.062510 3.789601 11697996
9.877337 10.237327 1.948555 11697996
11.236447 10.359041 0.465157 11697996
10.516935 10.059747 2.055947 11697996
10.110297 9.804402 3.652175 11697996
9.371788 10.692572 2.043483 11697996
9.579820 10.289650 2.671283 11697996
9.794973 9.648691 0.986077 11697996
9.098962 8.882335 3.379086 11697996
9.472289 8.958494 0.063365 11697996
10.754012 10.017322 2.295558 11697996
9.490622 9.183813 3.799771 11697996
9.943439 9.916466 2.120385 11697996
9.394899 10.535723 0.436068 11697996
9.665319 10.222627 2.106712 11697996
9.354053 11.118422 3.860820 11697996
9.930651 9.976099 2.231396 11697996
8.984531 10.313781 0.957609 11697996
9.620224 9.627719 2.317498 11697996
11.128431 10.429312 1.181905 11697996
10.897763 10.426724 1.598918 11697996
9.399573 9.383885 0.093090 11697996
9.918558 10.043093 1.248652 11697996
11.222359 9.858480 1.119266 11697996
9.765771 9.283402 -0.001135 11697996
9.060063 9.508286 1.823787 11697996
10.891922 9.434323 0.628743 11697996
9.663400 10.053308 1.457310 11697996
9.705443 10.826502 0.284065 11697996
11.222820 10.293106 4.005953 11697996
8.749595 9.713392 2.599683 11697996
9.985465 10.807371 3.157915 11697996
10.084528 9.951264 2.289925 11697996
11.144436 9.859446 2.143446 11697996
9.826928 10.167809 3.497384 11697996
8.961719 9.201148 2.392067 11697996
9.670931 10.392519 2.826345 11697996
10.547533 9.840833 3.788650 11697996
10.567670 9.579764 2.825173 11697996
9.016211 9.497993 2.917169 11697996
10.826551 11.249689 2.796918 11697996
11.209064 10.688306 0.465270 11697996
11.262527 8.759930 1.768990 11697996
9.807161 9.936860 2.493918 11697996
10.458133 8.895772 3.624231 11697996
10.664413 9.602916 1.686993 11697996
10.324075 8.890386 1.272816 11697996
9.719047 10.450316 3.806909 11697996
10.600085 10.477507 1.271820 11697996
10.128259 10.320401 3.637018 11697996
10.143028 9.221274 0.579735 11697996
9.852001 9.090741 1.043659 11697996
10.587866 10.656709 1.746266 11697996
9.949807 10.143497 0.457030 11697996
10.101004 10.364657 3.735108 11697996
10.235424 9.640447 1.553348 11697996
11.065634 9.450622 3.319253 11697996
9.778606 8.763039 3.492889 11697996
9.396250 9.804260 1.294791 11697996
8.947473 8.960540 3.415356 11697996
10.512407 10.524837 1.240948 11697996
10.225540 10.098425 0.182045 11697996
9.032308 10.434403 3.006138 11697996
10.728595 8.803562 1.085580 11697996
9.011787 9.046743 3.301024 11697996
9.751172 11.124849 2.927602 11697996
9.774319 10.936553 0.170538 11697996
11.028103 9.497664 2.034559 11697996
10.504905 10.149173 3.007716 11697996
9.256443 10.632648 2.752483 11697996
11.130841 10.903711 0.181062 11697996
10.077483 9.174335 1.865255 11697996
10.650015 10.236227 2.272115 11697996
11.187128 9.862103 3.095376 11697996
9.031485 10.068278 2.480345 11697996
10.932244 9.118694 1.231741 11697996
11.117257 10.811414 0.134291 11697996
10.395127 10.962525 3.277487 11697996
10.711797 10.826509 3.034849 11697996
9.491708 9.341458 1.081805 11697996
8.915128 9.899661 2.700122 11697996
9.999270 10.550151 3.669481 11697996
10.278002 10.485269 0.949136 11697996
10.319689 9.413064 2.778114 11697996
11.154644 11.016414 2.723632 11697996
9.589211 8.821186 1.118269 11697996
9.483075 9.588421 1.502045 11697996
10.164182 11.124858 2.568577 11697996
9.104253 9.225223 1.712154 11697996
9.380812 8.973467 2.924620 11697996
9.683929 9.717718 2.013115 11697996
10.710583 11.082804 3.672232 11697996
11.100706 10.384324 3.779404 11697996
10.955664 9.204891 0.057160 11697996
11.114919 10.416601 3.203016 11697996
8.952819 9.025743 1.207503 11697996
8.900260 10.257338 3.057300 11697996
8.992936 9.504931 0.946061 11697996
9.333223 9.554951 2.674050 11697996
10.049866 9.136864 3.159940 11697996
8.788758 8.928615 0.444297 11697996
10.167002 10.335011 1.262099 11697996
8.793475 10.230627 0.893566 11697996
9.477962 10.129112 0.411263 11697996
9.625473 9.890672 1.754541 11697996
9.332720 9.153891 1.351951 11697996
9.980641 9.030069 1.003241 11697996
9.384648 9.546255 0.371289 11697996
9.300662 9.589102 0.315283 11697996
9.574189 10.345088 1.888888 11697996
9.058684 9.812243 3.707057 11697996
9.506406 10.016003 0.535639 11697996
9.777803 10.370957 0.698891 11697996
10.773908 11.196218 1.681144 11697996
11.003415 10.228433 0.741903 11697996
9.363123 9.107050 2.453588 11697996
10.061480 9.451480 1.668515 11697996
9.510257 10.025258 2.798680 11697996
10.051141 10.541719 2.610864 11697996
10.935778 9.708100 2.171044 11697996
10.839565 9.558918 0.693171 11697996
9.466808 11.208347 3.671400 11697996
11.192888 10.274874 0.550622 11697996
10.941855 10.491323 3.542105 11697996
11.001481 10.116165 2.374177 11697996
9.390883 8.818125 1.800271 11697996
10.399546 11.071929 0.504756 11697996
9.702816 8.993976 2.055251 11697996
9.638395 9.574877 2.008453 11697996
10.306289 9.612686 1.244507 11697996
9.974265 10.530785 1.339165 11697996
10.393735 9.697052 3.524443 11697996
11.218190 8.894793 0.822237 11697996
10.178876 9.165888 2.871047 11697996
9.539453 9.270611 2.121756 11697996
8.759311 9.378090 0.375994 11697996
9.669445 9.502782 0.679740 11697996
9.042309 10.155846 1.867571 11697996
11.059480 10.297355 1.520537 11697996
9.404421 10.082604 0.696766 11697996
10.098040 8.810905 0.024714 11697996
9.990943 10.450902 3.051011 11697996
9.147310 9.248350 2.559385 11697996
9.325372 9.313821 0.515005 11697996
10.759376 11.169215 3.948164 11697996
9.226302 10.339905 1.543126 11697996
9.894148 9.501478 3.546524 11697996
8.776126 9.407793 2.228745 11697996
10.342572 9.699587 2.792578 11697996
9.750508 11.199100 3.805980 11697996
10.337131 10.582397 3.009746 11697996
10.540326 10.976533 3.965204 11697996
11.190224 9.083997 2.774040 11697996
9.838698 9.342956 2.454431 11697996
10.303787 10.713783 3.288827 11697996
9.506950 10.206178 3.481066 11697996
9.249945 9.963807 0.099991 11697996
10.231984 10.815287 1.667476 11697996
10.744330 10.226738 2.027659 11697996
10.928538 10.632429 1.032674 11697996
10.117032 8.848516 1.852473 11697996
10.011909 10.317197 1.249857 11697996
11.137810 9.611588 1.919000 11697996
10.451782 9.469124 3.615518 11697996
9.968285 10.094337 0.888306 11697996
10.849854 10.949965 1.215687 11697996
10.271749 9.815130 2.575559 11697996
9.704165 9.179839 3.336925 11697996
9.701696 10.912866 2.217116 11697996
9.442570 10.380715 0.859068 11697996
10.877051 10.643503 3.428830 11697996
9.255225 9.635857 2.344348 11697996
9.022653 10.785884 0.029240 11697996
9.398062 10.914775 1.954674 11697996
9.878344 8.849689 3.072151 11697996
8.830944 9.797041 2.052810 11697996
8.976467 10.607515 0.348048 11697996
8.790954 9.297884 1.225546 11697996
10.892519 9.349321 1.044851 11697996
10.889565 10.433015 3.070615 11697996
9.066647 10.870271 3.815916 11697996
10.911611 9.501398 3.010327 11697996
10.858846 8.769404 0.312842 11697996
9.018956 10.345963 1.031499 11697996
10.433553 8.830962 1.918057 11697996
9.380518 9.324006 0.080119 11697996
9.609964 9.903908 1.272624 11697996
10.713886 8.939273 1.110361 11697996
9.105783 10.523731 1.001172 11697996
10.528723 10.190476 0.389565 11697996
11.009847 9.297378 1.879275 11697996
9.066650 9.863891 2.004092 11697996
10.109612 11.137255 2.779476 11697996
8.853612 9.174851 0.623455 11697996
9.525495 10.831230 3.742944 11697996
9.288242 9.611486 2.213394 11697996
9.249028 10.467506 0.185875 11697996
10.710241 9.895432 2.499182 11697996
9.529890 8.855953 3.776162 11697996
10.947524 10.056879 1.490223 11697996
9.080956 10.368328 1.655659 11697996
9.326571 9.367926 2.053506 11697996
10.263772 8.790965 3.925304 11697996
10.041052 9.178378 3.306590 11697996
10.702381 10.061056 3.223640 11697996
11.249347 10.604902 3.797584 11697996
9.290486 9.309446 2.138732 11697996
9.531573 10.963962 3.245489 11697996
10.044531 9.323298 0.468987 11697996
9.499635 10.457034 2.398576 11697996
10.953035 8.888096 1.156444 11697996
9.659283 10.364857 1.560482 11697996
10.501554 10.427954 1.518816 11697996
9.865197 9.076567 2.495272 11697996
9.308949 10.513420 2.100908 11697996
9.213885 10.065975 0.655905 11697996
9.654213 10.440814 3.770205 11697996
10.307162 9.795416 3.611646 11697996
10.033564 9.294297 2.018623 11697996
10.598799 9.837098 0.410563 11697996
11.234448 10.571614 3.170978 11697996
10.681666 9.606857 3.234394 11697996
10.221848 10.367410 0.747529 11697996
9.631477 10.341834 2.639604 11697996
10.971595 11.135730 3.941892 11697996
11.093647 11.195349 2.026218 11697996
9.207032 9.026894 0.251916 11697996
9.769478 9.800131 3.562274 11697996
9.311894 11.071827 1.595799 11697996
8.899642 10.575887 0.401718 11697996
11.191101 10.991441 2.691447 11697996
8.859357 10.681500 1.601352 11697996
10.644300 9.434946 1.057854 11697996
10.826084 9.586489 3.179526 11697996
10.159986 10.252091 0.920761 11697996
9.142644 9.667158 2.381887 11697996
11.059506 9.122955 0.532245 11697996
9.377926 8.840569 2.208477 11697996
10.898405 10.857586 2.338338 11697996
10.460681 10.740389 3.778100 11697996
9.434393 10.925444 0.956400 11697996
9.310377 10.237512 3.525365 11697996
10.358699 9.474708 2.923603 11697996
10.596329 10.460039 3.623904 11697996
8.853062 11.142756 1.196876 11697996
9.549223 10.219867 1.122927 11697996
9.621752 10.038449 3.177285 11697996
10.727432 10.350104 3.215367 11697996
10.166641 9.546558 0.180598 11697996
9.049940 8.929367 0.049987 11697996
9.524582 10.255393 1.425394 11697996
10.625482 9.575362 3.549963 11697996
9.087742 11.156370 0.572173 11697996
9.560970 11.124969 0.471768 11697996
10.722930 8.854796 1.570233 11697996
10.385029 10.798291 2.168572 11697996
11.217135 10.917728 3.038663 11697996
11.135124 8.900531 2.599267 11697996
9.857050 10.758710 3.917722 11697996
9.450965 10.405162 3.932402 11697996
9.119716 9.190189 3.151874 11697996
9.127825 10.563964 3.433676 11697996
10.935088 11.055169 2.835138 11697996
9.597384 10.441601 2.053417 11697996
9.367361 10.014750 3.722437 11697996
10.931416 9.711876 3.800304 11697996
9.600691 9.054974 0.396081 11697996
9.088438 9.201731 0.583121 11697996
9.500510 9.066289 1.351813 11697996
9.747017 10.347312 3.247042 11697996
10.836963 9.285450 0.745063 11697996
9.071802 10.196359 1.988998 11697996
9.532528 10.562737 1.073213 11697996
10.098639 9.245078 2.770219 11697996
9.466435 10.177450 0.027445 11697996
9.404194 9.200104 0.262722 11697996
10.834728 9.873943 1.478460 11697996
9.810080 10.735683 0.199328 11697996
8.993235 9.693693 0.913392 11697996
10.158001 9.425760 2.063587 11697996
10.891559 9.250966 1.061871 11697996
8.882581 10.282647 1.831089 11697996
8.803833 11.022618 3.601391 11697996
10.574111 9.120268 2.334719 11697996
9.290877 10.942756 1.818238 11697996
10.596009 9.912110 0.526614 11697996
9.462976 9.132508 3.727439 11697996
10.296953 10.296075 0.036991 11697996
10.689678 9.002220 3.699491 11697996
9.112407 11.083976 3.941541 11697996
10.253342 9.294950 1.962284 11697996
8.805916 8.989206 3.665131 11697996
10.300290 9.228387 2.683519 11697996
9.752866 9.969609 3.937723 11697996
8.785975 9.803143 1.497424 11697996
9.251372 10.480839 2.129599 11697996
9.640659 10.684858 2.737839 11697996
9.287250 9.820815 2.148840 11697996
8.766014 10.269242 3.199608 11697996
9.254385 10.962183 0.099515 11697996
8.781950 9.453494 2.482146 11697996
10.879555 9.801061 1.535318 11697996
10.276001 9.791599 1.777062 11697996
10.462152 10.054248 2.347344 11697996
10.131252 9.204974 2.921243 11697996
10.129438 10.293603 3.487479 11697996
9.149705 10.096452 0.999878 11697996
9.396243 8.860280 2.604601 11697996
11.263572 11.125786 1.231188 11697996
9.095233 10.189476 2.612741 11697996
9.649954 9.722409 2.733325 11697996
9.371290 9.762671 1.715515 11697996
9.396504 10.830418 3.618912 11697996
10.707885 8.857367 2.764581 11697996
10.138433 9.352979 1.589781 11697996
10.948236 10.707173 3.818148 11697996
9.111854 9.431022 3.353433 11697996
10.095803 9.646803 0.888860 11697996
9.217660 10.967566 0.440109 11697996
8.989659 11.014179 1.956757 11697996
10.924781 10.823111 1.336112 11697996
9.905210 9.242851 3.222668 11697996
10.389684 9.842569 1.346552 11697996
10.284157 9.880891 3.903934 11697996
9.443381 9.061398 3.604270 11697996
9.751079 10.465186 3.218564 11697996
8.986512 9.841572 2.815733 11697996
10.342463 11.013268 0.404656 11697996
10.107826 10.959970 3.000734 11697996
9.005402 9.481745 0.262251 11697996
8.769663 10.190454 0.983698 11697996
9.654711 10.636014 0.545097 11697996
10.347932 10.172790 3.297305 11697996
9.134517 10.240701 3.667787 11697996
11.214177 10.310618 2.498235 11697996
10.904940 10.001712 2.839756 11697996
10.162163 10.008920 0.107027 11697996
10.544585 9.455673 1.655554 11697996
9.089694 9.116962 0.483077 11697996
8.902204 10.888278 0.500054 11697996
9.102839 10.208410 2.203143 11697996
9.769271 10.618896 2.034886 11697996
10.901185 9.399125 3.341815 11697996
9.014285 10.738829 2.021427 11697996
8.841353 10.138181 2.784496 11697996
9.759629 10.064962 0.662225 11697996
10.732453 10.698532 0.506858 11697996
9.357483 10.090678 3.230369 11697996
8.779280 8.968993 1.719576 11697996
9.625166 9.732397 1.431900 11697996
9.583748 11.155174 2.468958 11697996
11.059393 9.881693 2.828163 11697996
9.454628 9.406292 2.556463 11697996
9.322509 9.593548 1.668721 11697996
10.560434 11.218286 0.412716 11697996
9.259459 8.924549 3.405966 11697996
10.588504 9.770822 2.324563 11697996
9.986588 10.661645 1.569743 11697996
9.792662 11.152818 2.164326 11697996
10.619900 10.999740 2.274585 11697996
9.713594 11.119595 3.424346 11697996
10.098852 8.950612 0.104195 11697996
9.768423 10.467280 1.630074 11697996
8.879362 9.764757 2.764997 11697996
10.117082 9.895711 2.393255 11697996
10.955664 9.929997 1.811713 11697996
10.114338 10.676974 1.062786 11697996
9.286428 8.987562 3.210374 11697996
9.610060 9.652430 0.791577 11697996
9.788236 10.164237 1.007802 11697996
10.058119 9.905299 2.460686 11697996
11.211114 10.548310 3.328982 11697996
9.631921 9.998071 1.894468 11697996
10.662180 8.863290 0.202013 11697996
11.141368 9.338180 0.004216 11697996
11.140621 9.326874 0.809759 11697996
9.743622 10.308177 1.587286 11697996
10.386374 8.967611 0.674683 11697996
11.112757 8.888339 2.801408 11697996
11.225459 9.415988 3.299271 11697996
11.084465 9.186030 2.089523 11697996
11.147920 10.747859 3.928488 11697996
10.537788 9.712130 2.555139 11697996
10.114288 10.134904 0.365795 11697996
10.782973 10.473813 1.369567 11697996
9.498199 8.800213 1.566322 11697996
9.325770 9.939052 3.450612 11697996
10.696903 10.497573 2.078277 11697996
10.890615 8.826680 2.283217 11697996
9.019242 8.888553 3.394430 11697996
10.220036 10.783885 0.402149 11697996
11.127810 10.944997 3.511784 11697996
10.679090 10.453212 3.048019 11697996
9.333193 10.009627 3.419290 11697996
10.404465 11.112603 0.772898 11697996
10.059299 9.363454 0.887112 11697996
10.523640 10.372291 1.661677 11697996
10.054596 10.146342 3.388653 11697996
9.626410 10.032703 2.722430 11697996
10.489231 9.156876 1.183716 11697996
9.956832 9.575536 1.770426 11697996
10.744334 10.243597 1.759338 11697996
10.667303 11.033733 0.911589 11697996
11.073702 9.839200 2.085800 11697996
10.504038 10.164587 1.528438 11697996
11.057357 9.269536 3.926899 11697996
9.169794 9.743845 2.555816 11697996
10.531172 10.309199 2.299359 11697996
9.600325 10.820156 1.701974 11697996
10.528495 9.506730 3.950318 11697996
10.295605 10.335775 1.590592 11697996
9.281319 9.751838 0.290699 11697996
9.028358 10.659801 2.520375 11697996
11.066930 10.982565 2.983518 11697996
9.273802 9.504991 0.085794 11697996
9.375477 10.482748 2.596870 11697996
9.270290 10.094454 -0.023744 11697996
10.341154 9.611256 0.290076 11697996
9.917649 11.039497 1.122720 11697996
10.087000 9.903345 0.996513 11697996
9.965108 9.889976 1.786955 11697996
8.913919 9.018457 0.493924 11697996
10.202016 10.343728 3.613345 11697996
10.776484 10.469984 1.533521 11697996
9.293194 10.544277 3.030907 11697996
8.938345 9.303197 3.921356 11697996
9.259521 9.343508 3.752582 11697996
10.486486 10.308311 0.108060 11697996
11.201725 11.054433 2.776906 11697996
10.130141 10.423116 4.002176 11697996
9.024249 11.037333 2.449889 11697996
9.974984 10.600083 1.076707 11697996
10.674966 10.427259 1.024400 11697996
10.313902 9.890850 1.946737 11697996
9.258867 9.861561 3.127907 11697996
10.827876 9.959810 1.276205 11697996
11.200521 8.804150 0.167004 11697996
9.287093 9.598485 1.911950 11697996
9.465356 10.237630 3.944277 11697996
10.649583 10.943125 2.740523 11697996
9.800508 9.416956 2.240664 11697996
11.162294 10.709092 1.643340 11697996
9.102561 10.787674 0.253352 11697996
9.632886 9.665015 0.160157 11697996
9.739516 9.026682 2.249778 11697996
9.882196 11.027099 3.540170 11697996
10.670367 9.149618 3.477921 11697996
9.472439 10.135680 1.876662 11697996
9.648962 9.849399 3.427273 11697996
10.222033 9.589517 3.223000 11697996
10.897901 8.795838 0.624560 11697996
10.184705 9.835906 1.635803 11697996
9.430838 9.007652 3.399565 11697996
10.110085 10.815874 2.319869 11697996
10.129786 9.890575 3.403900 11697996
9.774404 9.063405 3.007185 11697996
11.142677 9.571923 1.184229 11697996
9.214280 9.636854 2.733531 11697996
9.137522 10.071600 1.839028 11697996
11.022511 10.262002 3.417829 11697996
9.049545 9.578164 0.194309 11697996
10.601119 9.770957 1.364031 11697996
11.005823 10.122081 0.090416 11697996
10.431055 10.183108 2.316346 11697996
10.435010 10.563902 2.586077 11697996
10.956073 9.804719 3.766583 11697996
9.424165 10.751844 3.106397 11697996
8.791978 9.802493 3.758124 11697996
10.423440 9.046140 0.441824 11697996
8.887937 9.586537 0.128968 11697996
10.944278 9.921711 1.905569 11697996
10.401488 10.339045 1.392272 11697996
9.024445 9.185379 1.543172 11697996
11.022166 8.977221 1.406123 11697996
9.218618 10.474711 1.179059 11697996
9.551300 11.050120 0.778717 11697996
10.657175 10.988725 2.852610 11697996
11.149809 10.738767 0.183406 11697996
9.115988 8.892623 0.239447 11697996
9.892481 10.048311 3.847604 11697996
10.456134 9.526587 2.706710 11697996
11.042128 10.859559 2.941338 11697996
9.989421 10.771648 0.083202 11697996
10.289040 9.064699 0.269377 11697996
10.407107 10.979897 1.003621 11697996
8.770857 9.428121 0.816026 11697996
9.336475 11.066039 1.196583 11697996
10.735085 8.973865 1.535078 11697996
10.009018 10.639887 0.396594 11697996
10.704614 9.831927 1.737662 11697996
10.260991 10.080038 3.930034 11697996
10.632693 9.404062 3.073156 11697996
10.142344 11.172480 0.292684 11697996
9.002542 9.885625 1.702155 11697996
9.547834 10.113598 3.813060 11697996
9.761683 10.756931 1.274224 11697996
11.044774 11.043634 0.417878 11697996
10.260494 9.174802 2.151664 11697996
8.736061 9.146886 1.868391 11697996
8.776632 9.221444 1.247803 11697996
8.849827 9.569538 2.065812 11697996
9.320700 10.831937 1.797029 11697996
9.024043 10.326500 2.106136 11697996
8.971180 10.635440 1.971516 11697996
9.139038 10.536282 0.322238 11697996
10.084417 11.189816 2.669732 11697996
9.333617 10.140750 3.533081 11697996
11.119173 10.550646 2.628058 11697996
10.719684 9.781600 0.682115 11697996
9.624708 8.972071 2.034521 11697996
10.368657 10.306615 3.013181 11697996
10.223898 9.198522 1.893980 11697996
11.215210 9.824363 1.974511 11697996
11.072605 9.203484 2.225610 11697996
9.954874 11.011916 1.731298 11697996
11.197863 9.504601 1.481040 11697996
9.964222 9.146513 1.406311 11697996
10.715483 10.558431 3.131123 11697996
11.085442 11.156012 3.762494 11697996
9.917580 9.212571 3.655454 11697996
11.195254 11.164044 0.602074 11697996
9.179051 9.212178 3.900987 11697996
10.814636 10.269214 2.547765 11697996
10.116161 10.186341 0.327152 11697996
9.817531 10.221609 0.565393 11697996
10.383747 8.740325 0.289222 11697996
10.451017 9.638300 2.672396 11697996
9.434500 9.141756 2.352735 11697996
8.756877 10.476990 3.906537 11697996
10.873439 10.080832 2.886234 11697996
10.556852 11.028795 3.466880 11697996
9.086308 9.717581 3.642150 11697996
8.793119 9.482593 0.856276 11697996
9.281140 10.801549 2.039643 11697996
10.183077 9.525458 2.943104 11697996
9.650847 9.838955 0.672750 11697996
11.083565 9.792139 2.109790 11697996
10.108436 10.326173 2.305681 11697996
10.766743 11.141534 1.854436 11697996
10.183075 9.648808 3.220821 11697996
8.822047 9.206047 0.246140 11697996
10.755584 9.771003 3.141842 11697996
11.166103 8.830441 1.023470 11697996
9.733962 10.462615 2.723122 11697996
10.916651 10.564721 1.834617 11697996
9.783741 10.781363 3.965973 11697996
10.683055 10.394098 0.156681 11697996
11.017976 9.023028 1.028568 11697996
10.203633 9.170024 0.980968 11697996
10.221169 11.131495 2.437150 11697996
9.514271 11.028277 0.773549 11697996
9.572666 10.613835 0.768966 11697996
9.026371 8.986103 1.466054 11697996
10.779309 9.787210 2.780598 11697996
10.442080 9.998552 2.183719 11697996
10.585867 8.833094 2.518247 11697996
9.020627 11.156284 1.101573 11697996
9.603170 10.160061 3.535287 11697996
9.650884 10.918250 2.886560 11697996
10.590677 9.152349 0.966950 11697996
8.842623 9.149393 1.169557 11697996
11.127386 10.685862 1.724839 11697996
8.944823 9.652528 3.320659 11697996
10.721526 9.130729 2.212600 11697996
10.665347 9.878150 3.844094 11697996
8.887274 9.415589 1.887618 11697996
9.981667 9.268583 1.364359 11697996
10.602954 9.936018 0.748274 11697996
9.541759 10.796432 3.130079 11697996
9.231757 9.586855 3.029664 11697996
10.180076 9.463346 2.903050 11697996
11.207941 9.876413 0.505543 11697996
10.847691 9.497442 0.520871 11697996
9.993210 11.199243 0.801478 11697996
9.627275 9.355029 0.571629 11697996
9.498808 9.599730 3.636060 11697996
9.744711 9.351231 3.465837 11697996
9.853723 10.007655 3.176195 11697996
9.228552 9.766558 2.420287 11697996
9.592233 9.335348 1.775642 11697996
8.787396 10.007730 0.802043 11697996
10.827361 10.553001 0.076845 11697996
8.848720 10.690139 0.365792 11697996
11.095812 11.219295 3.658627 11697996
10.408697 9.252497 1.195525 11697996
10.369603 8.852845 3.455587 11697996
11.179613 11.228013 3.804142 11697996
10.935846 9.792793 1.170937 11697996
11.045311 9.364542 2.870257 11697996
10.029600 10.869655 3.833744 11697996
9.976994 9.939255 2.956783 11697996
10.671049 11.023664 1.490715 11697996
9.895303 10.905252 0.963724 11697996
9.798935 9.643311 2.264934 11697996
10.753109 9.299220 3.252314 11697996
9.466464 9.691440 0.270691 11697996
10.502291 9.097301 2.417807 11697996
8.850478 9.336816 1.292413 11697996
10.538345 9.532756 3.681316 11697996
11.085825 9.089961 1.279928 11697996
10.325103 8.816513 1.688007 11697996
10.920098 10.715097 2.690477 11697996
9.560857 8.982974 1.285294 11697996
8.799572 9.675680 0.400134 11697996
8.860774 9.072661 3.147815 11697996
10.549738 10.717470 2.081769 11697996
10.447573 9.803818 1.376825 11697996
10.387342 8.982481 3.729676 11697996
10.368239 10.729695 2.320371 11697996
11.013128 8.793232 0.166440 11697996
9.026657 9.501787 2.725596 11697996
10.485835 9.760214 2.969186 11697996
10.772159 10.275249 3.092399 11697996
10.418875 8.961521 1.387924 11697996
10.147416 9.650087 1.999464 11697996
9.521862 11.067486 1.944458 11697996
9.737696 9.486585 1.379219 11697996
9.320414 10.519781 3.866838 11697996
10.906845 9.656742 0.679807 11697996
9.794911 10.567046 2.643234 11697996
8.867707 9.845216 1.571399 11697996
10.257069 10.295941 3.745703 11697996
8.759946 9.786167 1.650150 11697996
9.400121 10.200487 1.831855 11697996
9.467214 9.566084 0.043352 11697996
9.909141 10.151400 1.804480 11697996
9.454891 8.761520 2.164694 11697996
9.422712 10.131947 0.405067 11697996
9.327467 8.790940 3.959157 11697996
8.968306 10.373788 2.382855 11697996
9.627270 10.054390 1.685872 11697996
9.265451 9.866984 0.884206 11697996
10.741600 10.846710 1.424266 11697996
11.166822 9.900308 3.178918 11697996
10.540819 10.227348 1.272032 11697996
8.976474 10.606605 3.697643 11697996
10.526855 10.219600 2.758605 11697996
9.691354 9.301856 3.523824 11697996
10.974406 11.140956 0.945028 11697996
10.367527 10.676672 2.609808 11697996
10.199522 10.671884 1.208144 11697996
10.481403 9.484591 2.181172 11697996
9.905464 9.369321 0.072692 11697996
9.581910 10.709326 0.584527 11697996
10.382980 9.255432 0.288881 11697996
9.020597 10.789423 0.499107 11697996
10.396126 10.942508 1.991882 11697996
10.088253 9.050731 2.677312 11697996
10.177708 9.220459 3.792647 11697996
10.833781 9.823299 2.872552 11697996
10.356570 11.137875 1.079020 11697996
10.939211 9.069392 0.501272 11697996
11.135760 10.060242 1.412791 11697996
9.397527 10.199420 3.593449 11697996
9.047696 8.819676 1.252709 11697996
10.340991 10.542452 1.370296 11697996
8.930037 8.924334 3.273946 11697996
10.262818 9.179319 3.924146 11697996
9.110732 10.317941 2.639708 11697996
9.254011 9.821120 0.702022 11697996
9.847473 11.045833 3.348055 11697996
9.005702 10.323044 3.228548 11697996
8.824950 11.248171 2.891606 11697996
9.373960 10.330222 3.531049 11697996
11.152596 11.197385 0.525096 11697996
8.957521 9.284688 0.630274 11697996
10.240212 8.971855 3.655603 11697996
10.461212 11.084301 0.614363 11697996
8.749680 9.817083 3.639382 11697996
10.124035 10.368003 3.552480 11697996
9.555821 10.234489 1.105699 11697996
9.702235 8.771718 3.133292 11697996
9.997720 9.500658 3.115983 11697996
10.546297 9.847524 2.845743 11697996
9.343682 8.994823 1.072527 11697996
10.805770 11.021953 1.603650 11697996
9.892633 9.341648 3.087347 11697996
10.373446 9.425511 1.300366 11697996
10.404404 10.922782 3.322037 11697996
8.839732 9.654030 1.881178 11697996
9.231189 10.796077 3.012704 11697996
9.380787 10.792722 1.284491 11697996
9.320917 9.878589 2.355441 11697996
11.104519 8.993976 0.196531 11697996
10.125867 8.993852 1.850766 11697996
10.711342 9.912309 1.092993 11697996
10.340502 10.174076 0.619763 11697996
10.970065 9.682956 3.118489 11697996
8.882897 10.658081 1.585541 11697996
10.186430 9.647560 3.048965 11697996
9.034793 10.510525 3.404242 11697996
10.260426 10.464524 -0.010171 11697996
9.083250 10.372830 2.133150 11697996
9.834417 10.456532 1.635146 11697996
10.080302 9.852709 1.497131 11697996
10.878925 9.934551 1.305655 11697996
9.462588 8.976714 1.847158 11697996
10.589433 9.196214 2.181885 11697996
11.170521 10.345396 3.114217 11697996
11.229386 9.349157 3.454551 11697996
9.937141 9.056528 1.576737 11697996
10.914548 9.839300 1.161753 11697996
11.244101 10.061816 0.428265 11697996
9.851159 8.793647 2.280729 11697996
10.081227 9.496218 2.368748 11697996
10.020002 10.727043 1.742246 11697996
9.934081 9.982606 2.850428 11697996
9.939027 10.680832 3.811801 11697996
10.702906 9.333331 2.481140 11697996
9.450661 8.949300 0.264652 11697996
9.348540 8.849632 0.479646 11697996
9.082093 10.620769 3.247222 11697996
8.952867 9.550625 3.335491 11697996
10.133356 10.983620 0.120572 11697996
8.757443 10.483362 3.770537 11697996
10.315149 8.832130 3.564859 11697996
9.292074 10.563902 1.791414 11697996
9.457312 10.899653 1.896829 11697996
8.943598 9.925398 0.220248 11697996
10.393128 9.469854 2.743186 11697996
10.493857 9.626199 3.282523 11697996
10.279279 9.766685 0.866090 11697996
9.225228 10.133614 0.247712 11697996
8.822463 10.343579 0.923405 11697996
10.478679 11.237616 3.547723 11697996
9.041779 8.940812 2.857316 11697996
9.502121 10.383964 3.720093 11697996
8.813071 10.067559 2.467884 11697996
10.777503 10.610687 3.410647 11697996
11.030646 11.204543 3.611361 11697996
10.481620 8.836054 0.950563 11697996
8.920081 10.294299 0.038129 11697996
9.077338 9.391410 0.748462 11697996
9.249778 8.927269 0.336300 11697996
9.603702 9.172972 0.223595 11697996
10.864350 10.293512 1.682552 11697996
9.857322 10.252474 3.634452 11697996
9.110271 9.826015 1.803036 11697996
9.884120 9.478701 1.236720 11697996
9.381918 9.171130 1.495362 11697996
10.185545 10.491991 3.081154 11697996
10.086800 9.915995 0.763203 11697996
11.042933 9.106688 1.688147 11697996
8.759481 10.477005 0.252041 11697996
10.469185 11.109920 2.020442 11697996
9.882756 9.563274 1.736806 11697996
11.250368 10.131783 0.769207 11697996
9.833119 9.165778 1.783057 11697996
9.775601 9.697190 2.908404 11697996
10.717215 9.460779 3.020694 11697996
10.585155 8.771757 2.890513 11697996
10.610806 10.572495 2.326718 11697996
9.361172 9.823367 3.207760 11697996
10.363981 10.689519 2.601319 11697996
10.370666 10.525814 2.544781 11697996
8.770803 8.871941 0.474487 11697996
10.171436 8.997827 2.626287 11697996
9.935932 10.270020 2.017389 11697996
9.837007 11.185209 2.501096 11697996
8.754215 9.438863 -0.010526 11697996
10.605153 9.443614 0.324661 11697996
-9.803278 -10.476016 0.686945 6730418
