# .PCD v0.7 - Point Cloud Data file format
VERSION 0.7
FIELDS x y z rgb
SIZE 4 4 4 4
TYPE F F F U
COUNT 1 1 1 1
WIDTH 1285
HEIGHT 1
VIEWPOINT 0 0 0 1 0 0 0
POINTS 1285
DATA ascii
10.530926 10.436451 2.028365 11697996
10.224394 10.189939 0.717662 11697996
10.023380 9.131536 1.459521 11697996
11.147700 9.262270 2.196527 11697996
9.069661 11.169114 0.945936 11697996
9.017239 9.464145 3.340670 11697996
10.485097 9.968697 2.752386 11697996
8.791324 11.189480 1.152008 11697996
10.551943 9.780336 3.058339 11697996
9.143909 10.653644 3.410576 11697996
9.120095 10.174936 3.994128 11697996
10.953287 10.267826 1.966020 11697996
10.894795 9.684546 1.032986 11697996
9.364999 8.964297 3.853248 11697996
8.769656 9.817082 2.474440 11697996
10.244194 10.436454 1.870959 11697996
11.098599 10.893807 3.541950 11697996
8.890654 9.441960 3.886135 11697996
9.902269 9.097341 3.478636 11697996
9.947260 9.660172 2.131239 11697996
8.913342 9.991209 2.436822 11697996
9.656533 9.932412 3.704787 11697996
9.943832 10.896024 2.655531 11697996
10.909412 11.117350 0.851048 11697996
9.318007 9.064605 0.128234 11697996
9.695748 10.865770 0.173133 11697996
10.183439 10.333673 3.556562 11697996
10.949028 9.060198 0.960938 11697996
9.321648 11.028836 1.753653 11697996
10.152708 9.227254 2.168715 11697996
8.770184 10.054963 0.768819 11697996
9.758886 9.908349 3.949438 11697996
9.956473 11.213591 2.384172 11697996
9.338749 10.907438 2.968445 11697996
10.656576 9.646341 2.215665 11697996
10.927857 9.045455 2.769483 11697996
10.878820 10.842387 1.796643 11697996
11.250422 9.869823 2.250368 11697996
9.660695 9.307551 2.473098 11697996
9.333519 8.883142 2.946417 11697996
11.036174 8.966400 2.689595 11697996
9.858085 8.799983 0.597664 11697996
9.836406 9.042456 3.604203 11697996
10.986753 9.805885 0.858836 11697996
11.119899 9.048733 3.659044 11697996
10.461110 9.152581 2.278718 11697996
10.790255 10.396188 1.382265 11697996
9.372602 10.601219 0.165918 11697996
9.359376 10.703090 2.741150 11697996
9.563933 9.318778 3.956737 11697996
9.050103 10.960159 2.246259 11697996
9.766953 9.946992 0.532338 11697996
10.533379 10.150899 1.807700 11697996
11.189571 11.052643 0.280522 11697996
8.931086 10.435353 2.837613 11697996
10.426026 10.076797 1.568169 11697996
10.603424 10.326010 0.796905 11697996
10.576394 9.673973 3.563594 11697996
11.068998 8.866683 0.324057 11697996
11.009206 11.201045 0.038340 11697996
10.770966 9.756839 3.552798 11697996
9.679313 10.801250 3.361792 11697996
9.506949 9.433274 2.249768 11697996
10.509950 9.569345 1.564731 11697996
11.039278 9.435526 1.955998 11697996
10.401633 10.001776 0.515543 11697996
9.785151 11.193476 2.414696 11697996
11.110352 8.909950 2.342556 11697996
10.977924 9.639217 2.523186 11697996
9.704388 10.905268 2.642872 11697996
9.155530 10.342808 0.905019 11697996
9.275459 8.866989 2.191231 11697996
11.086457 9.861122 3.081132 11697996
9.426142 10.920208 1.288122 11697996
10.270931 9.269034 1.508025 11697996
9.643930 10.439154 1.969342 11697996
9.723458 9.155884 2.241525 11697996
9.230595 9.134233 0.646464 11697996
10.511308 11.071382 3.414771 11697996
9.895677 9.804205 2.116706 11697996
10.133857 9.132127 3.305397 11697996
10.442699 10.107029 1.510312 11697996
9.238239 10.856760 1.172074 11697996
9.598962 10.238041 3.931744 11697996
9.771427 8.998866 3.521365 11697996
8.961394 9.489291 0.258009 11697996
10.605194 10.431735 0.128719 11697996
9.328947 10.497448 1.855678 11697996
10.505401 8.987925 2.448859 11697996
10.484277 10.313922 0.626047 11697996
9.943844 10.081569 3.686687 11697996
9.757710 9.751882 0.633647 11697996
11.213428 10.491063 2.812151 11697996
9.661915 10.618550 1.947054 11697996
9.146252 10.852470 3.771439 11697996
9.236072 11.101233 1.248841 11697996
11.079695 11.109864 3.825697 11697996
10.377828 10.190878 2.371237 11697996
9.879291 10.098623 3.641216 11697996
9.106894 9.116192 1.797235 11697996
9.579933 9.952240 3.254942 11697996
10.935667 9.287359 0.168965 11697996
11.061971 9.182984 0.681768 11697996
9.789776 11.096545 2.577903 11697996
11.008323 9.334827 1.462075 11697996
9.306832 9.908359 2.554008 11697996
11.204920 11.121998 0.842477 11697996
11.165602 10.600830 1.820030 11697996
10.346713 8.817596 3.746113 11697996
9.297097 9.745453 3.137897 11697996
10.312615 9.027908 0.869155 11697996
9.572293 9.457445 0.055110 11697996
10.077781 8.916285 3.170793 11697996
10.823201 10.430696 3.053216 11697996
8.751230 9.099267 3.469384 11697996
10.001064 9.564285 1.107719 11697996
10.344137 9.424421 2.320649 11697996
11.133039 9.583653 3.437643 11697996
9.866708 11.149948 3.235672 11697996
10.979489 10.525978 2.638099 11697996
10.704786 10.399563 0.617771 11697996
9.001942 9.134652 2.289075 11697996
10.229325 9.510912 3.789776 11697996
10.804313 10.739203 0.731780 11697996
11.260626 8.824436 0.937381 11697996
9.264455 9.553843 3.777888 11697996
11.285188 10.235106 1.571376 11697996
10.923430 9.389915 1.648963 11697996
11.009173 10.190433 2.436052 11697996
8.888908 10.797694 1.217792 11697996
9.637216 9.834069 0.356776 11697996
10.313845 8.986769 3.243418 11697996
9.567148 8.838472 1.281298 11697996
11.023521 9.098480 1.176649 11697996
10.342949 8.823534 0.434452 11697996
9.869799 9.673045 2.823071 11697996
10.863630 9.748134 3.959311 11697996
9.044824 9.292721 3.366126 11697996
10.001175 10.895582 0.724076 11697996
10.128154 8.789909 3.076486 11697996
10.844227 9.288477 3.626136 11697996
9.530295 9.769830 3.429293 11697996
9.474093 8.944014 3.477089 11697996
10.127318 9.199095 1.286453 11697996
10.592816 9.081355 1.742396 11697996
9.859023 10.878316 3.610612 11697996
11.076684 9.645947 3.533076 11697996
9.764882 10.899553 3.245753 11697996
10.069660 9.518521 0.553573 11697996
9.176245 9.270800 2.876643 11697996
10.471141 8.958855 3.118981 11697996
9.849801 9.565500 0.441171 11697996
8.811313 10.869173 3.312188 11697996
10.309756 9.651815 0.679020 11697996
10.498248 10.886624 1.658096 11697996
9.763491 10.699697 1.944823 11697996
9.234612 10.216092 2.058734 11697996
10.532142 10.674457 3.663005 11697996
10.094018 9.899516 3.133458 11697996
9.939720 9.649157 1.597484 11697996
9.344543 9.858042 3.476859 11697996
9.912634 11.151771 3.846742 11697996
8.984402 11.211333 0.938602 11697996
10.564481 10.079881 0.121840 11697996
10.559205 10.309731 1.768663 11697996
10.090528 9.074863 0.794636 11697996
9.405077 9.563231 2.565618 11697996
11.114058 10.967380 0.992512 11697996
10.616848 11.122310 1.037503 11697996
9.590665 10.386573 1.011309 11697996
8.877313 11.204489 1.647271 11697996
10.205965 10.063982 2.927792 11697996
8.969667 9.280631 1.961276 11697996
11.039723 9.003153 0.654298 11697996
9.777267 8.743086 0.803065 11697996
9.172288 10.433745 1.699363 11697996
10.857489 9.242642 0.566867 11697996
9.838408 9.611104 2.816953 11697996
9.774459 10.245825 0.242515 11697996
11.025604 10.464264 0.405202 11697996
9.485568 10.128591 1.549747 11697996
8.751068 11.104596 2.504505 11697996
10.312721 9.479013 0.526608 11697996
10.676111 8.851000 0.202710 11697996
11.206259 9.401889 2.633584 11697996
9.535673 10.705114 1.194182 11697996
10.206825 9.007364 0.999208 11697996
10.716795 10.829743 1.679320 11697996
9.509290 10.002045 2.349084 11697996
10.368106 9.122840 0.476642 11697996
10.615570 9.045236 2.456356 11697996
10.715855 10.119269 1.172912 11697996
9.354543 9.211673 1.769009 11697996
9.880574 10.267450 2.040083 11697996
9.176660 9.054359 1.638961 11697996
9.607415 8.981651 2.464821 11697996
9.489291 11.202167 1.585370 11697996
11.170669 9.612034 1.524944 11697996
9.649636 8.838326 0.395449 11697996
10.323869 10.667747 2.636832 11697996
11.013055 8.773848 2.019782 11697996
9.502244 9.055711 0.074046 11697996
10.008700 10.370705 2.673817 11697996
9.432375 9.652720 1.573587 11697996
9.415440 10.704321 2.878386 11697996
9.946211 9.768369 1.011378 11697996
9.157651 10.249027 2.850509 11697996
9.435817 10.689549 0.816595 11697996
10.060040 9.774983 3.933259 11697996
9.087178 10.592465 2.241637 11697996
8.776077 8.925220 1.153459 11697996
10.621946 9.189641 1.337604 11697996
10.059637 9.720186 2.241436 11697996
11.106888 10.323836 0.219295 11697996
11.094946 10.342742 3.508383 11697996
9.068274 10.234342 1.828160 11697996
9.904627 10.883924 3.228917 11697996
10.702986 10.696867 1.171160 11697996
11.200728 10.141678 1.938959 11697996
10.901314 11.239229 1.317070 11697996
10.727363 11.073537 3.767134 11697996
9.898815 10.227305 1.958769 11697996
11.243414 10.374071 0.453337 11697996
10.513179 10.018640 2.107060 11697996
10.097410 9.774962 3.651415 11697996
9.377937 10.673632 2.060073 11697996
9.566286 10.305117 2.677405 11697996
9.798022 9.642771 0.956034 11697996
9.097713 8.887277 3.371345 11697996
9.530282 8.931997 0.061368 11697996
10.758493 10.039372 2.269524 11697996
9.505060 9.173327 3.776480 11697996
9.957803 9.904593 2.153908 11697996
9.389053 10.483970 0.385852 11697996
9.671455 10.189289 2.054015 11697996
9.376663 11.123023 3.856452 11697996
9.943913 9.934001 2.213120 11697996
8.967295 10.308798 0.942339 11697996
9.619504 9.611396 2.331758 11697996
11.085466 10.446177 1.163319 11697996
10.888061 10.423192 1.593135 11697996
9.381181 9.378323 0.094641 11697996
9.935902 10.037850 1.287099 11697996
11.178496 9.887238 1.134499 11697996
9.752415 9.293682 -0.009128 11697996
9.032675 9.546401 1.792870 11697996
10.862541 9.461824 0.654962 11697996
9.670344 10.006319 1.441569 11697996
9.704243 10.833755 0.250395 11697996
11.233928 10.318445 3.986101 11697996
8.769225 9.722856 2.617593 11697996
9.991190 10.788497 3.159392 11697996
10.072906 9.967110 2.278941 11697996
11.126644 9.836640 2.118132 11697996
9.802213 10.206898 3.503673 11697996
8.959296 9.197300 2.378177 11697996
9.655697 10.402303 2.827604 11697996
10.554729 9.838881 3.792477 11697996
10.561926 9.574489 2.845660 11697996
8.986545 9.499901 2.914894 11697996
10.816322 11.261540 2.798576 11697996
11.216786 10.708270 0.452260 11697996
11.234434 8.788690 1.772067 11697996
9.772958 9.924297 2.532268 11697996
10.442531 8.856963 3.624889 11697996
10.661528 9.626206 1.682744 11697996
10.338551 8.908350 1.252397 11697996
9.736487 10.450781 3.780748 11697996
10.578636 10.465041 1.287143 11697996
10.161036 10.291454 3.685325 11697996
10.180858 9.219380 0.594015 11697996
9.842875 9.093225 1.047762 11697996
10.597298 10.676929 1.770211 11697996
9.956836 10.159318 0.476961 11697996
10.033245 10.415195 3.718014 11697996
10.217171 9.629186 1.547068 11697996
11.080522 9.449140 3.302225 11697996
9.780335 8.765775 3.532812 11697996
9.372185 9.818718 1.282950 11697996
8.918732 8.938371 3.432430 11697996
10.518699 10.506356 1.280668 11697996
10.238626 10.120889 0.177366 11697996
9.026216 10.450706 2.989125 11697996
10.717877 8.809026 1.117292 11697996
8.995365 9.064186 3.290560 11697996
9.717276 11.145759 2.912363 11697996
9.783287 10.907822 0.199217 11697996
11.015491 9.477283 1.997769 11697996
10.515429 10.102437 3.040364 11697996
9.213823 10.583623 2.791644 11697996
11.180693 10.889742 0.178555 11697996
10.100164 9.164762 1.897116 11697996
10.665040 10.270632 2.281323 11697996
11.224488 9.856546 3.103777 11697996
9.007091 10.071867 2.494827 11697996
10.922668 9.119277 1.220144 11697996
11.143037 10.812543 0.158421 11697996
10.385603 10.954929 3.277224 11697996
10.684202 10.849277 3.059917 11697996
9.482443 9.342437 1.108016 11697996
8.892714 9.906065 2.733110 11697996
10.015272 10.567754 3.656495 11697996
10.300238 10.445793 0.934482 11697996
10.270125 9.398109 2.780166 11697996
11.160743 11.012488 2.754539 11697996
9.572436 8.829070 1.123233 11697996
9.465228 9.598293 1.494860 11697996
10.150076 11.116634 2.596685 11697996
9.124293 9.252850 1.707603 11697996
9.355268 8.950026 2.920537 11697996
9.690025 9.735780 2.047281 11697996
10.703687 11.044680 3.684592 11697996
11.104469 10.390403 3.811068 11697996
10.964170 9.202719 0.023463 11697996
11.091030 10.424031 3.193211 11697996
8.950281 9.020396 1.193584 11697996
8.898748 10.270885 3.034658 11697996
8.990488 9.518836 0.991484 11697996
9.309026 9.561921 2.679343 11697996
10.052686 9.165955 3.169992 11697996
8.772050 8.945652 0.482185 11697996
10.143888 10.321276 1.261126 11697996
8.805768 10.293007 0.896050 11697996
9.479894 10.126817 0.441752 11697996
9.579030 9.910860 1.743580 11697996
9.287724 9.161875 1.354174 11697996
9.974476 8.996541 0.969463 11697996
9.381721 9.548505 0.368555 11697996
9.279949 9.615772 0.289868 11697996
9.544353 10.353589 1.897570 11697996
9.037321 9.842264 3.745327 11697996
9.486562 10.037436 0.551436 11697996
9.785273 10.352172 0.686025 11697996
10.790353 11.176109 1.673081 11697996
10.990812 10.255173 0.728022 11697996
9.343152 9.099307 2.467929 11697996
10.059031 9.449621 1.658213 11697996
9.504598 10.079717 2.805504 11697996
10.088158 10.526963 2.625134 11697996
10.922894 9.704498 2.176608 11697996
10.855738 9.542057 0.719727 11697996
9.465604 11.228200 3.634327 11697996
11.198118 10.304374 0.533759 11697996
10.967280 10.514035 3.552260 11697996
11.023636 10.120173 2.401201 11697996
9.428674 8.812246 1.794842 11697996
10.400803 11.073506 0.504904 11697996
9.710225 9.027219 2.017415 11697996
9.675323 9.564894 2.018995 11697996
10.314481 9.635137 1.222652 11697996
9.974668 10.521682 1.312580 11697996
10.385529 9.680861 3.531459 11697996
11.222614 8.859844 0.840790 11697996
10.177576 9.160352 2.834555 11697996
9.529569 9.265863 2.123521 11697996
8.776582 9.357418 0.376786 11697996
9.709072 9.525227 0.661317 11697996
9.044965 10.147395 1.893323 11697996
11.047695 10.269304 1.546096 11697996
9.375453 10.087420 0.691363 11697996
10.097219 8.776707 0.009518 11697996
9.996363 10.454441 3.016294 11697996
9.152150 9.279634 2.537528 11697996
9.321803 9.317943 0.493720 11697996
10.802355 11.157893 3.976698 11697996
9.183757 10.322247 1.517300 11697996
9.881882 9.519129 3.581682 11697996
8.779000 9.435326 2.235999 11697996
10.351421 9.701564 2.793623 11697996
9.762492 11.212792 3.803727 11697996
10.342469 10.580611 3.020872 11697996
10.570138 10.956993 3.984179 11697996
11.187836 9.051192 2.758922 11697996
9.859149 9.383898 2.458001 11697996
10.313827 10.715208 3.251493 11697996
9.509614 10.222888 3.488232 11697996
9.272445 9.957738 0.124540 11697996
10.233897 10.813043 1.671410 11697996
10.733305 10.255227 1.995840 11697996
10.884647 10.616229 1.078309 11697996
10.144364 8.862082 1.866481 11697996
10.007217 10.297421 1.253667 11697996
11.129559 9.637520 1.924032 11697996
10.468087 9.486572 3.632476 11697996
9.980339 10.066226 0.918196 11697996
10.874493 10.969153 1.223889 11697996
10.234285 9.779835 2.543242 11697996
9.708644 9.177959 3.356817 11697996
9.737171 10.939059 2.218813 11697996
9.464299 10.430367 0.842937 11697996
10.889393 10.619963 3.399975 11697996
9.289000 9.600652 2.345546 11697996
9.029106 10.786111 0.017256 11697996
9.429376 10.909431 1.962060 11697996
9.868460 8.844976 3.061579 11697996
8.824381 9.807693 2.027951 11697996
8.963020 10.616123 0.344127 11697996
8.803349 9.285139 1.229833 11697996
10.863653 9.340958 1.065980 11697996
10.896791 10.446161 3.041131 11697996
9.055878 10.878113 3.802959 11697996
10.954782 9.505767 2.985273 11697996
10.913527 8.755017 0.346524 11697996
8.984611 10.361213 1.023777 11697996
10.433029 8.836669 1.910577 11697996
9.383544 9.306715 0.078440 11697996
9.592055 9.913909 1.258712 11697996
10.729903 8.928315 1.115285 11697996
9.101852 10.551731 1.000442 11697996
10.512859 10.190772 0.388064 11697996
11.038610 9.307351 1.904630 11697996
9.047790 9.876199 1.996807 11697996
10.088791 11.128156 2.763585 11697996
8.887014 9.182883 0.606614 11697996
9.508921 10.804868 3.749193 11697996
9.249348 9.644332 2.220864 11697996
9.258666 10.435918 0.199615 11697996
10.704556 9.868266 2.499662 11697996
9.540545 8.818244 3.760030 11697996
10.931970 10.042962 1.497033 11697996
9.098845 10.368021 1.701887 11697996
9.310085 9.384873 2.020459 11697996
10.245006 8.813951 3.892277 11697996
10.045404 9.176302 3.289386 11697996
10.677839 10.065824 3.208128 11697996
11.239934 10.620484 3.792183 11697996
9.284825 9.283009 2.133066 11697996
9.516794 10.970949 3.235333 11697996
10.033956 9.335828 0.465539 11697996
9.537782 10.437955 2.374618 11697996
10.993256 8.906095 1.167656 11697996
9.657106 10.392254 1.557608 11697996
10.518479 10.454172 1.565015 11697996
9.844743 9.074613 2.507023 11697996
9.283711 10.524701 2.074940 11697996
9.215572 10.091371 0.666076 11697996
9.635821 10.452780 3.768361 11697996
10.314591 9.805610 3.581482 11697996
10.026099 9.280286 2.041496 11697996
10.626832 9.801060 0.426110 11697996
11.232427 10.555620 3.205522 11697996
10.713435 9.662587 3.252983 11697996
10.231059 10.353988 0.737797 11697996
9.586186 10.342612 2.646897 11697996
11.028331 11.145316 3.950221 11697996
11.100066 11.195435 1.982846 11697996
9.221983 9.020505 0.229855 11697996
9.772394 9.805598 3.574662 11697996
9.330248 11.120105 1.617640 11697996
8.905896 10.559482 0.419872 11697996
11.183702 11.018450 2.701846 11697996
8.874004 10.666267 1.560086 11697996
10.658891 9.426615 1.055030 11697996
10.867382 9.587807 3.182323 11697996
10.162489 10.231705 0.948543 11697996
9.070941 9.699196 2.375707 11697996
11.097418 9.126421 0.559057 11697996
9.414536 8.837294 2.195258 11697996
10.913955 10.877700 2.313895 11697996
10.445030 10.722890 3.789911 11697996
9.449550 10.922164 0.995411 11697996
9.253192 10.243287 3.515642 11697996
10.332752 9.468435 2.924254 11697996
10.611261 10.425200 3.598017 11697996
8.856505 11.162425 1.209272 11697996
9.549139 10.195375 1.113018 11697996
9.636644 10.014503 3.188423 11697996
10.679943 10.354352 3.223846 11697996
10.151586 9.556067 0.204275 11697996
9.083881 8.886564 0.052951 11697996
9.506431 10.242563 1.408968 11697996
10.657146 9.547206 3.536258 11697996
9.092568 11.172007 0.553734 11697996
9.537678 11.147379 0.447106 11697996
10.725349 8.858647 1.573800 11697996
10.399348 10.820181 2.142915 11697996
11.213512 10.926305 3.064243 11697996
11.161743 8.932051 2.599128 11697996
9.888406 10.787814 3.928769 11697996
9.448782 10.427341 3.924876 11697996
9.112507 9.169918 3.166489 11697996
9.118326 10.565447 3.432944 11697996
10.957541 11.072556 2.803154 11697996
9.582635 10.452192 2.082121 11697996
9.357417 9.992977 3.700341 11697996
10.931432 9.716053 3.788219 11697996
9.602883 9.050566 0.397115 11697996
9.077229 9.194627 0.562689 11697996
9.502570 9.050355 1.351901 11697996
9.726308 10.350244 3.289333 11697996
10.840872 9.298274 0.730040 11697996
9.034488 10.155643 1.994579 11697996
9.524138 10.564953 1.098450 11697996
10.084905 9.206729 2.756746 11697996
9.468966 10.185713 0.010378 11697996
9.405351 9.201554 0.250508 11697996
10.833797 9.865685 1.515548 11697996
9.817493 10.741917 0.173951 11697996
9.018915 9.702060 0.868391 11697996
10.165638 9.444386 2.058722 11697996
10.896605 9.256536 1.070297 11697996
8.907188 10.260678 1.857271 11697996
8.815028 10.978687 3.592258 11697996
10.591447 9.076215 2.353001 11697996
9.293604 10.918363 1.785522 11697996
10.577139 9.912483 0.553644 11697996
9.470843 9.131225 3.744012 11697996
10.337090 10.282960 0.030803 11697996
10.715018 9.009332 3.699538 11697996
9.121198 11.103203 3.969365 11697996
10.271362 9.272974 1.979255 11697996
8.780933 9.028026 3.662519 11697996
10.304728 9.227133 2.664863 11697996
9.727837 9.984752 3.949087 11697996
8.771032 9.822336 1.481536 11697996
9.258141 10.480426 2.143492 11697996
9.669773 10.688384 2.791250 11697996
9.303097 9.844975 2.173696 11697996
8.782469 10.274380 3.234070 11697996
9.286265 10.958784 0.089128 11697996
8.824471 9.460546 2.465895 11697996
10.875458 9.810484 1.523814 11697996
10.234971 9.779088 1.764863 11697996
10.472057 10.058642 2.333461 11697996
10.131784 9.219846 2.930451 11697996
10.111713 10.340297 3.492109 11697996
9.153939 10.092531 0.988588 11697996
9.352219 8.830345 2.608875 11697996
11.243102 11.157861 1.220561 11697996
9.087634 10.180046 2.625269 11697996
9.648110 9.711961 2.782266 11697996
9.371669 9.777055 1.702502 11697996
9.384907 10.849377 3.601073 11697996
10.728757 8.848687 2.775313 11697996
10.145126 9.376380 1.571714 11697996
10.938479 10.718595 3.839017 11697996
9.108465 9.444359 3.378262 11697996
10.056689 9.671342 0.879042 11697996
9.228690 10.958792 0.465292 11697996
9.009570 11.021109 1.974358 11697996
10.947135 10.819551 1.330299 11697996
9.873369 9.246085 3.204035 11697996
10.379855 9.827868 1.350127 11697996
10.301501 9.863291 3.904906 11697996
9.433969 9.075708 3.565075 11697996
9.775886 10.470432 3.220804 11697996
8.981447 9.810202 2.809003 11697996
10.356590 11.022574 0.428116 11697996
10.093355 10.988722 3.018461 11697996
9.017158 9.481027 0.239569 11697996
8.767158 10.149792 0.990650 11697996
9.692868 10.671023 0.568787 11697996
10.379702 10.168526 3.294386 11697996
9.142133 10.227755 3.653380 11697996
11.217906 10.299397 2.499843 11697996
10.930788 10.032482 2.814899 11697996
10.172655 9.979573 0.135478 11697996
10.570930 9.455808 1.669313 11697996
9.095702 9.138845 0.492201 11697996
8.912365 10.878751 0.514859 11697996
9.086924 10.196821 2.225631 11697996
9.808542 10.637795 2.045604 11697996
10.925755 9.426815 3.382563 11697996
8.979548 10.777672 2.029647 11697996
8.813325 10.147622 2.768518 11697996
9.740925 10.083212 0.657093 11697996
10.759582 10.676065 0.493382 11697996
9.374143 10.108276 3.236562 11697996
8.740884 8.949895 1.690427 11697996
9.630445 9.707302 1.442914 11697996
9.559459 11.114367 2.477502 11697996
11.054819 9.868382 2.830828 11697996
9.451212 9.389956 2.580765 11697996
9.311999 9.616921 1.676058 11697996
10.545261 11.162623 0.390518 11697996
9.248762 8.936331 3.391392 11697996
10.568131 9.769027 2.283428 11697996
9.986679 10.665042 1.587451 11697996
9.823585 11.158128 2.123585 11697996
10.619341 11.019403 2.297290 11697996
9.749224 11.083079 3.414637 11697996
10.097581 8.953426 0.097317 11697996
9.766735 10.459139 1.645489 11697996
8.844072 9.749731 2.788167 11697996
10.118187 9.887462 2.381697 11697996
10.969335 9.912186 1.833349 11697996
10.090725 10.684380 1.087422 11697996
9.257661 9.006840 3.213152 11697996
9.638014 9.630956 0.810108 11697996
9.790304 10.143818 0.991638 11697996
10.038898 9.935498 2.462144 11697996
11.205112 10.503949 3.356012 11697996
9.641035 9.952898 1.896335 11697996
10.663811 8.839721 0.225383 11697996
11.144850 9.351566 0.021146 11697996
11.141901 9.316574 0.849622 11697996
9.754588 10.273301 1.570325 11697996
10.344515 8.956433 0.657119 11697996
11.140827 8.860600 2.789131 11697996
11.223837 9.425588 3.269525 11697996
11.098983 9.187440 2.095752 11697996
11.164601 10.754172 3.920638 11697996
10.515823 9.710693 2.576342 11697996
10.086814 10.162167 0.339871 11697996
10.778189 10.458713 1.351419 11697996
9.494862 8.838618 1.550483 11697996
9.332390 9.939214 3.433703 11697996
10.718929 10.550232 2.064133 11697996
10.890449 8.814225 2.291914 11697996
9.005689 8.876595 3.367643 11697996
10.212739 10.790833 0.417611 11697996
11.134221 10.936032 3.455713 11697996
10.641683 10.445521 3.051807 11697996
9.350090 9.988634 3.408631 11697996
10.394130 11.069803 0.771086 11697996
10.077313 9.374373 0.886651 11697996
10.535761 10.392949 1.687574 11697996
10.021457 10.175789 3.387231 11697996
9.628055 10.033409 2.758356 11697996
10.525784 9.154255 1.179218 11697996
9.951891 9.570492 1.786769 11697996
10.769777 10.235142 1.780134 11697996
10.669141 11.051552 0.905569 11697996
11.081996 9.839973 2.068802 11697996
10.510829 10.155310 1.577708 11697996
11.055926 9.281609 3.914052 11697996
9.193034 9.723736 2.543279 11697996
10.519522 10.331364 2.352318 11697996
9.576757 10.806437 1.716533 11697996
10.525233 9.488023 3.947144 11697996
10.305573 10.333957 1.598798 11697996
9.271657 9.789930 0.295767 11697996
9.016929 10.656774 2.496914 11697996
11.066794 11.001755 2.994968 11697996
9.288676 9.502332 0.108883 11697996
9.421100 10.538685 2.627182 11697996
9.276428 10.064323 0.012662 11697996
10.384624 9.607421 0.290774 11697996
9.925190 11.052831 1.125615 11697996
10.085802 9.882589 0.978663 11697996
10.004622 9.870465 1.801894 11697996
8.957178 9.060919 0.541299 11697996
10.189751 10.340815 3.626897 11697996
10.815386 10.453544 1.556163 11697996
9.292112 10.528038 3.019679 11697996
8.966570 9.320505 3.960249 11697996
9.291690 9.379742 3.737913 11697996
10.501335 10.350294 0.165638 11697996
11.211557 11.079000 2.773628 11697996
10.133471 10.434787 3.983673 11697996
9.010012 11.072626 2.436704 11697996
9.976344 10.586461 1.107014 11697996
10.711132 10.429138 0.962821 11697996
10.330183 9.897469 1.912608 11697996
9.233192 9.857153 3.143086 11697996
10.862991 9.983372 1.290890 11697996
11.206776 8.804868 0.161114 11697996
9.284827 9.591672 1.888706 11697996
9.452836 10.243852 3.920855 11697996
10.618209 10.969831 2.752532 11697996
9.791685 9.408775 2.236443 11697996
11.181318 10.696670 1.649084 11697996
9.088183 10.806779 0.294938 11697996
9.662565 9.690068 0.160522 11697996
9.717723 9.012767 2.258292 11697996
9.831666 11.067462 3.579884 11697996
10.656062 9.119847 3.475514 11697996
9.454107 10.172958 1.851440 11697996
9.664680 9.859481 3.430563 11697996
10.200491 9.582677 3.208628 11697996
10.890238 8.768550 0.599553 11697996
10.200980 9.800117 1.638286 11697996
9.447010 9.009980 3.380553 11697996
10.091857 10.798489 2.301098 11697996
10.132629 9.901866 3.400598 11697996
9.773829 9.055178 3.014489 11697996
11.161097 9.564713 1.202996 11697996
9.171522 9.611766 2.710456 11697996
9.142590 10.043628 1.837348 11697996
11.029753 10.246827 3.422817 11697996
9.055261 9.562221 0.212400 11697996
10.626645 9.785305 1.347866 11697996
11.017732 10.126998 0.063694 11697996
10.425333 10.166986 2.295142 11697996
10.412504 10.594133 2.566615 11697996
10.940518 9.827417 3.783798 11697996
9.454113 10.740159 3.086225 11697996
8.783003 9.785353 3.732924 11697996
10.437770 9.057318 0.405532 11697996
8.873308 9.567152 0.147362 11697996
10.937900 9.909354 1.910600 11697996
10.407292 10.299299 1.381143 11697996
9.011277 9.198318 1.548231 11697996
11.021976 8.946054 1.396294 11697996
9.233956 10.492780 1.194599 11697996
9.519589 11.026347 0.778192 11697996
10.673856 11.012739 2.841146 11697996
11.115971 10.769793 0.161241 11697996
9.152775 8.881200 0.272286 11697996
9.939552 9.985754 3.814257 11697996
10.434450 9.543068 2.683269 11697996
11.064164 10.871583 2.962728 11697996
9.971747 10.756294 0.118699 11697996
10.298503 9.034957 0.273877 11697996
10.422628 10.936163 0.972285 11697996
8.729930 9.469007 0.778528 11697996
9.350355 11.047997 1.206325 11697996
10.743535 9.010773 1.525068 11697996
10.014085 10.652872 0.394979 11697996
10.704885 9.843865 1.739433 11697996
10.257270 10.066682 3.916780 11697996
10.629784 9.400173 3.067551 11697996
10.141623 11.167900 0.299256 11697996
9.031138 9.872079 1.716083 11697996
9.566955 10.120901 3.797866 11697996
9.733590 10.787265 1.274571 11697996
11.036280 11.045332 0.419268 11697996
10.286095 9.183057 2.169310 11697996
8.777154 9.161167 1.828010 11697996
8.778628 9.252805 1.239987 11697996
8.874846 9.574788 2.092761 11697996
9.341266 10.833522 1.812893 11697996
8.998897 10.278793 2.090580 11697996
8.979558 10.669088 1.984578 11697996
9.165060 10.529151 0.317509 11697996
10.132669 11.193295 2.693807 11697996
9.295303 10.185888 3.525176 11697996
11.077900 10.533409 2.650371 11697996
10.719009 9.782763 0.658047 11697996
9.621323 8.966687 2.048621 11697996
10.370806 10.312903 3.031468 11697996
10.206029 9.171281 1.930711 11697996
11.235760 9.833046 1.980548 11697996
11.081089 9.215459 2.206476 11697996
9.985070 11.051700 1.733996 11697996
11.220171 9.533235 1.523964 11697996
9.995343 9.152887 1.397623 11697996
10.687302 10.544401 3.144496 11697996
11.138355 11.165806 3.786150 11697996
9.926535 9.183283 3.645324 11697996
11.194485 11.147865 0.583076 11697996
9.176021 9.265890 3.900185 11697996
10.815013 10.237514 2.546309 11697996
10.132327 10.193321 0.348788 11697996
9.820647 10.231130 0.627127 11697996
10.348102 8.758076 0.274994 11697996
10.451494 9.613689 2.699758 11697996
9.454418 9.168809 2.360461 11697996
8.759286 10.492438 3.921431 11697996
10.850367 10.117650 2.897441 11697996
10.587459 11.030989 3.471417 11697996
9.082563 9.718270 3.628485 11697996
8.777442 9.501842 0.829558 11697996
9.321551 10.801570 2.032743 11697996
10.175406 9.510466 2.954955 11697996
9.671310 9.847045 0.634732 11697996
11.073066 9.812282 2.103054 11697996
10.100786 10.326642 2.304429 11697996
10.766461 11.113177 1.834471 11697996
10.179446 9.687145 3.239401 11697996
8.826249 9.205339 0.250214 11697996
10.761065 9.789883 3.100528 11697996
11.209534 8.817616 1.008231 11697996
9.688848 10.480916 2.726485 11697996
10.932410 10.528747 1.846657 11697996
9.816900 10.823784 3.947325 11697996
10.629648 10.403882 0.137248 11697996
11.023686 8.999750 1.030088 11697996
10.196259 9.162527 0.929774 11697996
10.196787 11.146011 2.420875 11697996
9.512794 11.036214 0.763903 11697996
9.566465 10.645373 0.751130 11697996
9.037248 8.951100 1.470564 11697996
10.750270 9.801582 2.721563 11697996
10.434488 10.005939 2.224150 11697996
10.564749 8.858707 2.500215 11697996
9.019251 11.165602 1.114613 11697996
9.627794 10.162849 3.515039 11697996
9.670190 10.905731 2.893502 11697996
10.546354 9.154265 0.982008 11697996
8.835213 9.148799 1.160468 11697996
11.072699 10.687112 1.716403 11697996
8.909189 9.640804 3.320030 11697996
10.692024 9.135254 2.221133 11697996
10.695305 9.840165 3.838892 11697996
8.887226 9.393147 1.903905 11697996
10.000401 9.284874 1.386734 11697996
10.584894 9.941081 0.728943 11697996
9.542564 10.766243 3.143204 11697996
9.212006 9.565594 3.062669 11697996
10.186932 9.439718 2.882645 11697996
11.188837 9.868608 0.528485 11697996
10.867349 9.501839 0.517031 11697996
10.006919 11.148190 0.816940 11697996
9.612617 9.352769 0.561108 11697996
9.477921 9.590910 3.644117 11697996
9.730244 9.355893 3.473224 11697996
9.860960 10.003616 3.182878 11697996
9.274224 9.766443 2.380672 11697996
9.565684 9.346191 1.782705 11697996
8.777356 9.982763 0.802940 11697996
10.835942 10.550956 0.111995 11697996
8.878219 10.685988 0.354173 11697996
11.088318 11.189467 3.660283 11697996
10.397874 9.250778 1.196921 11697996
10.362247 8.851573 3.451887 11697996
11.153889 11.262806 3.818133 11697996
10.982162 9.767931 1.170262 11697996
11.041701 9.328287 2.896727 11697996
10.016584 10.891828 3.838391 11697996
10.000830 9.925170 2.946225 11697996
10.656180 11.041281 1.475787 11697996
9.922600 10.910233 0.963099 11697996
9.810739 9.665832 2.272592 11697996
10.763992 9.331974 3.290254 11697996
9.489467 9.703106 0.255184 11697996
10.492443 9.108487 2.410240 11697996
8.835423 9.306912 1.328030 11697996
10.538448 9.555219 3.666418 11697996
11.101509 9.097899 1.281284 11697996
10.288145 8.825025 1.671898 11697996
10.906341 10.722542 2.691496 11697996
9.589221 8.992729 1.275085 11697996
8.783875 9.706772 0.401481 11697996
8.838330 9.078965 3.130118 11697996
10.574245 10.729596 2.068572 11697996
10.451323 9.854938 1.387571 11697996
10.397021 8.983937 3.746571 11697996
10.326117 10.729045 2.323780 11697996
11.029646 8.825234 0.178775 11697996
9.005635 9.522834 2.725233 11697996
10.476501 9.761964 2.975009 11697996
10.765081 10.250450 3.127846 11697996
10.408375 8.986703 1.423454 11697996
10.137042 9.676095 2.050789 11697996
9.523531 11.051652 1.900856 11697996
9.772044 9.519687 1.370396 11697996
9.307103 10.505666 3.867018 11697996
10.881297 9.638548 0.670840 11697996
9.789202 10.567236 2.624015 11697996
8.864956 9.847340 1.606815 11697996
10.240580 10.291320 3.756416 11697996
8.777328 9.765784 1.687941 11697996
9.417882 10.162839 1.841114 11697996
9.491541 9.575137 0.053234 11697996
9.889707 10.143267 1.855999 11697996
9.459791 8.741029 2.135812 11697996
9.430414 10.124197 0.449848 11697996
9.322219 8.761958 3.964154 11697996
8.952420 10.396667 2.367709 11697996
9.634508 10.058159 1.627783 11697996
9.268690 9.901426 0.892377 11697996
10.771188 10.849689 1.398500 11697996
11.177294 9.880259 3.193545 11697996
10.511240 10.215755 1.264926 11697996
8.963751 10.602560 3.726315 11697996
10.524642 10.256991 2.743517 11697996
9.703620 9.298120 3.553643 11697996
10.988391 11.151850 0.951406 11697996
10.372953 10.662321 2.604491 11697996
10.182448 10.667672 1.233944 11697996
10.509393 9.479777 2.184214 11697996
9.886446 9.333490 0.065270 11697996
9.617294 10.714424 0.574707 11697996
10.370278 9.284954 0.282690 11697996
9.023255 10.747557 0.479845 11697996
10.375809 10.955523 1.994931 11697996
10.059150 9.052051 2.688286 11697996
10.204379 9.239012 3.802627 11697996
10.846419 9.835839 2.900706 11697996
10.368981 11.140283 1.079495 11697996
10.963211 9.086749 0.509245 11697996
11.128250 10.031235 1.430106 11697996
9.375904 10.223781 3.570318 11697996
9.051291 8.802726 1.257349 11697996
10.341395 10.549925 1.363833 11697996
8.907870 8.924187 3.269316 11697996
10.248624 9.167127 3.870854 11697996
9.110775 10.343578 2.636781 11697996
9.264363 9.810319 0.628291 11697996
9.857687 11.079702 3.344073 11697996
8.964057 10.286174 3.256457 11697996
8.804361 11.223632 2.891744 11697996
9.389347 10.298252 3.548134 11697996
11.166246 11.221769 0.496344 11697996
8.946325 9.260858 0.640133 11697996
10.243725 9.012568 3.664958 11697996
10.442572 11.067758 0.632057 11697996
8.738881 9.842512 3.665313 11697996
10.166210 10.364377 3.533639 11697996
9.598754 10.228844 1.111269 11697996
9.685514 8.801314 3.133636 11697996
10.027728 9.504862 3.127683 11697996
10.569633 9.837301 2.850625 11697996
9.361631 8.994571 1.069355 11697996
10.789252 11.088248 1.600433 11697996
9.913537 9.330972 3.090611 11697996
10.344781 9.420877 1.294623 11697996
10.414658 10.929778 3.323694 11697996
8.857335 9.658439 1.901177 11697996
9.242108 10.797396 3.020479 11697996
9.383713 10.781219 1.301496 11697996
9.296161 9.890965 2.366009 11697996
11.116450 9.025770 0.171955 11697996
10.104705 8.992037 1.875736 11697996
10.711128 9.928646 1.116615 11697996
10.348639 10.212791 0.592303 11697996
10.976183 9.675371 3.119972 11697996
8.869438 10.632318 1.550534 11697996
10.206703 9.670499 3.058765 11697996
9.050314 10.507425 3.408048 11697996
10.227616 10.460871 -0.011228 11697996
9.093596 10.396583 2.140437 11697996
9.834563 10.508286 1.631562 11697996
10.081095 9.852540 1.484790 11697996
10.870841 9.922881 1.294000 11697996
9.488523 8.958650 1.799748 11697996
10.610323 9.207791 2.187083 11697996
11.193807 10.312626 3.146084 11697996
11.224374 9.368868 3.463881 11697996
9.953415 9.078875 1.587325 11697996
10.960454 9.805710 1.120575 11697996
11.270726 10.060917 0.439587 11697996
9.843515 8.777514 2.301011 11697996
10.079214 9.488344 2.335718 11697996
9.993127 10.761353 1.742856 11697996
9.919021 9.985925 2.852231 11697996
9.923442 10.700287 3.770594 11697996
10.731599 9.348529 2.448791 11697996
9.468435 8.936032 0.259041 11697996
9.346861 8.878665 0.497318 11697996
9.074601 10.597134 3.224883 11697996
8.941921 9.540941 3.345539 11697996
10.148098 10.978030 0.123592 11697996
8.723731 10.543979 3.784465 11697996
10.298808 8.845783 3.567850 11697996
9.294072 10.586782 1.797086 11697996
9.447908 10.895984 1.888108 11697996
8.950969 9.942043 0.240572 11697996
10.424406 9.464038 2.744177 11697996
10.490210 9.620039 3.289387 11697996
10.272573 9.748054 0.862403 11697996
9.258711 10.153348 0.222917 11697996
8.798713 10.344395 0.957853 11697996
10.492496 11.231605 3.554309 11697996
9.030455 8.948913 2.877332 11697996
9.518154 10.417666 3.713434 11697996
8.752791 10.026220 2.453491 11697996
10.769238 10.583405 3.416766 11697996
11.024505 11.250428 3.626832 11697996
10.485646 8.837345 0.952752 11697996
8.958840 10.296258 0.052364 11697996
9.075451 9.426830 0.706574 11697996
9.259884 8.933492 0.336094 11697996
9.628201 9.165767 0.249181 11697996
10.882884 10.318841 1.689359 11697996
9.832467 10.207399 3.602302 11697996
9.103436 9.819244 1.796740 11697996
9.901716 9.439216 1.261477 11697996
9.358373 9.149227 1.500397 11697996
10.175096 10.471045 3.098786 11697996
10.138030 9.909057 0.737272 11697996
11.017982 9.091122 1.695167 11697996
8.795820 10.466595 0.261034 11697996
10.473977 11.122915 2.039315 11697996
9.870929 9.536489 1.698313 11697996
11.240054 10.149459 0.772036 11697996
9.830431 9.159988 1.808184 11697996
9.720739 9.654441 2.906301 11697996
10.728810 9.469230 3.001987 11697996
10.577683 8.745283 2.919343 11697996
10.617996 10.573957 2.339139 11697996
9.361052 9.841842 3.218473 11697996
10.363063 10.695333 2.645443 11697996
10.371456 10.533094 2.543676 11697996
8.762305 8.886708 0.473957 11697996
10.208320 8.989464 2.608304 11697996
9.903749 10.269019 2.020222 11697996
9.795109 11.207187 2.460099 11697996
8.761900 9.453568 0.013524 11697996
10.608635 9.467673 0.366096 11697996
-9.800712 -10.466445 0.688590 6730418
-10.251328 -10.984812 1.090180 6730418
-10.589261 -9.863169 2.162367 6730418
-10.446881 -9.386474 0.332191 6730418
-9.653415 -9.564435 1.843086 6730418
-9.895462 -9.370296 2.409676 6730418
-9.994307 -10.303623 2.930021 6730418
-9.650203 -9.358898 0.166549 6730418
-9.577749 -9.661581 2.397220 6730418
-9.422461 -10.292948 0.279365 6730418
-10.763918 -9.731271 1.185788 6730418
-9.434198 -10.373744 2.015559 6730418
-9.636325 -10.828327 2.879521 6730418
-10.212061 -10.142941 1.438643 6730418
-9.484760 -10.157983 0.823032 6730418
-9.310272 -10.598873 1.773968 6730418
-10.493369 -9.794157 0.179557 6730418
-9.311954 -10.716181 1.796700 6730418
-9.583284 -10.785680 1.311437 6730418
-9.868650 -10.503574 1.588744 6730418
-9.372354 -10.539524 1.765319 6730418
-9.773906 -9.232431 1.227798 6730418
-9.850305 -9.030338 2.100561 6730418
-9.748729 -10.770805 0.118356 6730418
-10.316110 -10.056396 0.305878 6730418
-10.129249 -9.712214 0.862512 6730418
-10.293289 -10.537071 0.443044 6730418
-9.907992 -9.593099 0.908219 6730418
-10.399063 -10.463657 0.920458 6730418
-9.601122 -10.418409 2.074965 6730418
-10.205433 -10.603000 2.059433 6730418
-9.478881 -9.319255 2.830032 6730418
-9.977168 -10.893428 1.220355 6730418
-10.794500 -9.426919 1.744461 6730418
-9.605405 -9.374648 2.102368 6730418
-10.431345 -9.817412 0.317594 6730418
-9.868465 -9.778625 1.201464 6730418
-9.572045 -10.566362 1.061516 6730418
-9.760926 -10.761702 1.906354 6730418
-9.373344 -9.450132 1.121551 6730418
-9.101237 -10.306655 0.498785 6730418
-9.916486 -10.771215 0.217989 6730418
-10.019765 -9.139548 2.590711 6730418
-9.565056 -10.194823 2.719316 6730418
-9.883173 -9.444822 2.492118 6730418
-10.323554 -9.802697 1.856048 6730418
-9.823104 -10.353551 0.867201 6730418
-9.419180 -9.396705 1.207877 6730418
-10.544123 -10.455281 1.868598 6730418
-9.473145 -9.430319 2.354755 6730418
-10.792780 -10.295131 2.745739 6730418
-9.288966 -9.866955 2.677979 6730418
-10.603498 -9.993241 1.924338 6730418
-9.896469 -10.135844 1.148742 6730418
-10.351830 -10.510908 2.589210 6730418
-9.951524 -10.475023 0.729394 6730418
-9.842368 -9.802792 1.383764 6730418
-9.464969 -10.263063 2.552798 6730418
-9.763107 -9.322478 1.779711 6730418
-9.763459 -10.498537 2.912259 6730418
-10.303039 -10.190775 1.267902 6730418
-9.139523 -9.741307 1.241734 6730418
-9.400296 -9.950665 2.119394 6730418
-10.221429 -9.106306 2.105838 6730418
-9.336402 -9.739244 2.734560 6730418
-10.176163 -9.326713 1.041622 6730418
-9.699574 -9.611286 1.179699 6730418
-10.079673 -9.100209 1.158616 6730418
-9.748631 -9.902629 0.930776 6730418
-10.592813 -10.602569 0.612428 6730418
-9.207908 -10.557418 0.766243 6730418
-10.056910 -10.871442 1.771420 6730418
-9.996889 -9.598939 2.832890 6730418
-9.691097 -10.114408 0.357389 6730418
-9.962035 -10.070743 1.488165 6730418
-9.507736 -9.322326 1.890440 6730418
-9.183775 -9.526720 1.130577 6730418
-10.037481 -9.120507 0.089421 6730418
-9.581084 -9.921165 0.773167 6730418
-9.784274 -9.893182 2.332872 6730418
-9.372519 -10.706006 1.953482 6730418
-10.465279 -9.442268 1.162365 6730418
-10.382966 -9.655843 2.643881 6730418
-9.160800 -9.932364 2.785949 6730418
-9.391298 -10.381172 0.117020 6730418
-10.193368 -9.472973 1.609494 6730418
-10.753414 -9.833854 1.456405 6730418
-10.169785 -9.816296 2.194099 6730418
-10.501449 -9.435146 1.229902 6730418
-9.981767 -9.381461 0.598906 6730418
-10.869180 -10.207766 2.659882 6730418
-9.942555 -9.708148 2.333270 6730418
-10.820024 -9.877553 1.500423 6730418
-10.690492 -9.741261 0.838076 6730418
-9.684301 -10.536417 2.711242 6730418
-10.680976 -10.587551 1.409846 6730418
-10.069688 -10.310132 1.582161 6730418
-9.735733 -10.945724 0.347092 6730418
-9.997163 -10.363156 1.130801 6730418
-9.415886 -10.282692 1.119332 6730418
-9.664535 -10.247287 2.176584 6730418
-9.084759 -9.866714 0.397069 6730418
-10.635510 -10.122491 0.475443 6730418
-9.501892 -10.526115 1.510164 6730418
-9.776546 -10.376751 1.963007 6730418
-9.963297 -10.271238 2.830649 6730418
-9.996843 -10.240497 2.404833 6730418
-9.449932 -9.607307 0.735446 6730418
-9.507476 -9.907304 2.669039 6730418
-9.723323 -10.484867 2.112443 6730418
-9.453555 -10.211125 0.523504 6730418
-9.041013 -10.253260 1.053844 6730418
-9.751067 -9.070020 0.954072 6730418
-9.228572 -10.448430 2.456645 6730418
-9.688778 -9.746434 2.759046 6730418
-9.129953 -10.289539 0.176846 6730418
-9.613657 -10.373623 1.004469 6730418
-10.409505 -10.476965 2.299290 6730418
-9.655150 -9.137368 1.866473 6730418
-9.292400 -10.138600 1.534037 6730418
-9.140342 -9.588784 1.725030 6730418
-9.341744 -9.549887 2.221296 6730418
-10.336354 -10.679635 0.671044 6730418
-9.242543 -10.366209 0.988965 6730418
-9.216300 -9.433482 0.324170 6730418
-9.283362 -10.018058 1.397555 6730418
-9.145922 -10.200642 1.842843 6730418
-10.378224 -9.310266 0.736794 6730418
-10.899697 -10.146079 2.211968 6730418
-9.897162 -9.408756 2.640646 6730418
-10.841692 -9.587816 1.633314 6730418
-9.252280 -10.204874 2.004802 6730418
-9.453419 -10.820526 2.833917 6730418
-9.428267 -10.464348 2.796308 6730418
-10.510178 -10.375861 2.138110 6730418
-9.953674 -10.563893 1.549349 6730418
-9.538417 -9.173356 2.696569 6730418
-9.960096 -10.500262 2.564472 6730418
-10.899583 -10.318972 1.747018 6730418
-10.298224 -9.491061 1.495872 6730418
-9.633499 -10.670309 2.393054 6730418
-9.435536 -9.954642 1.846382 6730418
-9.893365 -10.249590 0.069859 6730418
-10.594529 -10.368135 0.243978 6730418
-9.244392 -9.991407 0.043104 6730418
-10.775184 -10.324710 0.293249 6730418
-9.478003 -9.762178 1.853463 6730418
-10.508324 -9.840540 0.928122 6730418
-9.461124 -10.024525 1.499483 6730418
-9.910154 -10.276971 0.965560 6730418
-9.802017 -10.941108 0.070066 6730418
-10.023022 -9.559665 2.262430 6730418
-9.731416 -10.060484 2.018139 6730418
-9.159198 -10.440027 2.735211 6730418
-10.200269 -9.967273 2.016464 6730418
-10.407312 -9.931666 2.504412 6730418
-9.679593 -10.144918 2.543710 6730418
-10.140456 -9.985222 2.549815 6730418
-9.203867 -10.421495 1.148171 6730418
-10.346291 -10.724965 2.774615 6730418
-10.047218 -9.589663 2.841122 6730418
-9.273212 -10.623856 0.807150 6730418
-10.258432 -9.466482 1.208654 6730418
-10.022915 -9.241272 1.026544 6730418
-10.326679 -9.189899 2.715187 6730418
-9.405708 -10.540015 0.669486 6730418
-10.793632 -10.011003 0.928787 6730418
-9.941274 -10.633000 0.075433 6730418
-9.283432 -9.923321 1.841131 6730418
-9.397926 -9.234113 1.605957 6730418
-10.878465 -9.574405 0.618740 6730418
-9.461125 -9.880480 1.138067 6730418
-10.143535 -9.956073 1.348198 6730418
-10.096894 -9.893247 1.565269 6730418
-10.270576 -10.119390 2.151511 6730418
-9.630376 -9.428698 1.113441 6730418
-10.440117 -9.713453 0.883000 6730418
-10.318159 -9.399068 1.706413 6730418
-10.387519 -10.553547 2.926489 6730418
-10.217679 -10.942813 2.898944 6730418
-9.951784 -10.826870 2.324061 6730418
-9.920706 -9.560307 1.222456 6730418
-9.888604 -9.882545 2.530138 6730418
-9.569834 -9.376376 1.174516 6730418
-10.506310 -10.281125 1.011307 6730418
-9.847002 -9.950679 1.100679 6730418
-9.814442 -10.313197 2.101457 6730418
-9.658599 -9.599888 2.298512 6730418
-9.632542 -10.641040 2.308000 6730418
-9.835001 -9.170159 2.031437 6730418
-10.421425 -10.359303 0.621829 6730418
-10.041181 -10.988062 2.023171 6730418
-9.284527 -10.144874 0.090302 6730418
-10.475585 -9.497377 2.971896 6730418
-9.190864 -9.445592 2.286260 6730418
-10.120853 -9.214023 0.122696 6730418
-9.865844 -9.168972 2.237472 6730418
-9.078262 -9.841088 1.492231 6730418
-10.211205 -10.500428 0.410522 6730418
-9.710341 -9.081904 1.453630 6730418
-9.156077 -9.677503 1.693304 6730418
-9.252836 -9.569662 0.806120 6730418
-9.475226 -10.108368 0.636065 6730418
-9.426164 -10.381809 2.619257 6730418
-10.794585 -10.014483 0.426060 6730418
-10.719287 -9.863144 1.903902 6730418
-9.040277 -9.689092 0.647245 6730418
-9.790452 -9.666665 1.540070 6730418
-10.347503 -10.479676 1.496600 6730418
-9.225626 -9.458493 1.062607 6730418
-10.212667 -9.209318 2.273478 6730418
-10.775818 -9.585668 0.926605 6730418
-9.215989 -9.678267 0.445620 6730418
-9.654367 -9.754882 2.984077 6730418
-10.783165 -10.215192 2.386896 6730418
-9.249768 -9.805144 0.073246 6730418
-10.043428 -9.194939 2.138370 6730418
-9.761208 -10.290840 2.753679 6730418
-10.248469 -10.819510 1.873983 6730418
-9.499578 -10.084867 1.074957 6730418
-10.211770 -10.305050 1.194750 6730418
-10.146184 -9.787864 2.537751 6730418
-10.879005 -9.945601 1.758862 6730418
-9.239107 -9.598264 1.957481 6730418
-9.234585 -9.517491 2.014652 6730418
-9.884442 -10.227870 2.655955 6730418
-10.793654 -10.515327 2.449873 6730418
-9.337972 -10.374518 1.739501 6730418
-10.419032 -9.692607 1.223474 6730418
-10.185707 -10.189654 2.900865 6730418
-9.579157 -9.313210 1.771338 6730418
-9.447528 -10.807605 1.406816 6730418
-9.761067 -10.357401 0.605471 6730418
-9.573288 -10.304073 1.374097 6730418
-9.368326 -10.120682 1.242636 6730418
-9.344884 -9.238590 0.294018 6730418
-10.214037 -10.670012 0.934383 6730418
-10.517343 -10.506423 1.479493 6730418
-10.472919 -10.522074 2.437586 6730418
-10.612030 -9.970235 0.882198 6730418
-9.584472 -10.896558 1.938020 6730418
-9.222436 -10.461418 1.850327 6730418
-10.444059 -9.721978 2.671030 6730418
-10.342231 -10.236954 0.447198 6730418
-9.795207 -10.664557 2.642221 6730418
-10.896613 -10.020205 2.541457 6730418
-9.515541 -9.145020 0.824662 6730418
-10.029012 -10.347733 0.626998 6730418
-10.283237 -9.858386 0.375214 6730418
-9.960881 -9.853578 0.720546 6730418
-9.379916 -10.560719 0.698571 6730418
-10.727509 -10.151652 2.551970 6730418
-9.438446 -9.231348 2.955670 6730418
-9.963166 -9.438210 2.275183 6730418
-10.855193 -9.493717 2.573470 6730418
-10.005286 -10.433180 2.589554 6730418
-10.540979 -10.501963 2.381862 6730418
-9.554979 -9.844981 2.264564 6730418
-10.798970 -10.467887 0.626332 6730418
-10.547987 -9.248513 0.260368 6730418
-9.698738 -9.231394 1.757504 6730418
-9.236482 -9.963132 0.973860 6730418
-10.167594 -10.403356 2.342736 6730418
-10.837052 -10.187635 1.698220 6730418
-9.952086 -9.452054 1.361157 6730418
-9.229936 -10.181779 1.253118 6730418
-9.755107 -10.543698 0.329743 6730418
-10.101799 -10.281789 1.548288 6730418
-10.843332 -10.048531 1.508644 6730418
-10.007146 -10.625421 0.147224 6730418
-10.693500 -9.784136 2.627205 6730418
-9.126467 -10.113110 2.652591 6730418
-9.803801 -10.332351 2.647508 6730418
-10.898904 -10.178555 2.631390 6730418
-10.513908 -9.188143 0.890369 6730418
-10.049525 -9.506836 2.419355 6730418
-9.449880 -10.487224 0.832112 6730418
-10.574585 -9.212254 2.273425 6730418
-10.086051 -10.204568 1.148591 6730418
-9.479499 -9.138473 2.023399 6730418
-9.363111 -9.655269 2.111731 6730418
-10.010015 -9.875082 2.350898 6730418
-10.304191 -9.303818 0.048348 6730418
-10.129119 -9.488289 1.596108 6730418
-10.732696 -10.570397 1.039494 6730418
-10.660516 -9.868251 1.927810 6730418
-9.072769 -9.941132 1.918497 6730418
-9.365675 -9.810316 1.218985 6730418
-9.827847 -9.159873 1.342031 6730418
-9.847959 -9.176262 0.068732 6730418
-9.045870 -9.968515 0.052812 6730418
-9.395358 -10.697813 0.517628 6730418
-10.638651 -9.843159 0.446688 6730418
-10.530171 -10.199851 2.507560 6730418
-9.677846 -10.302604 1.095292 6730418
-9.447610 -9.463737 0.597077 6730418
-9.465817 -10.802320 1.621917 6730418
-9.975030 -9.534408 0.253396 6730418
-10.689198 -10.016845 1.255986 6730418
-9.839875 -10.652622 0.649050 6730418
-9.190845 -9.539837 0.786349 6730418
-9.608810 -9.467976 2.186770 6730418
-9.813900 -10.932381 0.226351 6730418
-10.140608 -9.214255 2.405432 6730418
