# .PCD v0.7 - Point Cloud Data file format
VERSION 0.7
FIELDS x y z rgb
SIZE 4 4 4 4
TYPE F F F U
COUNT 1 1 1 1
WIDTH 1291
HEIGHT 1
VIEWPOINT 0 0 0 1 0 0 0
POINTS 1291
DATA ascii
10.864246 10.001856 2.956940 11697996
10.256895 10.651634 3.595849 11697996
10.063506 10.431266 2.813858 11697996
8.829337 8.961279 3.180376 11697996
10.970672 10.564622 1.144580 11697996
9.671186 10.271924 3.924542 11697996
10.083813 9.655779 0.908762 11697996
10.250951 10.076752 2.896468 11697996
8.796163 10.166176 2.927449 11697996
10.848348 9.299367 1.635507 11697996
10.400996 9.628724 1.108810 11697996
9.096719 8.891923 2.744610 11697996
9.344542 8.934681 2.764367 11697996
10.111233 8.830391 1.278574 11697996
10.791582 9.296642 0.046995 11697996
10.043096 10.626572 3.301612 11697996
10.790625 10.008857 3.298802 11697996
9.888512 10.440255 2.006043 11697996
9.207613 9.238525 2.130128 11697996
8.965940 10.864298 3.902714 11697996
10.655234 9.626199 1.276364 11697996
9.244098 10.239999 1.244022 11697996
10.073750 10.797405 2.015961 11697996
11.073792 11.094832 1.239383 11697996
9.149440 10.398858 2.456562 11697996
9.575619 9.037239 1.766139 11697996
10.886196 9.544429 0.533660 11697996
9.577494 8.940008 2.823448 11697996
10.439623 11.221962 0.577773 11697996
11.137985 10.023726 1.914616 11697996
11.163227 9.739980 2.399585 11697996
10.594132 8.804578 1.191186 11697996
10.483934 11.033878 1.780283 11697996
11.199922 9.307097 0.402724 11697996
10.637541 10.635422 1.888685 11697996
9.727612 9.610708 1.409825 11697996
10.644631 9.773405 0.468811 11697996
10.767081 9.708531 0.235587 11697996
9.560561 11.233208 2.460691 11697996
9.559459 11.037971 2.362901 11697996
9.353070 8.776170 3.156898 11697996
10.854856 9.796068 1.099058 11697996
9.863423 10.608004 1.570919 11697996
9.932487 9.200833 3.323723 11697996
10.438372 10.992873 0.866190 11697996
8.750418 11.100087 0.069697 11697996
10.617793 8.946134 1.459565 11697996
10.562968 8.956083 2.453588 11697996
9.724380 9.323120 3.639499 11697996
11.089310 10.231813 2.015152 11697996
11.078406 11.063085 -0.002430 11697996
11.102489 9.082251 2.005426 11697996
10.234167 9.786118 2.076243 11697996
10.025302 9.296977 0.185309 11697996
8.880321 9.177970 2.070828 11697996
9.670751 9.657646 0.168735 11697996
8.813717 9.527557 1.898472 11697996
10.518613 8.790689 1.749324 11697996
9.155272 9.567594 0.300354 11697996
10.993934 8.798551 3.760156 11697996
10.577515 9.000824 1.889877 11697996
10.157832 9.210917 2.536153 11697996
9.258696 8.965384 0.168668 11697996
9.891836 10.691647 2.459417 11697996
9.231267 10.556984 2.993492 11697996
9.936187 10.403523 1.856514 11697996
9.079416 9.685357 1.751390 11697996
9.698915 10.406565 0.400083 11697996
10.069424 10.880332 2.397724 11697996
10.713115 9.940081 2.182361 11697996
9.752161 10.408484 3.619919 11697996
9.570574 10.254328 3.995958 11697996
8.849509 10.700422 1.034275 11697996
10.052606 10.859925 1.483947 11697996
8.755991 9.736025 0.346470 11697996
8.930469 9.877481 1.372421 11697996
10.446072 8.982599 2.583994 11697996
10.652333 10.843779 0.089480 11697996
11.157756 10.225945 1.766128 11697996
10.730599 10.133791 0.553515 11697996
11.156556 8.743937 2.292520 11697996
10.973746 9.293898 0.426525 11697996
8.979677 10.423016 1.625411 11697996
10.581204 10.662110 0.961027 11697996
10.748462 10.023231 2.782741 11697996
10.733325 10.109433 1.640108 11697996
10.204555 10.692290 3.545534 11697996
10.232853 11.103309 3.156300 11697996
9.205579 10.748450 1.154974 11697996
11.160709 9.517704 0.043852 11697996
10.383689 8.788127 0.675151 11697996
9.889426 10.126632 3.808724 11697996
9.798161 10.007755 3.339118 11697996
10.825362 11.124582 1.393727 11697996
10.115657 8.915731 0.111375 11697996
10.174278 10.597650 1.220907 11697996
10.580976 9.318245 2.015934 11697996
10.907034 9.851045 1.298535 11697996
8.757112 10.588058 1.198526 11697996
10.687264 9.703501 1.817758 11697996
10.903491 9.672565 3.633058 11697996
9.685793 9.141093 3.474551 11697996
9.769082 8.875973 3.230744 11697996
11.216401 9.071454 3.919557 11697996
9.284826 9.185704 2.748867 11697996
10.351213 10.647127 1.012178 11697996
10.282505 10.117581 0.915389 11697996
11.125265 11.138294 3.644171 11697996
9.438565 10.996815 3.334870 11697996
10.512397 9.521993 2.845644 11697996
11.111563 9.681968 0.672803 11697996
10.006117 9.142674 2.459246 11697996
10.795354 9.838486 0.125578 11697996
10.418273 11.123863 0.692241 11697996
9.234265 9.383840 2.059658 11697996
10.714776 11.028696 0.818261 11697996
9.723145 8.906108 1.949940 11697996
11.129234 9.076809 2.905327 11697996
10.974974 9.840232 0.418974 11697996
10.667624 11.236210 2.746548 11697996
9.262250 10.932100 0.362559 11697996
9.022180 9.483883 0.743119 11697996
10.249496 9.433146 1.662491 11697996
9.911296 8.964666 -0.016114 11697996
9.742478 9.049237 0.676659 11697996
10.782505 8.989112 0.537774 11697996
9.755811 11.055952 0.888197 11697996
11.137742 10.950020 1.837249 11697996
10.043033 8.809158 3.383007 11697996
8.924496 10.705985 2.157506 11697996
10.119320 8.920053 1.573717 11697996
10.598461 10.206334 2.173528 11697996
10.575145 10.151277 2.170452 11697996
10.961552 9.607392 3.890530 11697996
10.599294 10.744186 3.860832 11697996
8.988719 9.565812 2.332187 11697996
9.894116 10.247812 2.243203 11697996
9.935609 10.816910 2.839645 11697996
10.304406 9.277974 0.025189 11697996
9.794621 8.788651 3.450677 11697996
9.892150 8.802251 1.826966 11697996
10.588906 9.430221 0.915428 11697996
10.408536 10.259481 1.399919 11697996
9.865613 10.612237 0.945969 11697996
10.792230 8.886703 2.536935 11697996
10.820491 11.251604 3.656023 11697996
11.024109 10.729370 1.345807 11697996
10.604445 11.029181 3.514942 11697996
11.201420 10.847713 3.778452 11697996
10.876698 10.173566 2.211147 11697996
9.825431 10.610788 0.102227 11697996
10.660949 9.695457 3.101910 11697996
9.107078 10.223007 3.372965 11697996
11.168519 10.471301 3.689825 11697996
10.081308 10.844151 0.166608 11697996
9.427299 9.482933 0.186900 11697996
10.448049 10.227226 0.722011 11697996
10.247635 10.666793 0.010061 11697996
8.972965 11.066375 1.842453 11697996
9.353484 9.669984 0.129759 11697996
9.472285 8.810398 3.853937 11697996
10.337464 10.219254 3.780195 11697996
9.618394 11.028536 3.368163 11697996
11.162579 9.801842 0.814803 11697996
9.516551 9.711191 0.834959 11697996
10.571008 10.525097 2.071879 11697996
10.197756 8.855597 2.194864 11697996
9.987192 10.705996 1.624524 11697996
10.324100 9.794431 0.668775 11697996
9.836977 11.200047 0.420227 11697996
10.715009 9.740314 1.087058 11697996
10.457785 9.688475 3.544849 11697996
9.838792 10.545055 2.293753 11697996
11.221820 9.913521 0.354457 11697996
9.710605 9.277483 1.416562 11697996
8.995999 10.391252 3.603814 11697996
9.926486 9.068719 2.196856 11697996
11.219105 9.561546 1.017014 11697996
9.020914 9.907233 1.594336 11697996
11.209369 9.968881 0.273895 11697996
9.205036 11.143394 2.524022 11697996
10.829718 9.639994 1.768572 11697996
10.513331 10.512609 0.281974 11697996
10.702454 10.756410 2.368876 11697996
10.473054 10.078359 1.763483 11697996
11.160353 9.040035 0.971340 11697996
9.616099 11.128951 0.161249 11697996
9.592856 10.091350 3.745459 11697996
10.158907 9.713798 2.411258 11697996
9.411991 10.823685 2.716293 11697996
11.046326 10.516257 1.298109 11697996
9.075138 9.029257 1.009243 11697996
9.026657 10.354103 2.554456 11697996
10.812465 9.310821 0.049675 11697996
10.271811 10.626747 2.696447 11697996
9.630016 8.793418 3.558941 11697996
10.631232 10.479103 0.584921 11697996
10.668979 8.920300 2.226110 11697996
9.752140 10.090458 1.061505 11697996
10.101029 9.172972 2.333547 11697996
9.513939 9.695117 1.412816 11697996
8.963531 9.273701 0.244627 11697996
10.306409 9.864714 2.272275 11697996
10.797701 10.561501 3.755120 11697996
9.551767 9.252544 0.115040 11697996
9.584658 10.278748 0.500323 11697996
10.455770 9.254512 1.150128 11697996
9.451122 9.277707 2.773177 11697996
10.080128 9.166029 3.895196 11697996
11.126530 9.993377 2.687066 11697996
10.830775 9.577524 1.446734 11697996
10.123560 10.691332 3.795778 11697996
10.281137 10.764918 1.959143 11697996
10.955223 10.476789 1.411326 11697996
11.138435 10.817505 0.659213 11697996
9.745320 10.487779 1.092080 11697996
8.985560 9.838948 3.449229 11697996
11.067503 9.510511 3.175824 11697996
9.474060 10.712130 2.716067 11697996
10.200956 9.617419 1.956253 11697996
10.431587 9.188116 2.797447 11697996
11.244077 8.780443 3.258096 11697996
11.217746 9.951926 1.426182 11697996
10.394652 10.955824 0.403434 11697996
9.670012 11.153986 3.049972 11697996
9.642917 10.597453 1.503011 11697996
10.676348 9.489308 2.463203 11697996
10.212612 10.463749 3.900088 11697996
10.135462 10.864378 3.556679 11697996
9.200434 10.202674 2.108752 11697996
11.186999 10.980521 0.434374 11697996
10.304466 9.426825 3.730523 11697996
11.226685 9.606754 1.501287 11697996
10.342475 11.219418 3.786805 11697996
9.990244 9.591393 3.566174 11697996
11.107359 9.876634 0.687413 11697996
9.377348 9.088189 1.080880 11697996
10.189453 10.701291 0.423771 11697996
11.251659 10.326234 0.735731 11697996
9.710918 9.525501 1.454838 11697996
10.669904 9.037023 0.801596 11697996
9.314545 9.915221 3.620455 11697996
11.043566 9.627261 0.748243 11697996
9.548002 8.776544 3.775513 11697996
10.505814 9.221885 0.859442 11697996
8.996867 9.926924 3.935876 11697996
8.799658 11.168158 3.365472 11697996
8.808387 11.055486 0.979117 11697996
9.819964 10.005733 3.283772 11697996
9.847207 9.799775 1.721068 11697996
11.150981 10.732839 2.538998 11697996
9.140717 9.753466 2.281017 11697996
10.604040 9.318089 0.170605 11697996
10.935769 9.431885 0.027898 11697996
9.281499 9.361303 2.538812 11697996
11.175460 10.420889 1.059978 11697996
10.877605 10.156413 3.642426 11697996
10.460989 10.233871 3.513347 11697996
10.985827 9.502936 3.209950 11697996
9.923690 9.472837 3.837357 11697996
10.337808 10.570804 1.372012 11697996
8.974565 9.186042 2.714766 11697996
10.707421 9.373897 3.065214 11697996
10.891959 9.955770 1.366724 11697996
10.431347 8.863393 1.185934 11697996
10.718929 10.074401 1.346167 11697996
9.770754 9.819930 2.744003 11697996
11.129810 9.182580 0.676893 11697996
10.985960 11.243080 0.863789 11697996
9.147948 8.770904 1.625372 11697996
9.506065 11.136771 2.100427 11697996
10.727419 9.490697 1.086493 11697996
9.016574 9.338581 2.117438 11697996
10.399639 9.004143 1.314498 11697996
9.576933 9.626422 0.080830 11697996
10.391732 10.128320 1.606338 11697996
10.513984 9.532067 2.842109 11697996
11.088232 10.909966 1.721687 11697996
10.792169 11.112356 3.550387 11697996
9.427653 9.070004 0.061110 11697996
9.575232 8.959229 2.096265 11697996
10.022859 9.800081 3.283530 11697996
9.339735 10.305776 1.498543 11697996
8.892121 11.182990 2.814875 11697996
9.716207 9.365542 1.651332 11697996
9.249951 9.561517 3.854253 11697996
9.671829 8.869578 3.203092 11697996
10.322702 10.878347 2.039135 11697996
9.841010 9.411297 0.827999 11697996
9.336998 11.174722 1.979676 11697996
10.909492 9.244736 3.346623 11697996
9.564501 9.667177 3.052629 11697996
9.310063 9.836950 1.922674 11697996
9.019687 9.368610 1.647653 11697996
8.877808 10.343183 3.506814 11697996
9.021528 9.340308 2.436832 11697996
9.329268 9.917278 3.696952 11697996
10.482100 10.925569 3.681348 11697996
10.072276 10.339816 2.936056 11697996
10.068573 10.714224 0.106560 11697996
10.596105 9.215897 2.090140 11697996
8.766901 11.197806 0.436027 11697996
9.704414 10.814117 0.057273 11697996
10.913355 9.075272 0.970011 11697996
9.322022 8.959554 1.195282 11697996
10.939197 9.054555 3.809016 11697996
10.912084 10.851889 1.197882 11697996
9.886347 9.111166 3.942871 11697996
8.788615 9.301415 3.089442 11697996
10.426152 9.270704 0.782770 11697996
10.269184 9.299357 1.148575 11697996
10.938450 9.129067 0.368461 11697996
9.086653 9.952709 1.504989 11697996
9.831799 11.156011 2.229373 11697996
10.474333 10.896918 2.289526 11697996
9.548730 10.607923 1.244668 11697996
10.198084 9.778634 3.946848 11697996
9.505274 10.163367 1.389310 11697996
9.900368 10.729940 0.385886 11697996
10.111426 9.293663 3.642592 11697996
11.053280 9.956466 1.081461 11697996
10.665155 10.089190 2.419527 11697996
9.524068 10.028204 1.731372 11697996
11.045333 9.816443 2.188934 11697996
11.262684 11.119188 1.028237 11697996
11.115551 11.114058 3.701855 11697996
11.124021 10.888604 3.075728 11697996
9.356050 9.651978 3.009426 11697996
8.858631 10.277643 2.764934 11697996
10.575344 8.949459 1.561525 11697996
11.140014 11.137491 2.227794 11697996
8.796963 10.799276 1.960743 11697996
10.427721 9.457904 1.488540 11697996
9.799490 10.207073 0.141613 11697996
8.840738 10.749442 3.846767 11697996
10.492604 9.089040 3.251157 11697996
10.943876 10.189981 3.546377 11697996
11.198609 8.867419 1.535470 11697996
10.931030 11.094543 0.747415 11697996
10.942728 9.708541 3.083068 11697996
10.578974 10.386511 3.625969 11697996
10.796140 10.307395 3.869411 11697996
9.542343 9.650057 0.634949 11697996
10.159727 10.533018 2.061089 11697996
10.001441 9.275389 0.607063 11697996
9.831890 8.911794 1.345012 11697996
8.768018 10.300519 1.054891 11697996
9.221542 11.089055 2.098839 11697996
10.456015 9.917758 1.971602 11697996
9.745186 9.809536 0.696572 11697996
9.466238 9.869203 2.369209 11697996
10.648327 9.473379 0.330893 11697996
10.561181 9.347970 1.850078 11697996
10.327891 11.172383 2.715317 11697996
10.380147 10.997721 2.449206 11697996
9.998630 10.258250 2.985127 11697996
9.687377 9.913791 1.245263 11697996
9.484510 10.630420 1.517713 11697996
9.052821 9.870047 2.649306 11697996
10.160869 9.516424 0.872892 11697996
10.840261 10.633322 1.989915 11697996
11.128132 10.598701 1.203619 11697996
10.190333 10.637524 3.691959 11697996
9.494425 9.394743 3.636127 11697996
10.441237 8.839159 2.583710 11697996
9.049034 10.177311 3.876628 11697996
10.893553 10.079173 3.890168 11697996
10.454010 10.832510 0.078390 11697996
11.040880 9.405556 3.875628 11697996
10.421769 10.308346 0.812485 11697996
11.202180 10.596515 3.741674 11697996
10.603460 9.420762 3.017689 11697996
10.731749 8.896055 3.516651 11697996
10.985854 9.777926 1.009983 11697996
9.327604 10.837824 0.577366 11697996
9.866834 9.988422 3.185572 11697996
8.958324 8.791600 3.677705 11697996
11.233590 10.272065 2.819381 11697996
9.678019 10.995008 2.381037 11697996
10.514776 9.813215 2.691014 11697996
10.263762 10.757576 2.948295 11697996
8.866494 8.806391 2.759572 11697996
10.609238 11.063302 1.919871 11697996
8.769129 9.039467 2.722766 11697996
9.302744 10.470191 2.125268 11697996
9.430484 9.036402 0.736449 11697996
9.185097 9.245571 2.212550 11697996
10.804046 9.219361 3.705818 11697996
11.178244 9.630499 0.289455 11697996
9.946908 10.399511 3.542898 11697996
9.301508 10.413355 2.234745 11697996
9.574326 9.074551 2.238614 11697996
10.650415 10.687017 0.031786 11697996
11.019870 11.142570 2.811417 11697996
10.666656 11.226798 0.058564 11697996
10.790407 9.991036 3.959532 11697996
10.165815 10.754181 3.828012 11697996
9.941018 8.792034 1.275693 11697996
10.893288 8.993878 3.162739 11697996
8.798339 9.524455 1.461892 11697996
9.950262 8.947364 1.302335 11697996
9.079618 10.293791 0.460356 11697996
10.777813 9.121058 3.300466 11697996
10.133510 9.584263 2.055925 11697996
9.672554 10.051630 3.982837 11697996
11.213336 11.220160 3.981809 11697996
9.823211 9.196167 3.466927 11697996
11.116680 9.738236 1.365780 11697996
9.072309 9.845862 2.932053 11697996
8.789556 10.458615 3.192602 11697996
10.338224 9.290686 3.415281 11697996
10.659436 9.513119 1.762036 11697996
10.398374 8.768792 1.745048 11697996
10.671634 9.889258 2.287325 11697996
8.854971 9.306750 2.964680 11697996
9.780834 10.867330 3.074846 11697996
9.521065 9.619232 3.523165 11697996
9.930078 9.791994 1.459318 11697996
8.866836 11.146120 3.011564 11697996
9.008154 10.317343 1.945041 11697996
8.758207 10.723681 0.124251 11697996
9.818074 9.308934 2.524494 11697996
11.191629 9.344441 1.280769 11697996
9.257894 9.865207 1.999876 11697996
8.931262 10.963006 0.567311 11697996
10.068947 10.015829 2.229062 11697996
9.815287 10.290840 3.051388 11697996
11.038519 10.587619 3.581241 11697996
8.808525 9.065290 1.980457 11697996
9.801598 8.906455 0.523157 11697996
10.399818 8.951015 3.331971 11697996
9.913454 10.245912 1.557018 11697996
10.277614 8.881435 1.448094 11697996
11.005927 9.240324 1.342135 11697996
10.209880 10.233287 3.165939 11697996
9.911518 9.215786 2.532260 11697996
10.465947 10.366390 1.353657 11697996
11.009493 10.930854 1.349082 11697996
9.003711 10.398414 0.669452 11697996
9.122921 10.271235 1.679149 11697996
9.018273 9.304807 0.104884 11697996
10.833543 9.150525 1.101690 11697996
10.415168 10.192965 2.216219 11697996
9.426891 10.826240 1.049764 11697996
8.930905 10.679621 1.405861 11697996
11.022099 10.737039 0.392208 11697996
9.994743 10.152646 2.626657 11697996
9.329325 10.677098 2.868355 11697996
10.850220 8.987177 3.860868 11697996
10.898868 10.063785 2.542766 11697996
9.744123 9.908462 3.917286 11697996
11.180769 11.032766 2.165971 11697996
10.482022 10.305775 1.340994 11697996
10.543448 9.294163 1.161792 11697996
10.786318 9.181822 2.783747 11697996
8.867792 10.802123 0.608201 11697996
10.391292 8.933737 2.985752 11697996
9.535783 9.896945 1.421741 11697996
9.363182 9.591769 0.435405 11697996
10.864328 10.481802 3.641806 11697996
10.602557 9.803308 3.890795 11697996
8.806374 10.862805 2.208325 11697996
9.678295 9.798649 3.007540 11697996
9.054508 8.789275 2.561867 11697996
11.041912 9.633219 1.582623 11697996
10.730132 10.862170 0.137931 11697996
9.373848 11.109979 2.724724 11697996
10.339891 10.150077 2.570979 11697996
9.554791 9.525608 2.040687 11697996
8.851871 9.981167 1.962940 11697996
9.122098 10.745605 0.869292 11697996
8.797010 10.832424 1.691141 11697996
9.802475 9.942308 2.042102 11697996
10.318424 8.955232 1.750605 11697996
9.516738 9.889445 0.549894 11697996
9.330005 9.664473 0.724099 11697996
8.817109 10.237926 3.148323 11697996
10.461850 10.281086 3.691921 11697996
10.792991 10.794855 0.048335 11697996
10.249249 10.118710 0.520786 11697996
11.018064 9.884898 1.873844 11697996
9.792856 9.241070 2.194301 11697996
10.040610 9.040193 0.056363 11697996
9.701492 10.051925 0.956830 11697996
10.600577 10.036865 1.594161 11697996
9.290851 11.094621 2.433891 11697996
9.704738 10.107080 0.738317 11697996
9.906808 10.892021 0.159686 11697996
10.384752 10.479168 2.072640 11697996
9.165347 10.002510 0.537629 11697996
8.873851 11.029916 0.876759 11697996
11.101975 9.354776 0.760281 11697996
10.133870 9.255947 2.611550 11697996
10.975067 10.854980 0.482841 11697996
10.449060 11.012902 2.154056 11697996
9.005426 10.292971 3.516566 11697996
9.436195 9.606284 0.163293 11697996
11.074006 9.015964 2.989538 11697996
11.107553 8.935088 3.894183 11697996
8.834728 10.570486 0.414668 11697996
8.860869 9.453564 0.744916 11697996
10.277258 11.140611 2.998605 11697996
8.761174 10.185905 0.851629 11697996
8.772155 8.800904 3.835367 11697996
11.220405 10.569048 2.137118 11697996
10.400990 9.000669 3.214130 11697996
9.348567 9.204330 0.511773 11697996
10.946298 9.722309 3.359957 11697996
10.632752 10.429597 0.438218 11697996
9.761752 8.961351 3.758496 11697996
9.314937 9.453372 2.397329 11697996
9.085322 9.273457 3.874851 11697996
9.799855 9.718812 2.008811 11697996
10.491735 10.540423 0.025685 11697996
9.526292 10.836644 1.261448 11697996
10.358140 10.432173 2.589008 11697996
11.003883 10.973965 0.633769 11697996
9.226425 9.476091 1.097757 11697996
9.577516 9.298167 2.814117 11697996
9.612823 10.357840 1.401477 11697996
10.088799 10.904295 3.165895 11697996
11.170271 9.775847 0.022925 11697996
9.487808 9.527903 0.971616 11697996
8.944867 10.678518 1.264069 11697996
9.091964 9.101027 3.669740 11697996
10.845270 9.830202 2.387632 11697996
11.208545 8.943151 4.013117 11697996
9.956567 10.823172 1.844267 11697996
8.911908 8.999406 1.000504 11697996
9.688332 10.217931 1.015496 11697996
10.345850 9.584457 1.573654 11697996
10.794140 10.377779 1.337735 11697996
10.289528 9.351933 3.943367 11697996
10.095075 9.542506 3.290710 11697996
9.014932 10.411839 0.913880 11697996
9.869216 9.230350 3.760022 11697996
11.143097 8.964423 2.112465 11697996
10.794136 10.805483 0.396673 11697996
9.165548 10.292708 0.842190 11697996
9.395854 11.085236 3.181847 11697996
9.786698 9.007568 0.124499 11697996
9.996598 9.663028 0.408808 11697996
8.853346 10.031500 2.490684 11697996
9.964129 11.149755 0.877758 11697996
10.442641 9.943707 0.051866 11697996
10.314288 9.636612 3.003721 11697996
10.040219 9.203703 3.324335 11697996
10.318110 9.833925 3.847550 11697996
9.293852 11.136403 1.612823 11697996
9.074120 10.538276 1.380740 11697996
8.870210 9.959433 2.264589 11697996
9.820433 10.250259 2.382774 11697996
10.861021 10.564108 1.371121 11697996
10.960982 9.931598 3.742880 11697996
10.275054 10.044469 2.675475 11697996
8.890675 9.633772 1.999373 11697996
10.956913 10.757093 1.426331 11697996
10.829609 8.846581 3.025676 11697996
9.079228 10.249821 3.197616 11697996
10.805892 8.916350 1.602948 11697996
9.250536 10.891775 0.485574 11697996
10.789734 9.923486 0.109056 11697996
10.721482 10.348904 3.577529 11697996
10.857350 10.961077 2.308333 11697996
10.029620 9.549108 3.340440 11697996
10.966345 10.264006 0.241101 11697996
8.904847 9.287401 2.634032 11697996
9.426918 8.812081 3.032810 11697996
9.390066 10.143419 1.937122 11697996
10.764895 10.834352 3.186065 11697996
8.973601 8.967888 0.479686 11697996
10.827786 10.660924 3.090425 11697996
9.967977 10.052061 3.271495 11697996
11.182513 10.623483 2.866965 11697996
11.063746 10.073344 1.961456 11697996
9.186074 10.027537 2.810316 11697996
10.625396 10.799074 3.178607 11697996
9.396986 10.751422 1.782483 11697996
11.189004 9.455055 3.526501 11697996
10.957295 9.590242 0.987768 11697996
8.924477 11.027530 0.442732 11697996
8.796990 10.919728 0.108073 11697996
10.194510 10.018698 1.322455 11697996
10.624623 10.302053 1.469835 11697996
8.949962 9.998956 3.821708 11697996
10.462732 10.574405 1.809124 11697996
9.643130 11.140679 2.684180 11697996
10.890693 9.655932 3.129121 11697996
8.828453 10.926715 3.905164 11697996
10.877079 10.424273 1.870635 11697996
10.741334 9.693176 1.117113 11697996
9.782934 9.408769 0.395323 11697996
10.063101 10.081733 2.723917 11697996
9.769254 11.135407 0.764108 11697996
9.002467 10.017719 3.969342 11697996
10.478005 9.821535 3.115295 11697996
9.400589 9.727998 0.731367 11697996
8.956006 11.150893 3.078611 11697996
9.273332 9.017947 3.731680 11697996
11.110117 9.032572 2.138400 11697996
11.237737 10.816962 0.942816 11697996
10.893639 10.623055 3.706753 11697996
9.083182 9.640222 3.961316 11697996
10.785756 10.615551 2.174483 11697996
10.619878 10.541121 0.443598 11697996
9.179991 9.031340 1.650755 11697996
9.318556 9.964413 3.790126 11697996
8.869114 9.633384 1.856496 11697996
10.688980 8.946975 1.594033 11697996
10.687153 10.490487 2.339768 11697996
10.625965 9.812785 1.851773 11697996
10.853699 10.110116 3.983594 11697996
9.046456 9.465362 2.743798 11697996
10.450152 9.703786 3.176417 11697996
10.768002 9.003332 2.157879 11697996
9.073437 10.794454 0.107100 11697996
9.279862 11.080825 3.217184 11697996
9.896186 10.940564 0.808876 11697996
10.877096 10.772123 0.858116 11697996
9.214478 9.490973 1.067208 11697996
10.433517 9.646261 3.620069 11697996
10.891196 11.189886 0.767244 11697996
9.229187 11.153275 2.193020 11697996
9.604485 10.651394 1.802335 11697996
10.056381 9.891266 3.930702 11697996
9.385299 10.956075 2.734193 11697996
10.841119 10.489160 3.194077 11697996
10.798945 10.882897 3.069898 11697996
9.741218 10.530170 1.332748 11697996
10.834151 9.311387 1.141090 11697996
9.985233 9.339036 0.565671 11697996
9.025517 9.567771 1.047720 11697996
9.183482 9.153621 0.258243 11697996
9.275206 10.289810 3.865675 11697996
9.720195 8.911390 0.453459 11697996
9.189151 8.752957 2.312049 11697996
10.851986 9.174151 2.984367 11697996
8.894099 9.625288 3.856850 11697996
9.580379 10.133744 3.673963 11697996
11.079120 9.228889 0.925215 11697996
10.714907 9.459026 1.223916 11697996
9.847654 9.576859 1.568391 11697996
8.770178 11.153222 2.164758 11697996
11.155406 10.274620 2.360924 11697996
11.192500 9.583327 1.176146 11697996
11.214526 9.802465 0.669727 11697996
9.145015 9.773522 2.502885 11697996
9.132500 10.295804 3.231268 11697996
9.569504 9.420689 2.854119 11697996
8.801223 9.545830 3.766871 11697996
10.188924 10.852461 2.596951 11697996
10.585207 10.283241 3.830930 11697996
10.013153 10.097643 3.885391 11697996
8.830564 8.872037 1.715790 11697996
10.227673 8.975192 0.239547 11697996
9.117726 10.960530 0.794245 11697996
8.810883 8.910315 3.116230 11697996
9.906309 8.913313 3.152550 11697996
11.175599 10.960820 2.212816 11697996
9.255589 8.757767 0.928962 11697996
8.985783 9.077290 1.599834 11697996
9.314548 10.232405 1.383173 11697996
10.479289 8.776902 3.285840 11697996
10.745837 9.816072 3.711884 11697996
9.598991 9.704198 0.412921 11697996
9.370490 8.788999 3.274837 11697996
10.708296 9.544628 2.424503 11697996
10.146713 9.516314 3.986755 11697996
9.596349 9.819025 1.665539 11697996
9.821742 10.151128 3.019301 11697996
9.993608 9.376602 1.855466 11697996
10.702760 10.926981 1.420575 11697996
9.938728 8.813917 1.514211 11697996
9.188803 10.421247 1.917466 11697996
9.134396 11.080439 2.076347 11697996
10.012085 9.811329 3.641159 11697996
11.009085 10.103170 0.185804 11697996
9.350601 10.994585 1.399362 11697996
9.882361 10.204046 3.399978 11697996
11.251852 10.692321 0.222100 11697996
10.033959 9.606168 1.279417 11697996
10.897073 9.416225 2.375494 11697996
10.585371 8.756478 1.621757 11697996
8.906873 10.831787 2.375765 11697996
9.036806 9.416966 1.786242 11697996
9.224976 8.864453 3.773451 11697996
9.817963 9.067896 1.101521 11697996
9.599854 8.842846 3.030784 11697996
10.625779 8.756468 2.832366 11697996
11.193057 9.407887 0.285770 11697996
11.225960 9.899191 2.876575 11697996
10.155973 11.218273 0.653484 11697996
10.012003 10.750188 2.005545 11697996
9.785168 10.500500 1.089900 11697996
10.738026 9.844518 2.527382 11697996
10.725409 8.840563 1.753161 11697996
10.710886 9.213428 0.580405 11697996
10.436368 10.728664 0.646468 11697996
8.777349 9.246221 3.457305 11697996
9.941246 10.385805 1.044425 11697996
10.038024 10.820262 1.672428 11697996
8.859329 10.291219 3.865198 11697996
9.399662 10.046995 1.575146 11697996
10.831206 9.832078 1.633231 11697996
8.773758 8.905636 1.076929 11697996
9.440501 11.104959 1.657761 11697996
10.905915 9.469800 1.666849 11697996
8.845127 11.197206 2.977365 11697996
8.892068 10.099772 0.891162 11697996
10.616725 10.718795 0.855073 11697996
9.088242 8.829541 2.652431 11697996
10.037418 9.566846 2.593688 11697996
8.811854 10.090575 3.342126 11697996
10.574872 9.475577 2.513258 11697996
8.904319 9.841540 0.524769 11697996
9.545373 10.169786 3.943447 11697996
8.834949 9.909589 1.342140 11697996
9.192191 10.333251 3.099380 11697996
11.223717 11.063310 0.853740 11697996
9.793758 9.923820 0.358255 11697996
9.687449 9.892477 0.239384 11697996
11.021220 9.955091 1.365050 11697996
9.257703 11.169396 0.625428 11697996
11.068808 11.128174 2.973841 11697996
11.061905 10.658840 1.330281 11697996
10.477179 10.479218 0.221279 11697996
10.029580 11.187596 1.504172 11697996
10.527360 10.262750 3.784913 11697996
9.352634 10.506518 0.567247 11697996
10.605350 9.424946 3.120017 11697996
10.237093 10.707256 0.757199 11697996
8.817779 10.034160 1.647417 11697996
11.132781 9.713120 1.519961 11697996
8.939420 9.275177 3.405797 11697996
10.312110 8.854293 3.595201 11697996
10.465390 8.824554 3.922588 11697996
9.291111 9.109293 2.104770 11697996
10.447973 10.801570 0.569858 11697996
10.689117 9.714480 0.430054 11697996
10.654411 9.881313 1.910894 11697996
9.424645 9.788713 3.612069 11697996
8.916842 9.143977 2.836526 11697996
10.308167 9.186794 2.841772 11697996
10.034806 11.036276 3.071897 11697996
10.359309 10.591938 3.496907 11697996
10.114618 10.076010 0.864243 11697996
9.934546 9.585279 0.443423 11697996
9.487245 11.000519 1.475633 11697996
10.142076 8.877947 1.144698 11697996
10.117118 11.190304 2.629269 11697996
10.088696 9.367365 2.258029 11697996
9.000477 8.862113 0.237357 11697996
9.251728 9.261692 2.081394 11697996
9.290924 10.900781 0.822402 11697996
11.186171 9.651339 1.952728 11697996
10.540538 11.227543 2.009960 11697996
9.199616 11.066086 0.601591 11697996
8.808545 11.241339 0.094157 11697996
9.419724 10.106263 0.710244 11697996
10.620922 10.531829 2.619068 11697996
10.743070 10.337540 1.027839 11697996
9.564591 11.003688 1.475088 11697996
9.038342 9.031934 1.557699 11697996
9.717635 10.992412 1.285461 11697996
9.764028 9.088695 0.617793 11697996
9.272088 8.970904 2.019926 11697996
10.938394 10.374217 0.051332 11697996
10.616067 9.243520 1.820697 11697996
10.016287 9.935489 1.124325 11697996
10.307041 10.501585 3.142248 11697996
9.947763 10.976969 0.373717 11697996
9.110058 10.537815 3.448841 11697996
9.646034 11.165265 3.404532 11697996
8.998871 10.563107 0.488396 11697996
10.138784 8.848019 3.254430 11697996
10.784019 10.326785 0.745857 11697996
10.114261 8.881170 2.472473 11697996
11.219415 9.076389 0.464507 11697996
9.522851 9.202538 0.636081 11697996
11.225651 8.981906 3.302627 11697996
9.173930 9.744143 0.751123 11697996
9.332491 9.244950 4.004147 11697996
10.500261 9.245720 2.565307 11697996
9.833269 9.388253 1.021352 11697996
10.035115 11.214166 2.908256 11697996
11.106871 10.392367 0.270087 11697996
10.812883 9.248466 1.038202 11697996
10.622132 10.649988 3.170139 11697996
10.556250 10.903519 1.461528 11697996
9.945243 9.043303 0.788341 11697996
10.703156 9.761248 0.214724 11697996
9.046474 9.974968 0.453299 11697996
10.793947 9.638083 1.422007 11697996
10.595808 11.223369 3.936092 11697996
10.611216 9.635622 3.748371 11697996
11.171946 9.932602 2.946936 11697996
11.072032 9.980509 3.048813 11697996
8.806783 10.895045 2.775737 11697996
11.087622 9.831140 2.747029 11697996
9.280352 9.758212 3.416497 11697996
9.314987 8.992032 3.420153 11697996
9.863739 10.700522 2.568404 11697996
10.930231 9.208063 0.193956 11697996
10.705161 10.486863 1.286235 11697996
9.900816 10.693807 2.369986 11697996
9.125010 10.430236 1.757756 11697996
10.197109 9.324658 2.222950 11697996
11.036566 10.159376 0.194690 11697996
10.047885 11.159431 2.969977 11697996
10.651224 11.010483 3.835822 11697996
9.742622 8.808858 1.518929 11697996
9.600623 9.446935 1.397623 11697996
10.698995 10.731160 1.617598 11697996
9.612331 10.489575 2.731904 11697996
10.229291 11.236632 0.296175 11697996
9.629827 8.840492 3.287415 11697996
9.563857 10.302186 3.157833 11697996
10.350939 9.104528 3.294385 11697996
9.390724 10.331251 2.964476 11697996
9.597981 10.677913 1.759542 11697996
9.093466 10.797624 2.139713 11697996
10.794342 10.492749 0.908390 11697996
10.814392 10.951219 3.706807 11697996
10.675078 10.969528 1.677756 11697996
11.183578 9.264761 3.272632 11697996
9.865415 11.217804 1.754433 11697996
8.809294 8.787486 2.472007 11697996
9.209625 10.106762 3.146098 11697996
10.572702 10.042434 0.240637 11697996
8.870081 10.230434 3.386479 11697996
10.306075 9.545901 0.833045 11697996
10.252871 8.961055 1.414523 11697996
9.604833 8.921061 3.604162 11697996
9.762495 9.808689 1.555096 11697996
10.896596 9.961524 3.061023 11697996
10.693830 10.322269 3.293834 11697996
10.807356 10.502210 0.634912 11697996
10.752774 10.222488 3.860362 11697996
11.111117 9.513862 1.689065 11697996
9.480298 10.802333 2.596300 11697996
10.196235 8.767264 3.138256 11697996
11.175857 9.455182 2.713024 11697996
10.321861 10.055596 2.056832 11697996
10.338025 10.057177 0.972429 11697996
8.868653 10.988420 3.429366 11697996
10.621424 9.935448 1.748694 11697996
9.471000 9.997604 2.182787 11697996
10.125880 10.688989 3.229344 11697996
9.278722 10.480915 1.895204 11697996
9.230036 9.725141 2.740627 11697996
9.793035 9.116644 3.522048 11697996
9.612546 11.030023 2.000968 11697996
10.630067 8.857579 1.290262 11697996
8.904802 11.109619 0.036744 11697996
11.024453 10.363760 2.090205 11697996
8.903471 11.180790 0.022353 11697996
9.267021 11.123590 1.566126 11697996
10.169475 9.158355 1.470538 11697996
9.198994 10.597643 0.514917 11697996
10.795896 10.974580 3.799252 11697996
10.200073 9.802477 2.664729 11697996
10.973350 10.433557 2.337399 11697996
11.148445 9.909107 2.111006 11697996
9.988781 10.217147 2.212297 11697996
10.007876 10.197805 2.044821 11697996
8.893825 9.564826 0.960190 11697996
10.395005 11.019094 2.191215 11697996
11.005287 10.931583 1.678950 11697996
9.965317 8.865005 0.504677 11697996
9.342826 10.376244 3.304971 11697996
11.173971 9.205925 3.195399 11697996
11.116956 10.644961 2.391260 11697996
10.889747 11.142993 1.202071 11697996
10.704836 9.585306 2.711908 11697996
9.995372 10.820304 1.064568 11697996
11.049931 10.032368 1.263020 11697996
8.978032 10.020480 2.577166 11697996
10.088863 10.407077 0.451692 11697996
10.838731 9.927224 3.430056 11697996
9.834913 10.368763 3.083313 11697996
10.087030 11.194041 1.592997 11697996
9.564403 9.953413 1.523392 11697996
10.281513 10.180815 3.238947 11697996
10.932163 10.717494 3.181820 11697996
10.737082 10.693870 0.913874 11697996
10.705998 10.054710 1.554150 11697996
9.725876 10.740627 3.978274 11697996
10.842887 9.550979 1.414586 11697996
9.095598 10.134751 3.889171 11697996
9.181284 9.559526 0.235376 11697996
10.910174 10.900778 1.622213 11697996
10.130243 10.257043 2.369408 11697996
9.535986 10.962800 1.789034 11697996
10.133980 10.719604 0.200544 11697996
10.887730 8.906969 0.787856 11697996
9.104858 10.856979 0.687325 11697996
10.983239 10.992056 0.493673 11697996
10.079988 10.196233 3.221419 11697996
10.406870 9.959568 0.196080 11697996
10.237141 8.902898 1.597063 11697996
9.294186 8.913137 1.448361 11697996
8.961462 10.314160 3.076918 11697996
10.497926 9.367930 1.540891 11697996
9.127436 9.363511 3.725260 11697996
9.501974 9.211910 0.607508 11697996
10.333325 11.089585 1.185245 11697996
10.501922 9.134013 1.473539 11697996
11.144176 10.372247 1.890746 11697996
10.611268 8.982217 3.686428 11697996
10.917374 10.822325 0.813984 11697996
10.874015 9.165177 1.508724 11697996
9.565942 11.158200 1.855366 11697996
8.939233 10.206870 1.810723 11697996
11.228450 10.132414 0.218824 11697996
9.996118 10.989746 3.630338 11697996
10.615348 10.304558 0.232297 11697996
8.828383 10.560479 0.582506 11697996
9.007259 8.863845 1.491398 11697996
10.927496 9.469711 0.182584 11697996
10.390883 9.458385 3.704815 11697996
10.246944 10.442670 0.740072 11697996
10.390251 10.763440 0.142269 11697996
10.825482 9.189837 1.196599 11697996
10.951118 9.800799 3.735887 11697996
10.484453 9.560071 1.602487 11697996
8.826331 8.978776 0.535331 11697996
10.183415 10.263954 3.683586 11697996
9.239171 11.006550 0.684078 11697996
10.801291 8.833049 0.550565 11697996
8.992233 10.716403 2.544591 11697996
10.716655 9.468219 3.106882 11697996
9.539334 9.783004 0.850850 11697996
10.986772 11.160946 2.335567 11697996
9.568370 10.536870 2.872273 11697996
9.621117 11.118974 1.278332 11697996
9.805680 11.140255 2.711058 11697996
10.335532 10.303902 3.000212 11697996
10.421551 10.649194 3.525238 11697996
10.923939 10.654285 1.437182 11697996
9.111364 10.893516 2.645258 11697996
10.849984 9.617011 0.376484 11697996
11.003521 10.546592 3.104328 11697996
8.816108 9.086476 3.987037 11697996
9.460674 9.441247 2.547223 11697996
10.746325 10.242419 2.475368 11697996
8.836269 9.476989 0.671520 11697996
10.291301 9.240617 3.684582 11697996
10.143956 9.107482 2.564353 11697996
10.328863 11.038160 2.598291 11697996
9.091654 9.510215 1.937248 11697996
10.085209 9.359651 2.229368 11697996
9.166963 9.396906 0.672540 11697996
11.038587 9.585364 3.967818 11697996
10.260854 10.738165 1.823293 11697996
10.994267 9.970610 2.426079 11697996
10.256060 10.961229 1.701686 11697996
9.654978 9.768662 3.320089 11697996
10.556878 8.883442 1.950976 11697996
9.276661 10.705904 1.526434 11697996
9.392085 9.250152 2.066925 11697996
9.139651 9.075322 3.231926 11697996
9.377236 10.539672 2.018650 11697996
11.090346 9.040760 2.302844 11697996
11.183211 9.865328 2.430629 11697996
9.314209 11.167403 2.928413 11697996
9.610788 11.199883 1.223853 11697996
9.069932 9.531454 3.179495 11697996
11.157257 8.943045 1.382366 11697996
10.204246 9.976216 1.695500 11697996
10.105588 10.489922 2.645874 11697996
9.347566 9.139657 0.724387 11697996
9.961109 9.407801 0.395991 11697996
9.082932 8.912613 1.418715 11697996
8.784196 10.320290 2.396239 11697996
9.767157 8.957476 2.954606 11697996
10.135748 10.984362 0.858552 11697996
11.035299 9.239022 3.998865 11697996
10.776954 8.978051 1.260269 11697996
9.623218 9.907039 2.832682 11697996
10.088020 9.347928 2.809251 11697996
10.064503 11.118131 3.072615 11697996
11.053173 10.856296 3.219629 11697996
9.413473 10.930551 1.001966 11697996
9.566707 10.778901 1.060706 11697996
8.775498 9.282850 0.081032 11697996
10.507659 10.782918 2.050276 11697996
10.486597 10.645626 2.435921 11697996
10.189919 9.094254 2.934091 11697996
10.323838 9.639790 3.745602 11697996
9.193810 10.697486 3.718570 11697996
9.682721 10.847034 2.557397 11697996
11.018648 9.909700 0.450241 11697996
10.606523 10.837030 3.372872 11697996
10.756821 10.264071 2.082210 11697996
10.363683 10.467525 0.342840 11697996
11.018801 10.459064 2.677149 11697996
9.688897 9.664012 2.614623 11697996
11.131711 10.926932 1.338461 11697996
9.381739 9.484050 3.136467 11697996
10.932744 8.900402 3.616758 11697996
11.217945 9.816223 1.959302 11697996
10.456430 10.329965 2.637603 11697996
9.658365 9.099065 0.408044 11697996
11.217545 10.409188 0.270291 11697996
9.944140 9.246250 0.989136 11697996
10.400682 10.341986 2.388199 11697996
10.812737 8.758596 1.226704 11697996
9.989083 9.076629 0.541936 11697996
9.705540 11.216857 0.848275 11697996
10.120363 9.154659 1.163924 11697996
8.865992 9.472377 1.576995 11697996
9.722684 8.871069 1.747263 11697996
9.810238 9.868875 1.044644 11697996
10.109664 10.867077 3.378763 11697996
10.302468 8.956416 1.120412 11697996
9.061222 10.216967 1.300534 11697996
11.103616 8.890250 2.001742 11697996
11.022099 9.334474 2.214126 11697996
11.083126 9.166066 3.932967 11697996
8.909699 10.422346 2.271870 11697996
8.874855 10.414825 0.524210 11697996
9.035606 11.084420 3.741411 11697996
9.185750 9.686088 0.812000 11697996
9.225766 10.785584 1.402044 11697996
9.362854 10.733125 1.306967 11697996
10.980235 10.238736 1.995818 11697996
10.372684 10.538330 2.565254 11697996
8.871925 10.280256 3.290913 11697996
9.469803 10.209075 3.584739 11697996
9.064882 10.934406 3.184865 11697996
11.167202 10.290470 0.732113 11697996
9.441846 9.055422 2.452354 11697996
9.136692 10.081798 1.072689 11697996
11.090425 9.497082 2.053809 11697996
10.803967 9.528131 0.252642 11697996
9.793471 10.376424 1.833834 11697996
10.236672 10.083247 1.221155 11697996
8.742504 10.438366 3.059506 11697996
10.327799 9.206450 1.374617 11697996
9.763142 9.286520 0.059989 11697996
9.246428 9.945093 2.857127 11697996
10.556923 9.542429 0.917554 11697996
10.181373 10.192075 3.566602 11697996
8.925849 11.073751 1.895283 11697996
11.023749 9.231774 1.329263 11697996
9.215506 9.783299 2.989790 11697996
8.913630 9.078838 2.176789 11697996
9.436920 10.267141 1.054438 11697996
11.054586 9.610491 3.485238 11697996
9.638757 10.081254 1.924546 11697996
10.604433 11.198275 0.093866 11697996
9.663041 9.673183 1.364772 11697996
10.764151 8.950357 3.644047 11697996
9.587584 10.434104 0.315447 11697996
10.791707 10.006188 2.889979 11697996
9.106049 10.079233 3.781023 11697996
8.970930 10.810748 3.467252 11697996
10.679801 8.905050 1.536685 11697996
9.148155 10.577791 2.763483 11697996
9.958736 10.009606 4.001045 11697996
10.130888 10.942342 2.313982 11697996
9.866137 10.147394 0.305818 11697996
8.900158 8.941316 2.128431 11697996
10.240718 9.774754 3.835960 11697996
10.638229 11.146380 2.209961 11697996
9.287255 10.127680 3.188567 11697996
9.859365 9.925281 2.627949 11697996
8.922893 10.278307 0.220830 11697996
10.764127 10.466822 1.932505 11697996
10.149770 9.691178 3.350025 11697996
10.974030 10.159514 3.390897 11697996
8.966136 9.194768 3.960597 11697996
9.327515 10.826767 3.314950 11697996
10.295218 10.724553 0.972379 11697996
10.812897 9.895725 2.289091 11697996
10.510633 8.749301 3.485023 11697996
10.806763 8.924930 0.862473 11697996
9.388709 10.247437 2.551041 11697996
9.113254 10.836978 1.148223 11697996
10.336776 8.844996 3.278691 11697996
9.678955 10.806068 2.919801 11697996
9.898332 10.577578 1.143641 11697996
11.160941 11.000959 1.464091 11697996
9.566325 8.805781 3.913876 11697996
10.746738 9.853496 2.258503 11697996
8.773870 9.315927 1.167166 11697996
10.820790 11.125206 3.742772 11697996
10.692575 10.960670 2.518826 11697996
9.561470 9.770283 1.210224 11697996
10.207249 9.233783 2.001001 11697996
9.768038 9.983498 2.717513 11697996
10.014486 9.697086 0.837383 11697996
10.333873 11.191380 1.907666 11697996
10.648687 9.169734 0.215986 11697996
9.501304 10.703722 1.207291 11697996
11.215060 11.025747 2.558317 11697996
10.524531 9.714461 2.058614 11697996
8.997942 10.374099 3.892853 11697996
9.199162 10.591274 0.138226 11697996
10.295242 10.043956 3.648901 11697996
10.774446 10.611943 3.080340 11697996
9.588387 11.237394 3.623961 11697996
9.405732 9.230526 3.004441 11697996
10.000764 9.277492 1.215032 11697996
9.134288 8.940901 0.833126 11697996
10.381916 9.625573 3.080740 11697996
10.558053 11.080769 2.271501 11697996
10.178857 8.936771 0.523521 11697996
10.691689 10.052529 3.468591 11697996
9.092984 10.979446 2.181275 11697996
10.983362 10.115620 1.584468 11697996
10.621702 10.417398 0.601990 11697996
8.858080 10.835450 2.872104 11697996
8.801636 10.494050 0.251426 11697996
9.361861 10.156547 3.542831 11697996
9.024843 9.333845 2.118127 11697996
9.648572 9.759243 2.077778 11697996
10.343060 10.052209 1.879097 11697996
9.235900 9.368549 2.340036 11697996
9.502141 10.876430 3.368079 11697996
10.051789 10.055736 3.329379 11697996
10.676536 8.814809 0.814676 11697996
9.173064 11.255247 3.916259 11697996
9.412917 9.877458 0.968999 11697996
8.844622 11.186661 2.729068 11697996
10.150248 9.602668 3.416613 11697996
11.209208 10.326351 0.195416 11697996
9.308904 9.015096 2.738336 11697996
8.931862 9.307494 1.279028 11697996
9.016180 9.740446 1.628870 11697996
8.900745 9.687634 2.176966 11697996
11.063680 11.091775 3.608498 11697996
10.398193 9.872096 3.003670 11697996
8.785334 9.712930 3.491324 11697996
10.281931 9.602197 0.346936 11697996
10.422563 10.594113 1.882986 11697996
10.751941 9.648485 0.066629 11697996
11.160084 8.946384 4.002323 11697996
10.565715 10.445533 2.035693 11697996
10.228726 10.200554 0.765317 11697996
10.030197 9.128890 1.466794 11697996
11.094029 9.288034 2.213080 11697996
9.047670 11.182739 0.928212 11697996
9.020549 9.470475 3.319391 11697996
10.486790 9.985556 2.764350 11697996
8.759425 11.198300 1.134074 11697996
10.530542 9.791330 3.064124 11697996
9.168236 10.677283 3.378553 11697996
9.138421 10.166854 4.005611 11697996
10.984092 10.263804 1.943650 11697996
10.903388 9.679551 1.049093 11697996
9.381782 8.933095 3.899492 11697996
8.746269 9.813615 2.446146 11697996
10.236801 10.424205 1.868495 11697996
11.088802 10.901980 3.521283 11697996
8.870559 9.468742 3.880825 11697996
9.902023 9.129288 3.463438 11697996
9.973969 9.643114 2.157068 11697996
8.918412 9.977363 2.438874 11697996
9.636996 9.920105 3.707545 11697996
9.943612 10.903397 2.658311 11697996
10.928152 11.113747 0.837124 11697996
9.369520 9.080527 0.098157 11697996
9.701483 10.882730 0.139126 11697996
10.162889 10.331551 3.537365 11697996
10.945077 9.027948 0.953766 11697996
9.323808 11.009953 1.762726 11697996
10.165197 9.239065 2.205127 11697996
8.771336 9.996144 0.783340 11697996
9.770953 9.872251 3.954279 11697996
9.954685 11.188066 2.388795 11697996
9.329956 10.916319 2.976011 11697996
10.687569 9.626373 2.226710 11697996
10.922256 9.044823 2.768147 11697996
10.920482 10.888823 1.800188 11697996
11.227171 9.850984 2.224349 11697996
9.688508 9.296206 2.480984 11697996
9.318762 8.842398 2.942682 11697996
11.046674 8.968871 2.698388 11697996
9.834277 8.793072 0.614135 11697996
9.804319 9.036694 3.583387 11697996
10.986821 9.815793 0.856549 11697996
11.141976 9.046158 3.666420 11697996
10.488927 9.175462 2.288292 11697996
10.779322 10.394026 1.418214 11697996
9.388391 10.589902 0.149356 11697996
9.405879 10.731094 2.729774 11697996
9.554355 9.314624 3.936784 11697996
9.029574 10.936386 2.211627 11697996
9.780403 9.913355 0.526207 11697996
10.539637 10.130283 1.789663 11697996
11.206573 11.028536 0.287120 11697996
8.929052 10.458793 2.820034 11697996
10.382830 10.060237 1.524428 11697996
10.592566 10.361823 0.783150 11697996
10.565307 9.670444 3.573171 11697996
11.058219 8.860319 0.311902 11697996
11.038623 11.191064 0.017872 11697996
10.753003 9.757453 3.522900 11697996
9.697687 10.802262 3.371704 11697996
9.538846 9.397729 2.229982 11697996
10.528331 9.574577 1.597597 11697996
11.010916 9.480649 1.943489 11697996
10.420453 10.012750 0.541974 11697996
9.767121 11.176181 2.392365 11697996
11.096826 8.892198 2.323951 11697996
11.005288 9.638221 2.534963 11697996
9.720383 10.879278 2.665492 11697996
9.151823 10.345739 0.893212 11697996
9.278835 8.846822 2.198575 11697996
11.078156 9.875710 3.026158 11697996
9.420515 10.876150 1.280753 11697996
10.268275 9.295811 1.501440 11697996
9.584394 10.429095 1.998028 11697996
9.705704 9.142506 2.278678 11697996
9.235847 9.112140 0.634494 11697996
10.536248 11.063636 3.426551 11697996
9.881721 9.817625 2.142072 11697996
10.155395 9.151977 3.319639 11697996
10.404455 10.129955 1.539793 11697996
9.224582 10.857354 1.173095 11697996
9.648507 10.257053 3.938640 11697996
9.763167 8.955873 3.520260 11697996
8.936015 9.526360 0.253618 11697996
10.643026 10.424274 0.117247 11697996
9.293451 10.497527 1.904083 11697996
10.510042 8.955432 2.418396 11697996
10.493749 10.305173 0.624911 11697996
9.901305 10.047822 3.658504 11697996
9.768076 9.730507 0.622253 11697996
11.201437 10.516094 2.816872 11697996
9.688590 10.620082 1.929917 11697996
9.173450 10.845672 3.771950 11697996
9.264022 11.075727 1.249918 11697996
11.092127 11.145781 3.841472 11697996
10.395144 10.196846 2.395566 11697996
9.916568 10.092409 3.640851 11697996
9.100410 9.109200 1.820540 11697996
9.554686 9.968962 3.256496 11697996
10.958998 9.274417 0.128665 11697996
11.082538 9.196437 0.658978 11697996
9.798300 11.090391 2.602750 11697996
11.023506 9.325930 1.456564 11697996
9.273021 9.905498 2.538770 11697996
11.204271 11.145403 0.870339 11697996
11.188410 10.569473 1.834925 11697996
10.355175 8.820608 3.738165 11697996
9.316976 9.727246 3.129027 11697996
10.353965 9.018370 0.848068 11697996
9.587453 9.417244 0.057052 11697996
10.051698 8.933090 3.116515 11697996
10.789701 10.398954 3.030564 11697996
8.750552 9.108151 3.494638 11697996
10.041963 9.573917 1.136398 11697996
10.359030 9.434742 2.354865 11697996
11.116827 9.624526 3.447003 11697996
9.860561 11.208333 3.214976 11697996
10.997339 10.551373 2.652775 11697996
10.703864 10.403630 0.648040 11697996
9.035652 9.123260 2.296830 11697996
10.168640 9.509455 3.769474 11697996
10.829842 10.728060 0.734501 11697996
11.248713 8.818902 0.921206 11697996
9.299513 9.574990 3.782069 11697996
11.258399 10.236380 1.560317 11697996
10.941722 9.411358 1.672072 11697996
11.011546 10.175841 2.419323 11697996
8.901066 10.785544 1.259824 11697996
9.645267 9.836353 0.364151 11697996
10.329811 9.012199 3.237297 11697996
9.560108 8.864052 1.286811 11697996
11.013928 9.124509 1.152744 11697996
10.321655 8.817516 0.415582 11697996
9.886495 9.673352 2.826977 11697996
10.858327 9.749188 3.953653 11697996
9.054032 9.318220 3.393503 11697996
10.034202 10.885415 0.763291 11697996
10.139452 8.811117 3.080497 11697996
10.858491 9.294307 3.632233 11697996
9.506824 9.771465 3.407448 11697996
9.490859 8.944992 3.474177 11697996
10.148924 9.177840 1.296518 11697996
10.591415 9.060479 1.744305 11697996
9.837029 10.870588 3.618028 11697996
11.079189 9.658213 3.547245 11697996
9.744659 10.896054 3.241462 11697996
10.070684 9.534975 0.510810 11697996
9.210004 9.295765 2.870083 11697996
10.446907 8.971126 3.115306 11697996
9.842058 9.581645 0.444258 11697996
8.809206 10.865092 3.306395 11697996
