# .PCD v0.7 - Point Cloud Data file format
VERSION 0.7
FIELDS x y z rgb
SIZE 4 4 4 4
TYPE F F F U
COUNT 1 1 1 1
WIDTH 1292
HEIGHT 1
VIEWPOINT 0 0 0 1 0 0 0
POINTS 1292
DATA ascii
10.134981 8.867550 3.247345 11697996
10.782887 10.304941 0.784267 11697996
10.081327 8.835519 2.500408 11697996
11.248504 9.070170 0.461313 11697996
9.515641 9.216687 0.641114 11697996
11.222127 9.014612 3.294808 11697996
9.189827 9.742708 0.746449 11697996
9.361661 9.241194 3.976836 11697996
10.478151 9.222188 2.546975 11697996
9.811150 9.379527 1.025711 11697996
10.060847 11.217905 2.946426 11697996
11.092953 10.378755 0.306967 11697996
10.815784 9.232978 0.993289 11697996
10.585531 10.655549 3.151163 11697996
10.569139 10.908738 1.477249 11697996
9.934855 9.051142 0.819362 11697996
10.706171 9.760691 0.226297 11697996
9.056381 9.948569 0.448233 11697996
10.830071 9.678153 1.397337 11697996
10.597329 11.196515 3.954511 11697996
10.634092 9.619882 3.781708 11697996
11.175394 9.918088 2.958467 11697996
11.075225 9.956953 3.042857 11697996
8.843144 10.884579 2.761843 11697996
11.056216 9.839040 2.744633 11697996
9.283859 9.761061 3.443972 11697996
9.299678 8.989071 3.411514 11697996
9.865548 10.695323 2.527976 11697996
10.931903 9.235482 0.193679 11697996
10.718524 10.511751 1.273259 11697996
9.922108 10.707739 2.355000 11697996
9.142661 10.437769 1.764871 11697996
10.216980 9.308345 2.221651 11697996
11.039066 10.134119 0.195560 11697996
10.043975 11.145002 2.975477 11697996
10.627758 11.020439 3.828023 11697996
9.730512 8.823019 1.537051 11697996
9.583859 9.463490 1.388272 11697996
10.696265 10.744089 1.643206 11697996
9.577326 10.452267 2.749141 11697996
10.219911 11.255510 0.296350 11697996
9.591425 8.841305 3.279051 11697996
9.543149 10.314388 3.152720 11697996
10.334935 9.113553 3.309652 11697996
9.380766 10.324052 2.982295 11697996
9.595289 10.655402 1.725752 11697996
9.090931 10.795919 2.152544 11697996
10.793185 10.510014 0.925290 11697996
10.808702 10.904962 3.705465 11697996
10.690737 10.935219 1.703653 11697996
11.203712 9.288797 3.322294 11697996
9.885315 11.219229 1.756745 11697996
8.824092 8.777362 2.474211 11697996
9.188875 10.122339 3.152848 11697996
10.576367 10.060678 0.202408 11697996
8.839514 10.192085 3.406851 11697996
10.294460 9.543501 0.840536 11697996
10.230300 8.978066 1.408683 11697996
9.595811 8.881837 3.584604 11697996
9.751222 9.804450 1.560679 11697996
10.853629 9.957413 3.067153 11697996
10.642800 10.317942 3.298647 11697996
10.838089 10.481808 0.672212 11697996
10.765304 10.245255 3.836404 11697996
11.094014 9.522851 1.679730 11697996
9.492320 10.783025 2.616544 11697996
10.249689 8.733569 3.150582 11697996
11.163112 9.469696 2.700384 11697996
10.342840 10.065936 2.076935 11697996
10.360333 10.074098 0.974843 11697996
8.867690 10.984538 3.414420 11697996
10.667177 9.893304 1.754786 11697996
9.512121 10.008310 2.160780 11697996
10.121651 10.698067 3.249403 11697996
9.275468 10.468766 1.869198 11697996
9.262890 9.740197 2.729177 11697996
9.780224 9.126343 3.529772 11697996
9.601084 11.029015 2.023834 11697996
10.591903 8.863455 1.279875 11697996
8.905539 11.101505 0.032045 11697996
11.013091 10.358686 2.076623 11697996
8.909225 11.148804 0.025959 11697996
9.266569 11.100841 1.591967 11697996
10.130712 9.181564 1.476938 11697996
9.183833 10.579736 0.518334 11697996
10.795918 10.952176 3.777993 11697996
10.137681 9.811378 2.625913 11697996
10.983691 10.442690 2.353150 11697996
11.151484 9.909963 2.103872 11697996
10.003377 10.181589 2.172700 11697996
10.018266 10.213373 2.030857 11697996
8.891124 9.530807 0.957712 11697996
10.393177 11.019252 2.167534 11697996
11.010467 10.949588 1.667442 11697996
9.976168 8.820269 0.524876 11697996
9.316300 10.377122 3.308615 11697996
11.159900 9.221110 3.187659 11697996
11.116942 10.645964 2.356031 11697996
10.873195 11.176963 1.216559 11697996
10.738668 9.579755 2.732100 11697996
9.965400 10.844336 1.095494 11697996
11.050220 10.052193 1.285304 11697996
8.989982 10.043351 2.588151 11697996
10.066924 10.391059 0.473345 11697996
10.834727 9.910955 3.413900 11697996
9.838318 10.374613 3.092098 11697996
10.099176 11.170775 1.590717 11697996
9.560731 9.939092 1.492513 11697996
10.290623 10.213109 3.251487 11697996
10.915762 10.687147 3.173454 11697996
10.732396 10.687174 0.897158 11697996
10.686658 10.066358 1.583988 11697996
9.712190 10.686845 3.992530 11697996
10.863625 9.559130 1.387152 11697996
9.056711 10.149736 3.931213 11697996
9.147290 9.540582 0.238607 11697996
10.923713 10.912373 1.658829 11697996
10.153602 10.215895 2.364257 11697996
9.557473 10.968043 1.799261 11697996
10.144170 10.703500 0.199147 11697996
10.896963 8.889611 0.772569 11697996
9.150506 10.858761 0.693904 11697996
11.000536 10.998088 0.510742 11697996
10.072940 10.184692 3.191755 11697996
10.397335 9.945680 0.196452 11697996
10.260974 8.946155 1.578847 11697996
9.287000 8.896049 1.475745 11697996
8.951217 10.306273 3.113298 11697996
10.498812 9.360276 1.534136 11697996
9.177005 9.319996 3.688970 11697996
9.463517 9.204646 0.598428 11697996
10.334059 11.093348 1.204524 11697996
10.502872 9.146449 1.512924 11697996
11.147387 10.366321 1.892635 11697996
10.638946 8.978617 3.681928 11697996
10.937529 10.845853 0.847744 11697996
10.879863 9.173191 1.482793 11697996
9.578568 11.191255 1.875613 11697996
8.950316 10.187372 1.787562 11697996
11.209079 10.128571 0.211652 11697996
10.012420 10.956203 3.608838 11697996
10.605121 10.329220 0.284241 11697996
8.865031 10.566693 0.609516 11697996
8.975795 8.857447 1.487387 11697996
10.892990 9.472859 0.185553 11697996
10.389832 9.452148 3.716684 11697996
10.255847 10.422884 0.729006 11697996
10.403676 10.802061 0.141284 11697996
10.811053 9.146256 1.223472 11697996
10.944371 9.821081 3.740927 11697996
10.453830 9.562094 1.580803 11697996
8.855640 8.959803 0.542831 11697996
10.144451 10.294129 3.705419 11697996
9.259148 11.006122 0.654393 11697996
10.797937 8.820470 0.564959 11697996
8.992726 10.655771 2.528880 11697996
10.723958 9.491261 3.113557 11697996
9.544536 9.750829 0.853213 11697996
10.990888 11.178539 2.356021 11697996
9.599025 10.548818 2.859578 11697996
9.644333 11.113147 1.287520 11697996
9.849176 11.130211 2.706464 11697996
10.353052 10.285116 3.016356 11697996
10.404759 10.681235 3.541054 11697996
10.940756 10.655893 1.427055 11697996
9.101105 10.883795 2.655148 11697996
10.855556 9.637791 0.373266 11697996
11.010598 10.541516 3.126459 11697996
8.797845 9.059139 3.983472 11697996
9.485233 9.449596 2.518691 11697996
10.727778 10.232214 2.497568 11697996
8.816521 9.464705 0.677378 11697996
10.263928 9.223085 3.710701 11697996
10.142150 9.114949 2.572195 11697996
10.340889 11.051918 2.541588 11697996
9.098234 9.517891 1.934471 11697996
10.065293 9.375414 2.214021 11697996
9.179175 9.400565 0.672017 11697996
11.038337 9.602352 3.951704 11697996
10.275110 10.741137 1.838196 11697996
11.018083 9.998167 2.405711 11697996
10.263777 10.941953 1.680833 11697996
9.656289 9.774444 3.310391 11697996
10.574959 8.900277 1.967123 11697996
9.286979 10.729146 1.546212 11697996
9.367497 9.274300 2.084549 11697996
9.121549 9.058646 3.231447 11697996
9.380814 10.479744 2.027360 11697996
11.111283 9.039432 2.310131 11697996
11.152439 9.897916 2.445313 11697996
9.283518 11.156806 2.928255 11697996
9.621329 11.199862 1.219162 11697996
9.072240 9.557508 3.192602 11697996
11.171450 8.922124 1.411196 11697996
10.255612 9.965374 1.694941 11697996
10.094049 10.487071 2.658953 11697996
9.359048 9.152243 0.707719 11697996
9.944326 9.464577 0.379456 11697996
9.073565 8.918591 1.391761 11697996
8.797143 10.332412 2.385551 11697996
9.779735 8.942713 2.980336 11697996
10.143095 10.990685 0.865057 11697996
11.053927 9.233025 3.998990 11697996
10.782024 8.996689 1.275901 11697996
9.610271 9.934181 2.834574 11697996
10.096514 9.362142 2.838063 11697996
10.074914 11.101363 3.088339 11697996
11.011981 10.852863 3.179476 11697996
9.412165 10.900458 1.000089 11697996
9.549675 10.764273 1.066675 11697996
8.758229 9.322062 0.100852 11697996
10.463115 10.799621 2.027603 11697996
10.473045 10.673693 2.477947 11697996
10.199219 9.103127 2.932499 11697996
10.322706 9.643293 3.700897 11697996
9.176305 10.700854 3.713979 11697996
9.683645 10.834823 2.542555 11697996
10.982824 9.886155 0.428291 11697996
10.587654 10.841066 3.352567 11697996
10.768358 10.283956 2.094194 11697996
10.362613 10.414182 0.311446 11697996
11.004184 10.455797 2.645884 11697996
9.708774 9.676214 2.654291 11697996
11.132557 10.940398 1.296527 11697996
9.390414 9.480185 3.168806 11697996
10.948003 8.915247 3.590221 11697996
11.214931 9.831972 1.949037 11697996
10.433456 10.306600 2.646816 11697996
9.647297 9.128690 0.421167 11697996
11.244045 10.416432 0.270026 11697996
9.963331 9.282816 1.000399 11697996
10.377899 10.347420 2.415145 11697996
10.788364 8.819547 1.221320 11697996
9.994840 9.088371 0.546362 11697996
9.715692 11.209791 0.839791 11697996
10.155355 9.149833 1.160409 11697996
8.896543 9.484965 1.537301 11697996
9.753766 8.920064 1.713309 11697996
9.833881 9.884999 1.085485 11697996
10.131172 10.847117 3.369575 11697996
10.266057 8.937273 1.131134 11697996
9.059673 10.170166 1.337439 11697996
11.122895 8.878003 1.991568 11697996
11.067003 9.324775 2.226961 11697996
11.055440 9.187714 3.965065 11697996
8.868979 10.396448 2.264297 11697996
8.848933 10.440312 0.528026 11697996
9.048544 11.085876 3.744813 11697996
9.174636 9.672735 0.819753 11697996
9.207411 10.775647 1.404205 11697996
9.366440 10.751050 1.341851 11697996
10.994634 10.257068 1.963915 11697996
10.382943 10.519174 2.564708 11697996
8.841679 10.209983 3.282969 11697996
9.476907 10.227860 3.603792 11697996
9.066902 10.911175 3.201449 11697996
11.128571 10.286578 0.712614 11697996
9.439919 9.057461 2.431368 11697996
9.146006 10.078065 1.053406 11697996
11.090433 9.474821 2.047557 11697996
10.785148 9.522022 0.269485 11697996
9.773299 10.369911 1.844582 11697996
10.227853 10.081532 1.221747 11697996
8.740365 10.424217 3.081087 11697996
10.340336 9.217127 1.362677 11697996
9.738034 9.298856 0.023016 11697996
9.254665 9.961418 2.871581 11697996
10.567883 9.537086 0.928224 11697996
10.180555 10.174070 3.540305 11697996
8.905870 11.096038 1.885034 11697996
11.013677 9.218695 1.317499 11697996
9.190357 9.795064 2.964279 11697996
8.926486 9.078467 2.165540 11697996
9.431455 10.251846 1.055464 11697996
11.094491 9.647375 3.482925 11697996
9.625236 10.086925 1.935483 11697996
10.599420 11.201886 0.059635 11697996
9.651272 9.676443 1.365739 11697996
10.788257 8.936436 3.657484 11697996
9.604482 10.422276 0.291645 11697996
10.771946 9.994659 2.882971 11697996
9.110378 10.093651 3.801533 11697996
9.005378 10.801020 3.449675 11697996
10.701777 8.903852 1.544044 11697996
9.142715 10.570242 2.728067 11697996
9.960474 10.026488 3.997919 11697996
10.135888 10.912949 2.308474 11697996
9.877638 10.133657 0.348965 11697996
8.864526 8.918478 2.157362 11697996
10.234898 9.787837 3.828896 11697996
10.628754 11.209603 2.250193 11697996
9.281183 10.109791 3.164958 11697996
9.863809 9.936597 2.628446 11697996
8.908944 10.274562 0.202386 11697996
10.786544 10.471806 1.932713 11697996
10.122108 9.685802 3.340700 11697996
10.938612 10.191670 3.375828 11697996
8.945627 9.206572 3.918570 11697996
9.320210 10.841631 3.323089 11697996
10.275911 10.743938 0.986706 11697996
10.806479 9.879925 2.306244 11697996
10.494908 8.755465 3.473226 11697996
10.827528 8.937929 0.880293 11697996
9.386136 10.235585 2.527926 11697996
9.118506 10.833457 1.119953 11697996
10.352489 8.830141 3.304888 11697996
9.684010 10.812376 2.954803 11697996
9.906455 10.550861 1.156925 11697996
11.151896 11.002933 1.447681 11697996
9.569983 8.826876 3.899176 11697996
10.738403 9.858433 2.290118 11697996
8.753016 9.341970 1.181889 11697996
10.854532 11.102430 3.712424 11697996
10.668176 10.938859 2.534763 11697996
9.509141 9.752977 1.219954 11697996
10.203438 9.270873 1.993406 11697996
9.767864 10.016962 2.704523 11697996
10.028944 9.716598 0.820386 11697996
10.325473 11.228035 1.921785 11697996
10.684863 9.182306 0.195128 11697996
9.510180 10.703006 1.175528 11697996
11.169361 11.028613 2.587875 11697996
10.510235 9.697577 2.079341 11697996
9.000397 10.380490 3.877983 11697996
9.198802 10.596931 0.155306 11697996
10.274651 10.059657 3.646325 11697996
10.789375 10.617818 3.128738 11697996
9.607410 11.235314 3.653772 11697996
9.399961 9.214358 3.006433 11697996
10.005923 9.291332 1.233892 11697996
9.173010 8.973464 0.836959 11697996
10.379856 9.641809 3.081147 11697996
10.587019 11.035391 2.261986 11697996
10.173520 8.905972 0.511803 11697996
10.697811 10.084498 3.465955 11697996
9.097893 10.997173 2.173484 11697996
11.030697 10.131830 1.562865 11697996
10.643657 10.412837 0.594119 11697996
8.816738 10.838800 2.874212 11697996
8.809093 10.486840 0.259390 11697996
9.350279 10.142926 3.531512 11697996
9.072425 9.290926 2.131401 11697996
9.673213 9.743758 2.076789 11697996
10.360104 10.043174 1.859339 11697996
9.219050 9.313089 2.358985 11697996
9.473844 10.896701 3.366717 11697996
10.017546 10.009845 3.340974 11697996
10.676076 8.833066 0.836806 11697996
9.194943 11.229405 3.924422 11697996
9.426925 9.865801 0.958521 11697996
8.861770 11.216663 2.703263 11697996
10.143112 9.599705 3.429090 11697996
11.213902 10.329785 0.187623 11697996
9.321624 8.964664 2.744262 11697996
8.948722 9.331961 1.310271 11697996
9.021306 9.787011 1.600365 11697996
8.900441 9.675597 2.178575 11697996
11.048482 11.057215 3.595035 11697996
10.362417 9.847907 2.990110 11697996
8.742642 9.720344 3.485150 11697996
10.282504 9.647499 0.321210 11697996
10.465858 10.588901 1.859991 11697996
10.740604 9.635986 0.102957 11697996
11.157357 8.935981 3.987082 11697996
10.544593 10.464561 2.035926 11697996
10.214074 10.231331 0.745825 11697996
9.978442 9.180306 1.442439 11697996
11.108077 9.281604 2.212258 11697996
9.056275 11.179676 0.943030 11697996
9.003373 9.457366 3.323072 11697996
10.501400 9.951008 2.741227 11697996
8.742794 11.182941 1.129954 11697996
10.530201 9.803761 3.053259 11697996
9.135166 10.663595 3.408828 11697996
9.123129 10.148163 3.959034 11697996
10.960345 10.292164 1.924401 11697996
10.917274 9.666924 1.032218 11697996
9.352390 8.928523 3.868085 11697996
8.744478 9.849454 2.453893 11697996
10.246984 10.430111 1.852121 11697996
11.081492 10.880396 3.550925 11697996
8.867858 9.445745 3.863555 11697996
9.885641 9.112279 3.453318 11697996
9.966537 9.636261 2.115906 11697996
8.926611 9.989121 2.415352 11697996
9.637816 9.939119 3.705190 11697996
9.938924 10.901428 2.660656 11697996
10.950653 11.124544 0.858763 11697996
9.314428 9.045412 0.076171 11697996
9.693179 10.857240 0.138332 11697996
10.179183 10.339117 3.558864 11697996
10.933814 9.050187 0.929484 11697996
9.315385 11.011933 1.740020 11697996
10.148393 9.229208 2.180791 11697996
8.779120 9.994765 0.759488 11697996
9.754248 9.867750 3.938639 11697996
9.940051 11.213601 2.377834 11697996
9.342493 10.905652 2.940188 11697996
10.647970 9.629748 2.218336 11697996
10.938672 9.044068 2.750573 11697996
10.899262 10.878485 1.803555 11697996
11.248896 9.872697 2.224461 11697996
9.654626 9.353884 2.480755 11697996
9.326811 8.879550 2.927697 11697996
11.022661 8.979653 2.691662 11697996
9.883596 8.814411 0.581638 11697996
9.811638 9.028034 3.575189 11697996
10.996636 9.797883 0.831704 11697996
11.135330 9.038464 3.681042 11697996
10.454515 9.152997 2.303232 11697996
10.769341 10.409761 1.357602 11697996
9.357063 10.557573 0.150232 11697996
9.376212 10.719644 2.732284 11697996
9.561564 9.295972 3.907918 11697996
9.054162 10.937587 2.211065 11697996
9.774666 9.949486 0.527928 11697996
10.519537 10.130758 1.795820 11697996
11.172126 11.054682 0.292072 11697996
8.907115 10.453721 2.818992 11697996
10.395778 10.063939 1.541735 11697996
10.586485 10.348873 0.794152 11697996
10.552843 9.672527 3.565272 11697996
11.065539 8.849448 0.300087 11697996
11.014547 11.214621 0.008302 11697996
10.772744 9.744515 3.547449 11697996
9.686778 10.823427 3.350793 11697996
9.513645 9.409772 2.200218 11697996
10.500344 9.560324 1.590475 11697996
11.040018 9.430491 1.985162 11697996
10.396811 10.028535 0.530746 11697996
9.801191 11.152369 2.423148 11697996
11.109829 8.920877 2.325240 11697996
10.953508 9.634238 2.554423 11697996
9.721437 10.912918 2.652882 11697996
9.163529 10.339792 0.881531 11697996
9.290209 8.851919 2.211065 11697996
11.077569 9.845663 3.035173 11697996
9.425858 10.890511 1.267585 11697996
10.262318 9.253313 1.485092 11697996
9.618104 10.436589 1.958221 11697996
9.727503 9.157720 2.230328 11697996
9.219019 9.131790 0.632689 11697996
10.511767 11.069756 3.438545 11697996
9.889328 9.786085 2.137560 11697996
10.172814 9.162075 3.315005 11697996
10.427032 10.101323 1.537545 11697996
9.230139 10.855600 1.174312 11697996
9.645602 10.230198 3.933977 11697996
9.771375 8.985938 3.557860 11697996
8.927820 9.503251 0.286025 11697996
10.599082 10.436509 0.117480 11697996
9.317801 10.474717 1.861220 11697996
10.509612 9.003515 2.431499 11697996
10.469963 10.310582 0.629258 11697996
9.924869 10.063879 3.656879 11697996
9.751468 9.729373 0.657442 11697996
11.181700 10.520584 2.821903 11697996
9.662507 10.601542 1.949937 11697996
9.137462 10.855855 3.796176 11697996
9.249237 11.074710 1.255892 11697996
11.135480 11.123144 3.828336 11697996
10.358173 10.212225 2.394491 11697996
9.915355 10.107062 3.642213 11697996
9.088713 9.114931 1.794565 11697996
9.569984 9.923587 3.274870 11697996
10.930183 9.306431 0.138578 11697996
11.071919 9.176558 0.651824 11697996
9.755584 11.089946 2.576535 11697996
11.036563 9.334787 1.474829 11697996
9.292977 9.900751 2.533916 11697996
11.213574 11.134114 0.875493 11697996
11.197659 10.576414 1.832879 11697996
10.339046 8.835161 3.739259 11697996
9.303900 9.721488 3.099449 11697996
10.345722 9.020345 0.864814 11697996
9.583598 9.441890 0.057175 11697996
10.059745 8.885855 3.165254 11697996
10.830782 10.415648 3.059770 11697996
8.770099 9.123070 3.479285 11697996
10.007277 9.571597 1.102641 11697996
10.362288 9.452222 2.328617 11697996
11.149176 9.575660 3.440298 11697996
9.863507 11.175432 3.268547 11697996
11.013419 10.582112 2.627708 11697996
10.700227 10.374518 0.629269 11697996
9.003275 9.113568 2.276254 11697996
10.179523 9.517260 3.799859 11697996
10.839314 10.723712 0.704469 11697996
11.219711 8.792284 0.944661 11697996
9.297967 9.578652 3.796058 11697996
11.252988 10.221261 1.593279 11697996
10.934965 9.418473 1.650167 11697996
11.038750 10.195569 2.427332 11697996
8.882777 10.798031 1.257525 11697996
9.632889 9.873784 0.347604 11697996
10.303985 9.039874 3.271455 11697996
9.530979 8.832049 1.281572 11697996
11.018036 9.129283 1.142329 11697996
10.335614 8.818667 0.380416 11697996
9.850442 9.663594 2.820586 11697996
10.829207 9.758608 3.953380 11697996
9.054459 9.287562 3.384818 11697996
10.024768 10.874983 0.737010 11697996
10.116188 8.782113 3.087587 11697996
10.838702 9.284848 3.649057 11697996
9.495519 9.765650 3.431633 11697996
9.483204 8.933554 3.464725 11697996
10.143555 9.215796 1.278946 11697996
10.592573 9.059467 1.752980 11697996
9.851890 10.889497 3.609963 11697996
11.088179 9.676361 3.523304 11697996
9.779778 10.886208 3.249819 11697996
10.071158 9.520720 0.542427 11697996
9.195227 9.268682 2.880219 11697996
10.440522 8.983741 3.148550 11697996
9.869465 9.571418 0.448542 11697996
8.808585 10.856437 3.305246 11697996
10.332147 9.635078 0.695996 11697996
10.458075 10.905899 1.658675 11697996
9.745756 10.741621 1.956461 11697996
9.271207 10.217776 2.059394 11697996
10.549709 10.686759 3.649299 11697996
10.110168 9.912875 3.136743 11697996
9.954704 9.638307 1.587605 11697996
9.322824 9.873781 3.454953 11697996
9.921798 11.159794 3.846829 11697996
8.977078 11.172935 0.986777 11697996
10.563798 10.098660 0.150262 11697996
10.500798 10.299469 1.778726 11697996
10.037678 9.114261 0.814788 11697996
9.408337 9.554568 2.592073 11697996
11.082826 10.963265 1.017484 11697996
10.622664 11.117312 1.054296 11697996
9.580956 10.384319 0.994293 11697996
8.842793 11.187506 1.610846 11697996
10.208566 10.022952 2.972077 11697996
8.961967 9.302900 1.966680 11697996
11.023357 9.030114 0.636302 11697996
9.792541 8.773417 0.778702 11697996
9.164330 10.423947 1.641058 11697996
10.846616 9.248301 0.577188 11697996
9.839589 9.583669 2.812800 11697996
9.754264 10.197382 0.252039 11697996
10.987769 10.466270 0.375523 11697996
9.498541 10.106355 1.512551 11697996
8.752834 11.093998 2.509679 11697996
10.297222 9.491167 0.517351 11697996
10.666806 8.851951 0.182149 11697996
11.214597 9.420183 2.634789 11697996
9.516946 10.740892 1.220379 11697996
10.241846 9.037577 1.034575 11697996
10.740356 10.839493 1.675300 11697996
9.516475 9.962918 2.360632 11697996
10.380126 9.177502 0.489752 11697996
10.591628 9.026325 2.455622 11697996
10.730004 10.171245 1.171947 11697996
9.343277 9.212948 1.768380 11697996
9.860609 10.285728 2.017812 11697996
9.147889 9.082691 1.646924 11697996
9.624788 8.974461 2.459897 11697996
9.489079 11.235634 1.628909 11697996
11.190992 9.652474 1.541276 11697996
9.670672 8.852016 0.393688 11697996
10.308145 10.659398 2.683624 11697996
10.992011 8.784020 2.019912 11697996
9.556024 9.057148 0.048174 11697996
9.993089 10.325763 2.650679 11697996
9.449697 9.654494 1.608285 11697996
9.410798 10.735840 2.877859 11697996
9.934650 9.747772 1.030142 11697996
9.160258 10.260735 2.859831 11697996
9.454638 10.653237 0.807494 11697996
10.065501 9.761842 3.936237 11697996
9.059312 10.603086 2.232033 11697996
8.782912 8.960158 1.156497 11697996
10.591132 9.180171 1.335297 11697996
10.048535 9.685480 2.249172 11697996
11.127344 10.342736 0.251904 11697996
11.085674 10.348127 3.532189 11697996
9.091332 10.200511 1.828388 11697996
9.903161 10.867685 3.249071 11697996
10.725229 10.656853 1.187873 11697996
11.203856 10.097278 1.931913 11697996
10.910092 11.221528 1.341507 11697996
10.746991 11.048843 3.798019 11697996
9.874782 10.230596 1.917329 11697996
11.259167 10.367052 0.477137 11697996
10.507728 10.038959 2.084875 11697996
10.107677 9.783970 3.670212 11697996
9.381428 10.673514 2.045780 11697996
9.599508 10.295868 2.670031 11697996
9.803484 9.627785 0.947084 11697996
9.106723 8.853772 3.363393 11697996
9.521240 8.953923 0.077141 11697996
10.752774 10.015707 2.281368 11697996
9.493946 9.184765 3.791401 11697996
9.979609 9.881416 2.148548 11697996
9.389030 10.516854 0.404937 11697996
9.683362 10.165520 2.077971 11697996
9.393155 11.089506 3.859018 11697996
9.920356 9.941861 2.254868 11697996
8.951356 10.262850 0.921898 11697996
9.611763 9.628288 2.310711 11697996
11.139645 10.468638 1.126337 11697996
10.882442 10.437957 1.636190 11697996
9.394773 9.405936 0.087732 11697996
9.901429 10.045711 1.270289 11697996
11.170282 9.861926 1.097328 11697996
9.749604 9.299481 0.009745 11697996
9.028135 9.529674 1.795341 11697996
10.872596 9.465185 0.654694 11697996
9.662283 10.046845 1.420183 11697996
9.688623 10.832298 0.279742 11697996
11.225813 10.338238 3.989627 11697996
8.753304 9.731544 2.608667 11697996
9.983318 10.775514 3.168483 11697996
10.074780 9.997074 2.302886 11697996
11.133513 9.855132 2.119357 11697996
9.801096 10.209419 3.501171 11697996
8.962865 9.182959 2.401603 11697996
9.648925 10.419499 2.836509 11697996
10.554305 9.851660 3.833918 11697996
10.547298 9.571438 2.828319 11697996
9.022677 9.478423 2.919577 11697996
10.805595 11.265101 2.787642 11697996
11.194965 10.726336 0.475104 11697996
11.254291 8.768184 1.745162 11697996
9.808476 9.942900 2.513546 11697996
10.442919 8.923101 3.612493 11697996
10.632103 9.618961 1.681319 11697996
10.320659 8.932542 1.267056 11697996
9.709199 10.451932 3.814733 11697996
10.612739 10.445010 1.272624 11697996
10.177737 10.320188 3.647010 11697996
10.180254 9.191581 0.582303 11697996
9.835373 9.070407 1.064137 11697996
10.599537 10.672627 1.749401 11697996
9.940387 10.180904 0.480317 11697996
10.077182 10.441545 3.697678 11697996
10.237862 9.617781 1.577037 11697996
11.060928 9.455249 3.311672 11697996
9.785551 8.773402 3.513542 11697996
9.389689 9.809538 1.279874 11697996
8.920593 8.990676 3.423167 11697996
10.522861 10.509655 1.285121 11697996
10.262892 10.110415 0.163305 11697996
9.006311 10.441064 2.993041 11697996
10.693507 8.829380 1.090310 11697996
8.998668 9.050751 3.300417 11697996
9.715412 11.139544 2.916687 11697996
9.784618 10.903828 0.197811 11697996
11.057252 9.454687 1.997418 11697996
10.509300 10.125153 3.044407 11697996
9.227087 10.606620 2.791724 11697996
11.161003 10.930651 0.186979 11697996
10.081155 9.138338 1.885810 11697996
10.632829 10.266824 2.260883 11697996
11.230522 9.850237 3.118559 11697996
9.006666 10.062572 2.488667 11697996
10.956788 9.098523 1.211721 11697996
11.146963 10.812783 0.185595 11697996
10.405090 10.979939 3.267768 11697996
10.681372 10.828526 3.029663 11697996
9.506985 9.334149 1.104908 11697996
8.881934 9.885894 2.717506 11697996
9.985490 10.604022 3.661823 11697996
10.283064 10.450143 0.927639 11697996
10.299041 9.381312 2.778256 11697996
11.140423 11.007835 2.701959 11697996
9.575452 8.805952 1.114962 11697996
9.468005 9.558810 1.501788 11697996
10.143493 11.144948 2.550823 11697996
9.109051 9.251938 1.698454 11697996
9.380853 8.947386 2.928716 11697996
9.678872 9.726306 1.987354 11697996
10.718470 11.064868 3.681344 11697996
11.118704 10.376464 3.781406 11697996
11.002243 9.179658 0.006070 11697996
11.103979 10.423225 3.211766 11697996
8.974178 9.018837 1.217678 11697996
8.915495 10.261164 3.056979 11697996
9.006280 9.541512 0.975631 11697996
9.309783 9.575748 2.643840 11697996
10.044391 9.156142 3.168783 11697996
8.749370 8.944361 0.450065 11697996
10.147972 10.333327 1.276340 11697996
8.800850 10.274155 0.895258 11697996
9.493455 10.121357 0.411984 11697996
9.612411 9.903960 1.775187 11697996
9.285497 9.132197 1.346875 11697996
10.000352 9.013890 0.951213 11697996
9.377353 9.557953 0.354654 11697996
9.295227 9.625168 0.259985 11697996
9.568840 10.364553 1.865348 11697996
9.038632 9.816174 3.701951 11697996
9.514304 10.032125 0.536947 11697996
9.762756 10.344552 0.703722 11697996
10.800420 11.199632 1.659798 11697996
11.012462 10.222173 0.737840 11697996
9.371794 9.110275 2.484441 11697996
10.051002 9.436326 1.646669 11697996
9.504642 10.058491 2.793321 11697996
10.088471 10.545224 2.653297 11697996
10.973496 9.719539 2.188500 11697996
10.808044 9.526283 0.682107 11697996
9.447585 11.245072 3.618773 11697996
11.208033 10.283074 0.540988 11697996
10.977973 10.520224 3.554055 11697996
11.002954 10.141433 2.402008 11697996
9.426726 8.859419 1.762200 11697996
10.407217 11.087135 0.485018 11697996
9.687969 9.012923 2.027644 11697996
9.645568 9.558403 2.023630 11697996
10.299747 9.644993 1.230041 11697996
10.002872 10.512997 1.331056 11697996
10.371071 9.684953 3.528404 11697996
11.208590 8.849605 0.823507 11697996
10.182536 9.155115 2.866625 11697996
9.520645 9.284938 2.092293 11697996
8.736879 9.357338 0.376488 11697996
9.693500 9.514165 0.676810 11697996
9.029117 10.168048 1.903372 11697996
11.088662 10.267120 1.554119 11697996
9.393894 10.073718 0.701598 11697996
10.124743 8.788145 0.061987 11697996
9.968109 10.474796 3.048582 11697996
9.141617 9.266404 2.536531 11697996
9.305159 9.304888 0.513777 11697996
10.773184 11.163321 3.974514 11697996
9.196485 10.319972 1.539094 11697996
9.925650 9.507730 3.549753 11697996
8.781962 9.406905 2.250772 11697996
10.321413 9.660818 2.779391 11697996
9.760402 11.212259 3.845118 11697996
10.348882 10.583744 3.030991 11697996
10.574890 10.950192 3.974070 11697996
11.204638 9.082134 2.758749 11697996
9.874472 9.399653 2.460820 11697996
10.317913 10.724015 3.252294 11697996
9.520654 10.184484 3.507460 11697996
9.259048 9.950929 0.081321 11697996
10.260277 10.801335 1.680507 11697996
10.740448 10.246909 2.007041 11697996
10.893729 10.625437 1.055885 11697996
10.147238 8.868285 1.851638 11697996
10.007275 10.339375 1.231884 11697996
11.122793 9.632048 1.893905 11697996
10.463707 9.457331 3.624959 11697996
9.972775 10.081734 0.919333 11697996
10.858351 10.961492 1.267483 11697996
10.230172 9.805673 2.587666 11697996
9.690632 9.196534 3.338126 11697996
9.717524 10.913658 2.203466 11697996
9.464780 10.384701 0.873908 11697996
10.896726 10.637089 3.390084 11697996
9.242676 9.627397 2.340448 11697996
8.972339 10.787861 0.028876 11697996
9.422256 10.880164 1.927984 11697996
9.863468 8.840274 3.031491 11697996
8.815588 9.788326 2.038588 11697996
8.997264 10.638803 0.345178 11697996
8.797627 9.282559 1.209602 11697996
10.888133 9.333521 1.061113 11697996
10.901616 10.430487 3.055240 11697996
9.067291 10.889454 3.802981 11697996
10.955249 9.509883 2.960123 11697996
10.900167 8.780615 0.310132 11697996
9.015531 10.376680 1.018449 11697996
10.389566 8.828705 1.921048 11697996
9.374880 9.317798 0.054013 11697996
9.587902 9.925785 1.258113 11697996
10.722079 8.946830 1.098675 11697996
9.096546 10.537304 0.979950 11697996
10.556751 10.177999 0.409580 11697996
11.029404 9.337735 1.857369 11697996
9.065727 9.889432 1.985636 11697996
10.098576 11.120245 2.745007 11697996
8.862611 9.199520 0.631683 11697996
9.525315 10.847382 3.728984 11697996
9.258735 9.622794 2.235743 11697996
9.252080 10.459125 0.145744 11697996
10.709085 9.878474 2.494199 11697996
9.523691 8.818151 3.777231 11697996
10.946855 10.035854 1.486005 11697996
9.097381 10.351228 1.705850 11697996
9.311481 9.405515 2.062249 11697996
10.252822 8.832590 3.902423 11697996
10.017715 9.171320 3.313478 11697996
10.725803 10.071768 3.214150 11697996
11.239421 10.619432 3.794591 11697996
9.279967 9.319196 2.133789 11697996
9.548379 10.982742 3.248435 11697996
10.043378 9.337569 0.479906 11697996
9.552518 10.479699 2.372742 11697996
10.958876 8.894050 1.162540 11697996
9.671535 10.352719 1.556017 11697996
10.538460 10.452286 1.563417 11697996
9.867360 9.065620 2.537118 11697996
9.307896 10.519491 2.089495 11697996
9.247268 10.076745 0.642349 11697996
9.616372 10.465644 3.767848 11697996
10.338705 9.805946 3.613760 11697996
10.037319 9.317547 2.025789 11697996
10.599744 9.815089 0.417919 11697996
11.226619 10.564848 3.186352 11697996
10.731365 9.641018 3.254529 11697996
10.222292 10.363306 0.752646 11697996
9.612476 10.321765 2.649215 11697996
11.015615 11.142091 3.945195 11697996
11.102181 11.193227 2.007555 11697996
9.229317 9.030805 0.244447 11697996
9.793528 9.747004 3.591457 11697996
9.297261 11.127230 1.592318 11697996
8.919775 10.591945 0.417166 11697996
11.186795 11.026991 2.735377 11697996
8.867569 10.683163 1.584575 11697996
10.651504 9.427032 1.082920 11697996
10.846742 9.536642 3.161623 11697996
10.159063 10.234690 0.965624 11697996
9.090478 9.687079 2.359790 11697996
11.093120 9.121946 0.548421 11697996
9.339126 8.826426 2.202192 11697996
10.919811 10.873600 2.330413 11697996
10.447990 10.726319 3.769654 11697996
9.448916 10.923683 0.994657 11697996
9.274595 10.239849 3.489088 11697996
10.320543 9.478477 2.907816 11697996
10.597132 10.474238 3.617601 11697996
8.858410 11.166858 1.207113 11697996
9.543598 10.211263 1.140441 11697996
9.619198 10.027958 3.161906 11697996
10.714433 10.340262 3.225622 11697996
10.135650 9.561852 0.177763 11697996
9.056580 8.888642 0.052217 11697996
9.504276 10.261303 1.467307 11697996
10.673290 9.555734 3.520951 11697996
9.101762 11.165679 0.569632 11697996
9.547200 11.162225 0.456019 11697996
10.712260 8.840052 1.588350 11697996
10.406351 10.852816 2.177701 11697996
11.226728 10.911026 3.010908 11697996
11.156543 8.891313 2.597373 11697996
9.900610 10.786216 3.922889 11697996
9.429331 10.384809 3.954150 11697996
9.130772 9.183836 3.169006 11697996
9.132072 10.557523 3.389945 11697996
10.950536 11.089927 2.843926 11697996
9.584317 10.453525 2.073319 11697996
9.359702 10.005383 3.723536 11697996
10.942692 9.738171 3.795038 11697996
9.612465 9.063741 0.428905 11697996
9.097857 9.198865 0.584997 11697996
9.529593 9.042605 1.347259 11697996
9.708896 10.349740 3.272983 11697996
10.796111 9.315109 0.750634 11697996
9.036448 10.167594 1.968045 11697996
9.520246 10.526026 1.064075 11697996
10.137825 9.257337 2.758912 11697996
9.481855 10.202129 0.036758 11697996
9.392043 9.183725 0.237290 11697996
10.808904 9.882442 1.474979 11697996
9.826995 10.753077 0.164642 11697996
8.996242 9.683323 0.908720 11697996
10.208215 9.422098 2.042516 11697996
10.878918 9.226570 1.059430 11697996
8.868867 10.242166 1.891466 11697996
8.786694 10.991970 3.591962 11697996
10.606490 9.105951 2.365037 11697996
9.334517 10.920059 1.810915 11697996
10.594723 9.905313 0.528832 11697996
9.472821 9.133826 3.708447 11697996
10.345811 10.268018 0.026514 11697996
10.719796 9.022480 3.713586 11697996
9.118669 11.106874 3.975956 11697996
10.263302 9.295265 1.945587 11697996
8.805514 9.002057 3.693789 11697996
10.286165 9.253769 2.656108 11697996
9.728967 10.001034 3.929484 11697996
8.780448 9.789659 1.487011 11697996
9.238573 10.462153 2.150026 11697996
9.639553 10.663589 2.776044 11697996
9.287157 9.852821 2.139720 11697996
8.785578 10.272240 3.221527 11697996
9.308663 10.970830 0.112461 11697996
8.807836 9.443903 2.489401 11697996
10.853115 9.809363 1.532145 11697996
10.250649 9.805749 1.764891 11697996
10.441448 10.075101 2.353449 11697996
10.134745 9.177314 2.926524 11697996
10.110455 10.326290 3.501200 11697996
9.143236 10.106995 1.003579 11697996
9.352285 8.835832 2.625587 11697996
11.247615 11.156313 1.266087 11697996
9.102368 10.173130 2.618408 11697996
9.620865 9.712952 2.741421 11697996
9.366287 9.753817 1.714098 11697996
9.385385 10.831195 3.600280 11697996
10.698803 8.829548 2.799264 11697996
10.145678 9.346105 1.579921 11697996
10.906849 10.693692 3.839773 11697996
9.079433 9.441983 3.331488 11697996
10.091180 9.622264 0.849099 11697996
9.218091 10.957333 0.456596 11697996
9.045254 11.008644 1.945459 11697996
10.925039 10.852427 1.342317 11697996
9.883490 9.244531 3.220425 11697996
10.366872 9.842123 1.378030 11697996
10.277562 9.871686 3.895620 11697996
9.425294 9.095761 3.598033 11697996
9.782897 10.475410 3.198921 11697996
8.995459 9.815802 2.811749 11697996
10.342132 11.004852 0.414577 11697996
10.095743 10.996951 3.009207 11697996
9.018473 9.500938 0.258134 11697996
8.788504 10.186291 0.978403 11697996
9.703689 10.667424 0.584449 11697996
10.375479 10.165410 3.297590 11697996
9.112961 10.255647 3.646741 11697996
11.224196 10.336761 2.514724 11697996
10.909300 10.027247 2.859239 11697996
10.173098 10.000576 0.133237 11697996
10.526294 9.424792 1.645001 11697996
9.119187 9.145234 0.520545 11697996
8.910136 10.910190 0.498910 11697996
9.114603 10.216086 2.254947 11697996
9.805881 10.622130 2.021360 11697996
10.940434 9.391702 3.374623 11697996
9.001878 10.754768 2.046150 11697996
8.843173 10.112260 2.797486 11697996
9.747196 10.079772 0.656272 11697996
10.729429 10.697124 0.487056 11697996
9.345682 10.112251 3.224487 11697996
8.759654 8.960369 1.718633 11697996
9.647291 9.701439 1.434560 11697996
9.590816 11.106878 2.500634 11697996
11.049638 9.887896 2.849794 11697996
9.440539 9.386575 2.576614 11697996
9.315185 9.622392 1.661281 11697996
10.552632 11.199950 0.395328 11697996
9.205976 8.922912 3.408382 11697996
10.579452 9.778473 2.327032 11697996
9.985283 10.666460 1.603472 11697996
9.797454 11.191712 2.135938 11697996
10.632622 11.000198 2.311845 11697996
9.740630 11.132751 3.446064 11697996
10.107325 8.950830 0.076623 11697996
9.774039 10.475448 1.653902 11697996
8.852249 9.786124 2.758470 11697996
10.138268 9.905089 2.380521 11697996
10.950305 9.908051 1.849155 11697996
10.099563 10.688827 1.110293 11697996
9.261011 8.998426 3.207808 11697996
9.640875 9.665030 0.834253 11697996
9.769191 10.158878 0.997110 11697996
10.027133 9.944444 2.440414 11697996
11.216221 10.506376 3.315619 11697996
9.633674 9.952570 1.896033 11697996
10.655510 8.818610 0.234704 11697996
11.140420 9.327449 0.019933 11697996
11.126306 9.324139 0.826279 11697996
9.735188 10.295806 1.597854 11697996
10.368489 8.956300 0.667953 11697996
11.134689 8.904268 2.792130 11697996
11.206725 9.430565 3.289189 11697996
11.101681 9.194414 2.082433 11697996
11.173721 10.754867 3.907116 11697996
10.546535 9.714071 2.560749 11697996
10.117961 10.154611 0.341094 11697996
10.786661 10.475182 1.390917 11697996
9.512076 8.785414 1.528975 11697996
9.336911 9.935483 3.462437 11697996
10.727414 10.525684 2.091453 11697996
10.878262 8.805307 2.251861 11697996
9.026488 8.891088 3.404411 11697996
10.211091 10.767041 0.412959 11697996
11.145738 10.933623 3.477771 11697996
10.636827 10.438436 3.073123 11697996
9.342172 10.011459 3.402426 11697996
10.438528 11.094211 0.766058 11697996
10.081559 9.362406 0.882894 11697996
10.547710 10.377120 1.695473 11697996
10.014787 10.156990 3.401399 11697996
9.619996 10.050487 2.763469 11697996
10.532287 9.166630 1.151843 11697996
9.985463 9.587303 1.774042 11697996
10.778091 10.248981 1.756765 11697996
10.667850 11.039039 0.915491 11697996
11.074708 9.846212 2.100881 11697996
10.459914 10.201919 1.532393 11697996
11.073683 9.275858 3.911413 11697996
9.199335 9.713696 2.554828 11697996
10.544521 10.316656 2.298998 11697996
9.558163 10.823985 1.703762 11697996
10.520035 9.516726 3.961637 11697996
10.305333 10.344883 1.568602 11697996
9.289167 9.752471 0.315049 11697996
9.024725 10.646621 2.504250 11697996
11.055491 11.010313 2.960876 11697996
9.275681 9.510006 0.113167 11697996
9.417571 10.516562 2.623187 11697996
9.251043 10.084229 -0.019940 11697996
10.386014 9.592587 0.285516 11697996
9.943336 11.043548 1.111144 11697996
10.078852 9.884896 0.981935 11697996
9.972339 9.903324 1.798383 11697996
8.939714 9.015661 0.511279 11697996
10.177329 10.358519 3.619701 11697996
10.783648 10.456303 1.524137 11697996
9.288661 10.531822 3.035962 11697996
8.988477 9.314468 3.932116 11697996
9.300492 9.376241 3.749898 11697996
10.509673 10.344712 0.146405 11697996
11.230339 11.060400 2.786295 11697996
10.109307 10.432353 3.994167 11697996
9.020983 11.041896 2.461485 11697996
9.988720 10.607887 1.060438 11697996
10.731634 10.406647 0.972036 11697996
10.296095 9.888547 1.939411 11697996
9.261481 9.844975 3.109143 11697996
10.856629 9.969968 1.299609 11697996
11.253424 8.812815 0.174096 11697996
9.283016 9.584760 1.894162 11697996
9.449748 10.216814 3.912433 11697996
10.622844 10.926247 2.727645 11697996
9.782331 9.418610 2.238208 11697996
11.183297 10.725829 1.659253 11697996
9.095069 10.810661 0.275005 11697996
9.638828 9.675429 0.127457 11697996
9.734157 9.029094 2.272932 11697996
9.840850 11.049643 3.548926 11697996
10.616304 9.113288 3.465566 11697996
9.439660 10.164277 1.839731 11697996
9.649350 9.859302 3.424343 11697996
10.221291 9.568722 3.185848 11697996
10.892796 8.777002 0.609855 11697996
10.168509 9.811536 1.643202 11697996
9.434592 9.014429 3.366407 11697996
10.113254 10.810154 2.297887 11697996
10.143790 9.897132 3.399090 11697996
9.767834 9.052533 3.026355 11697996
11.153574 9.558426 1.212589 11697996
9.192636 9.613813 2.734948 11697996
9.132194 10.099847 1.856514 11697996
11.029214 10.289086 3.405419 11697996
9.055256 9.576277 0.198508 11697996
10.618688 9.815476 1.388276 11697996
10.996665 10.164408 0.081874 11697996
10.453995 10.186047 2.315948 11697996
10.411178 10.577109 2.558312 11697996
10.942706 9.805144 3.774898 11697996
9.460157 10.722574 3.102784 11697996
8.796853 9.787670 3.745962 11697996
10.403708 9.052240 0.415469 11697996
8.871435 9.605096 0.117731 11697996
10.933341 9.889130 1.925474 11697996
10.402567 10.346968 1.405706 11697996
9.026358 9.196145 1.539401 11697996
11.026389 8.940201 1.389916 11697996
9.204673 10.477158 1.186173 11697996
9.559019 11.028308 0.761113 11697996
10.646320 10.970906 2.840621 11697996
11.143881 10.786843 0.127595 11697996
9.129954 8.851843 0.254266 11697996
9.897985 10.003732 3.883930 11697996
10.434479 9.575897 2.684919 11697996
11.048601 10.874269 2.949910 11697996
10.001855 10.782878 0.105612 11697996
10.299392 9.033919 0.280308 11697996
10.403063 10.936882 0.981887 11697996
8.753040 9.444198 0.782096 11697996
9.320922 11.055467 1.246744 11697996
10.723282 9.007951 1.543220 11697996
10.001631 10.631562 0.390142 11697996
10.709205 9.851593 1.723553 11697996
10.260168 10.074284 3.919258 11697996
10.617838 9.420112 3.056566 11697996
10.130712 11.152920 0.309017 11697996
9.021422 9.874205 1.734532 11697996
9.559714 10.118828 3.787831 11697996
9.738915 10.795393 1.253240 11697996
11.014887 11.013461 0.440158 11697996
10.266131 9.181444 2.170348 11697996
8.788120 9.110693 1.851722 11697996
8.789063 9.214767 1.239654 11697996
8.846334 9.569697 2.066251 11697996
9.344937 10.821984 1.786408 11697996
9.008109 10.309750 2.111724 11697996
8.978460 10.667731 2.015245 11697996
9.155929 10.535063 0.343326 11697996
10.112912 11.194753 2.698321 11697996
9.288477 10.179534 3.523815 11697996
11.091083 10.564178 2.667116 11697996
10.701248 9.785988 0.692465 11697996
9.619982 8.988765 2.042459 11697996
10.343443 10.290732 3.023364 11697996
10.192191 9.197856 1.908086 11697996
11.225246 9.859698 1.997205 11697996
11.073899 9.217190 2.203979 11697996
9.969873 11.025919 1.751937 11697996
11.228909 9.496306 1.493528 11697996
9.947939 9.151674 1.396921 11697996
10.671643 10.544030 3.115664 11697996
11.081666 11.185732 3.793941 11697996
9.933648 9.186843 3.619280 11697996
11.201292 11.133505 0.589047 11697996
9.170554 9.189695 3.867959 11697996
10.827839 10.274920 2.578283 11697996
10.119155 10.176739 0.347731 11697996
9.819059 10.230799 0.563373 11697996
10.373563 8.745914 0.299761 11697996
10.439458 9.614442 2.678026 11697996
9.464960 9.171220 2.367249 11697996
8.755702 10.505039 3.926891 11697996
10.862173 10.070546 2.883519 11697996
10.556440 11.018785 3.443067 11697996
9.088533 9.733352 3.623110 11697996
8.821996 9.488185 0.867319 11697996
9.323991 10.826363 2.051394 11697996
10.162539 9.493575 2.929485 11697996
9.659239 9.837527 0.671487 11697996
11.062523 9.842595 2.096576 11697996
10.069689 10.336044 2.330046 11697996
10.752915 11.128210 1.842540 11697996
10.192771 9.669675 3.225769 11697996
8.827143 9.204444 0.246815 11697996
10.755307 9.794110 3.111124 11697996
11.169091 8.785239 1.019606 11697996
9.716867 10.476993 2.724773 11697996
10.917627 10.553382 1.835873 11697996
9.799971 10.816994 3.926480 11697996
10.678386 10.389154 0.144089 11697996
11.040354 8.997816 0.995833 11697996
10.205656 9.200971 0.967209 11697996
10.190238 11.150091 2.428912 11697996
9.495317 10.979505 0.763711 11697996
9.551250 10.599124 0.736694 11697996
9.030346 8.954407 1.453382 11697996
10.764206 9.792952 2.753648 11697996
10.434508 9.985972 2.199182 11697996
10.558124 8.832170 2.493196 11697996
9.049498 11.150877 1.096961 11697996
9.609619 10.185987 3.559263 11697996
9.649590 10.929124 2.904058 11697996
10.588069 9.168198 0.979062 11697996
8.841633 9.151356 1.147788 11697996
11.109112 10.700238 1.712903 11697996
8.942255 9.636326 3.320486 11697996
10.703916 9.100443 2.204125 11697996
10.698265 9.857304 3.870868 11697996
8.889084 9.391185 1.900093 11697996
9.988175 9.262704 1.362676 11697996
10.589002 9.916911 0.770060 11697996
9.541108 10.791004 3.139480 11697996
9.196819 9.584738 3.064927 11697996
10.230018 9.463314 2.899905 11697996
11.228118 9.868278 0.517866 11697996
10.861689 9.484970 0.492261 11697996
10.008847 11.170265 0.791285 11697996
9.636086 9.357336 0.575700 11697996
9.506087 9.579007 3.619136 11697996
9.733045 9.367707 3.484462 11697996
9.856468 10.000578 3.167618 11697996
9.222791 9.761300 2.412075 11697996
9.611724 9.339025 1.779455 11697996
8.808311 9.991206 0.801738 11697996
10.813447 10.549220 0.123926 11697996
8.877147 10.715348 0.357038 11697996
11.094095 11.187427 3.631373 11697996
10.430956 9.276818 1.171305 11697996
10.362166 8.854359 3.438110 11697996
11.155673 11.235788 3.772496 11697996
10.988611 9.765550 1.155722 11697996
11.045842 9.337297 2.885806 11697996
10.014257 10.884932 3.833369 11697996
9.962402 9.946975 2.945770 11697996
10.650069 11.041136 1.438928 11697996
9.923739 10.928999 0.952396 11697996
9.788929 9.616911 2.252657 11697996
10.745998 9.320110 3.292149 11697996
9.492577 9.707638 0.257091 11697996
10.500713 9.092752 2.440022 11697996
8.837023 9.319474 1.308628 11697996
10.562417 9.538051 3.642995 11697996
11.098727 9.072789 1.279487 11697996
10.334557 8.800632 1.710828 11697996
10.898876 10.718340 2.700360 11697996
9.599835 8.985723 1.285859 11697996
8.779682 9.704299 0.380532 11697996
8.843366 9.089869 3.122158 11697996
10.583333 10.737797 2.088966 11697996
10.444952 9.881997 1.388285 11697996
10.378245 8.956955 3.773342 11697996
10.366454 10.719394 2.329167 11697996
11.029407 8.849124 0.140665 11697996
9.018639 9.489541 2.727142 11697996
10.511353 9.715803 2.956631 11697996
10.759998 10.265665 3.100869 11697996
10.410681 8.966503 1.403716 11697996
10.106061 9.647184 2.041496 11697996
9.553895 11.042349 1.938009 11697996
9.734607 9.513599 1.404796 11697996
9.304767 10.508042 3.848357 11697996
10.887327 9.669744 0.663455 11697996
9.782166 10.576140 2.620913 11697996
8.840734 9.861858 1.612043 11697996
10.283211 10.309039 3.750668 11697996
8.737981 9.752522 1.676775 11697996
9.399267 10.157952 1.824928 11697996
9.449015 9.540186 0.065170 11697996
9.890901 10.167826 1.863424 11697996
9.468311 8.771828 2.156914 11697996
9.438278 10.134463 0.427244 11697996
9.324987 8.807101 3.959514 11697996
8.940859 10.382878 2.425465 11697996
9.632780 10.051090 1.660759 11697996
9.293898 9.864921 0.885339 11697996
10.760225 10.857047 1.384817 11697996
11.157495 9.891981 3.175927 11697996
10.569020 10.242014 1.253623 11697996
8.935626 10.614451 3.705125 11697996
10.533389 10.225272 2.779421 11697996
9.691948 9.268394 3.556614 11697996
10.941201 11.151828 0.927821 11697996
10.376563 10.664587 2.592719 11697996
10.182837 10.673627 1.226607 11697996
10.485985 9.468663 2.196015 11697996
9.890115 9.343096 0.036099 11697996
9.610480 10.689967 0.567479 11697996
10.337170 9.270482 0.272951 11697996
9.036609 10.790347 0.484943 11697996
10.414233 10.919840 2.002238 11697996
10.073824 9.077956 2.650455 11697996
10.193875 9.214805 3.802591 11697996
10.833679 9.836294 2.884549 11697996
10.324869 11.165439 1.071589 11697996
10.976588 9.102347 0.523005 11697996
11.157990 10.056067 1.408307 11697996
9.391782 10.242456 3.568823 11697996
9.065142 8.802908 1.253828 11697996
10.357588 10.546174 1.374883 11697996
8.920998 8.884653 3.245600 11697996
10.238297 9.179519 3.922272 11697996
9.126532 10.325705 2.634114 11697996
9.235432 9.811897 0.679362 11697996
9.832979 11.071527 3.337236 11697996
8.968576 10.293934 3.197382 11697996
8.827063 11.232059 2.883303 11697996
9.411127 10.307428 3.583192 11697996
11.146924 11.194817 0.505432 11697996
8.967882 9.262094 0.623876 11697996
10.239901 8.997990 3.699135 11697996
10.454377 11.088212 0.592935 11697996
8.747720 9.836509 3.621148 11697996
10.137738 10.343129 3.553023 11697996
9.576899 10.193872 1.111357 11697996
9.716084 8.768228 3.099674 11697996
10.044709 9.503191 3.112789 11697996
10.552870 9.824994 2.846464 11697996
9.381788 9.005604 1.027477 11697996
10.804579 11.067859 1.601390 11697996
9.923291 9.337238 3.088788 11697996
10.358102 9.396881 1.319533 11697996
10.371954 10.910682 3.348338 11697996
8.830379 9.644784 1.903568 11697996
9.234970 10.806561 3.038208 11697996
9.397761 10.814988 1.287095 11697996
9.308574 9.881419 2.359110 11697996
11.110334 9.023260 0.173077 11697996
10.073508 9.007936 1.881621 11697996
10.684011 9.892486 1.086055 11697996
10.341128 10.208751 0.618735 11697996
10.952826 9.652985 3.084646 11697996
8.838140 10.652788 1.587467 11697996
10.248240 9.635935 3.058164 11697996
9.023724 10.544512 3.400504 11697996
10.233294 10.450499 0.006113 11697996
9.064134 10.359988 2.166384 11697996
9.839311 10.471622 1.651305 11697996
10.061280 9.859879 1.496387 11697996
10.881551 9.875548 1.299723 11697996
9.469655 8.958113 1.821043 11697996
10.564320 9.212146 2.185489 11697996
11.179845 10.337461 3.124305 11697996
11.229358 9.358605 3.440824 11697996
9.947848 9.040509 1.587293 11697996
10.915154 9.815955 1.155547 11697996
11.256529 10.072818 0.429316 11697996
9.858251 8.777493 2.281405 11697996
10.034424 9.536514 2.350685 11697996
10.004102 10.749742 1.754255 11697996
9.945750 9.946596 2.848808 11697996
9.987493 10.697577 3.797923 11697996
