# .PCD v0.7 - Point Cloud Data file format
VERSION 0.7
FIELDS x y z rgb
SIZE 4 4 4 4
TYPE F F F U
COUNT 1 1 1 1
WIDTH 1291
HEIGHT 1
VIEWPOINT 0 0 0 1 0 0 0
POINTS 1291
DATA ascii
6.701324 -32.271961 1.235692 16731212
7.080842 -32.347347 0.581767 16731212
7.144331 -32.348732 1.043848 16731212
6.966327 -32.535553 0.930940 16731212
7.159093 -32.659710 0.469973 16731212
7.247879 -32.539711 1.330010 16731212
7.085510 -32.496429 0.569411 16731212
6.804244 -32.516636 1.080477 16731212
7.151448 -32.627281 0.896321 16731212
7.197026 -32.302822 0.570070 16731212
6.748800 -32.413944 1.068822 16731212
7.260745 -32.326416 1.347636 16731212
6.810820 -32.498177 1.155870 16731212
6.662426 -32.488873 0.925938 16731212
6.909987 -32.643684 1.474957 16731212
6.661568 -32.636986 0.721627 16731212
7.254547 -32.809673 0.974621 16731212
6.848869 -32.400734 1.231208 16731212
7.066949 -32.284054 1.546466 16731212
6.719102 -32.755447 0.437944 16731212
7.209124 -32.200222 0.849002 16731212
6.716773 -32.720470 1.452682 16731212
6.949223 -32.692059 1.164872 16731212
7.119710 -32.536026 0.465452 16731212
6.891051 -32.274136 0.504992 16731212
6.750616 -32.350155 0.569057 16731212
-6.891417 32.523407 1.007780 5000447
-7.083778 32.420235 1.029526 5000447
-7.359663 32.584675 0.769373 5000447
-7.285527 32.191975 0.665205 5000447
-7.115900 32.677868 0.865658 5000447
-6.615577 32.216831 0.659994 5000447
-6.945897 32.857513 0.795632 5000447
-6.952342 32.445152 1.044525 5000447
-6.906375 32.388401 0.627297 5000447
-6.664982 32.227219 1.280666 5000447
-7.168621 32.269100 1.181887 5000447
-6.614387 32.946629 0.960585 5000447
-6.702274 32.720737 0.989572 5000447
-6.971289 32.904663 1.215770 5000447
-7.285021 32.185555 0.914999 5000447
-6.757338 32.246906 0.861276 5000447
-7.227152 32.909733 1.007784 5000447
-6.896010 32.827637 1.073389 5000447
-6.768054 32.402077 0.994724 5000447
-6.939485 32.497993 1.122355 5000447
-6.654713 32.580139 0.572543 5000447
-6.727228 32.870548 1.247643 5000447
-7.173332 32.913933 1.312926 5000447
-6.683967 32.728970 1.381304 5000447
-6.593332 32.161495 0.905993 5000447
-7.184301 32.350517 1.168507 5000447
-6.725772 32.473804 1.245725 5000447
-7.228972 32.872681 1.043010 5000447
-7.165712 32.081013 0.988372 5000447
-6.880368 32.129936 1.232953 5000447
-6.539527 32.225410 1.312916 5000447
-6.612534 32.284824 1.439182 5000447
-6.906208 32.393570 0.991387 5000447
-6.922408 32.809193 1.222627 5000447
-6.871346 32.501972 1.325909 5000447
-6.605208 32.176968 1.430958 5000447
-6.772100 32.410412 1.438156 5000447
-6.994928 32.181461 1.012154 5000447
-6.611986 32.739620 0.989657 5000447
-7.407907 32.207874 0.871906 5000447
-7.156685 32.843739 1.364906 5000447
-6.550479 32.623890 0.813262 5000447
-6.524436 32.518417 1.001008 5000447
-6.821990 32.596985 0.970000 5000447
-6.928658 32.311802 1.037784 5000447
-6.733013 32.074001 1.115866 5000447
-6.659886 32.918667 1.257703 5000447
-6.718551 32.492298 1.155071 5000447
-6.691243 32.592644 1.357306 5000447
-6.956960 32.317486 1.268588 5000447
-7.085465 32.574936 1.182693 5000447
-7.115579 32.669914 1.227277 5000447
-6.766924 32.853123 1.327443 5000447
-6.917669 32.138313 1.070622 5000447
-6.685537 32.601166 0.902665 5000447
-7.376915 32.854382 0.731560 5000447
-6.611453 32.804596 1.138172 5000447
-6.779035 32.083466 1.245706 5000447
-7.191623 32.858814 0.603932 5000447
-7.111794 32.734924 0.620417 5000447
-7.128999 32.535446 1.401394 5000447
-7.152428 32.357613 0.938697 5000447
-6.545547 32.144089 0.759674 5000447
-6.611130 32.138477 0.733688 5000447
-6.562426 32.370426 1.128244 5000447
-6.535033 32.109680 1.256708 5000447
-7.313674 32.208813 0.584976 5000447
-6.796983 32.341030 0.864046 5000447
-7.265549 32.337769 0.870780 5000447
-7.015013 32.893162 0.789448 5000447
-6.647923 32.450802 1.310848 5000447
-6.602555 32.307476 1.295066 5000447
-6.571581 32.839245 0.700237 5000447
-6.677650 32.911877 1.448143 5000447
-7.035028 32.655041 0.981600 5000447
-6.797606 32.451603 0.708516 5000447
-6.903157 32.908550 1.451066 5000447
-6.986603 32.841003 0.685195 5000447
-7.230616 32.224453 0.639452 5000447
-7.276626 32.808971 0.761809 5000447
29.288654 -5.454852 1.175755 5033036
29.568687 -5.454609 1.285990 5033036
29.516861 -5.587566 1.531235 5033036
29.075262 -5.456851 0.622169 5033036
29.105888 -5.898117 1.189728 5033036
29.571070 -5.804879 1.409169 5033036
29.148748 -5.736806 0.330934 5033036
29.455164 -5.481662 0.268136 5033036
29.584082 -5.437194 1.269475 5033036
29.615936 -5.925548 0.527475 5033036
29.365585 -5.373799 1.377323 5033036
29.354416 -5.375887 1.623527 5033036
29.437426 -5.406370 0.485603 5033036
29.354900 -5.737288 0.609247 5033036
29.296883 -5.653418 0.980410 5033036
29.262358 -5.719970 0.489299 5033036
29.492630 -5.481983 0.874228 5033036
29.207623 -5.771868 0.670601 5033036
29.322479 -5.429421 1.376737 5033036
29.581779 -5.585701 0.655126 5033036
29.545527 -5.398878 0.646871 5033036
29.091082 -5.571585 0.994650 5033036
29.535534 -5.589869 0.451373 5033036
29.266693 -6.072345 1.614666 5033036
29.055351 -5.652637 0.377353 5033036
29.530756 -5.475272 0.644138 5033036
29.067032 -5.782903 0.472108 5033036
29.107738 -5.700887 0.741849 5033036
29.392134 -5.702255 1.160150 5033036
29.514601 -5.763694 1.078725 5033036
29.249971 -5.752811 1.466204 5033036
29.493546 -5.604995 1.584423 5033036
29.028109 -5.686310 1.008967 5033036
29.162241 -5.687502 1.136301 5033036
29.342556 -5.915563 0.855482 5033036
28.983894 -5.780002 0.698355 5033036
29.122931 -6.019100 1.241285 5033036
29.487993 -5.641228 1.230309 5033036
29.502567 -5.787733 1.511241 5033036
28.973171 -5.553873 1.302640 5033036
29.222998 -5.800330 0.436249 5033036
29.407013 -5.425416 0.746417 5033036
29.313721 -5.597717 1.206398 5033036
29.525579 -5.705925 0.532827 5033036
29.101559 -5.479921 0.722849 5033036
29.397455 -5.644013 1.127826 5033036
29.581646 -5.424523 1.122620 5033036
29.640772 -5.477811 1.578562 5033036
29.278463 -5.566395 0.584124 5033036
29.545492 -5.479868 1.728302 5033036
29.554346 -5.915971 1.741319 5033036
29.453812 -5.676262 1.182057 5033036
29.413712 -5.854261 1.029312 5033036
29.319775 -5.999595 0.608488 5033036
29.433678 -5.988460 1.339502 5033036
29.096424 -5.843847 0.889842 5033036
29.649446 -5.574680 0.994632 5033036
28.997789 -5.622456 1.361996 5033036
29.638205 -5.589849 1.659353 5033036
29.314964 -5.948924 0.889580 5033036
29.687639 -5.785937 1.449891 5033036
29.349932 -5.893533 0.978131 5033036
29.377634 -5.561199 1.343187 5033036
29.601337 -5.793343 1.626308 5033036
29.130564 -5.480880 1.077976 5033036
29.287022 -5.976488 1.246795 5033036
29.101837 -5.561520 0.295500 5033036
29.151445 -5.695929 1.355435 5033036
29.338177 -5.943143 0.676307 5033036
29.151276 -5.657403 0.347597 5033036
29.512259 -5.832810 1.111997 5033036
29.044498 -5.682428 0.617942 5033036
29.347080 -5.855358 0.377616 5033036
29.169014 -5.667022 0.441636 5033036
29.513435 -5.446466 0.970734 5033036
29.531879 -5.952600 0.343350 5033036
29.605949 -5.919758 1.056304 5033036
29.506824 -5.399215 1.597300 5033036
29.344465 -5.872666 1.258579 5033036
29.167440 -5.478056 0.951926 5033036
29.379772 -5.473513 1.356049 5033036
29.289120 -5.752613 0.839672 5033036
29.451834 -5.728480 0.942895 5033036
29.135853 -5.687122 0.706035 5033036
29.522856 -5.530935 0.543799 5033036
29.216902 -5.813352 1.447908 5033036
29.348080 -5.404951 1.536570 5033036
29.250908 -5.323233 1.529295 5033036
29.390673 -5.795122 1.098799 5033036
29.441151 -5.355460 1.669826 5033036
29.602829 -5.595518 0.677800 5033036
29.356743 -5.523032 1.287508 5033036
29.120581 -5.806363 0.251965 5033036
29.664497 -5.566844 0.460469 5033036
10.386032 10.865820 0.608968 11697996
9.398293 10.512138 0.576274 11697996
10.347625 9.854737 3.152857 11697996
9.922062 10.786464 3.848989 11697996
10.723177 9.992374 0.378873 11697996
8.957614 8.848347 3.312792 11697996
10.556481 10.799686 3.405997 11697996
11.166895 9.775344 1.807824 11697996
10.374972 9.926654 0.672256 11697996
10.929656 10.994937 3.413205 11697996
10.827942 10.959345 3.298729 11697996
11.100334 9.849757 1.136055 11697996
10.631380 10.366755 0.235936 11697996
10.030414 9.119639 1.549013 11697996
8.879290 9.879235 0.237444 11697996
10.245511 10.568627 2.932142 11697996
9.099495 9.896052 1.617080 11697996
10.222555 9.743225 0.587839 11697996
8.777496 8.800550 3.744211 11697996
9.183201 11.120005 3.844984 11697996
9.327064 10.347317 1.017087 11697996
9.273182 9.014622 3.755980 11697996
10.759136 9.288690 2.970374 11697996
10.112278 10.294912 3.347154 11697996
9.013896 10.023921 3.549381 11697996
9.337059 10.771366 1.482367 11697996
10.978292 10.800863 1.944140 11697996
10.231984 9.812186 1.793756 11697996
9.371646 11.159177 3.170950 11697996
8.945206 10.138253 3.951027 11697996
8.813816 10.308289 1.491485 11697996
9.396229 8.764216 0.222929 11697996
9.305172 10.113205 2.621820 11697996
10.697597 9.847652 0.766961 11697996
10.183071 10.770269 0.146074 11697996
9.447974 10.882764 2.760527 11697996
10.135553 9.768371 1.892292 11697996
9.674970 11.174425 3.624870 11697996
9.954890 8.816175 1.752955 11697996
9.275308 9.875431 3.364655 11697996
10.311837 9.635748 2.829798 11697996
10.557320 10.541545 1.496494 11697996
10.692138 8.825963 1.182631 11697996
10.171003 9.687035 2.996260 11697996
9.677035 9.755827 0.831346 11697996
10.723543 10.280048 1.542863 11697996
10.954796 10.355543 2.803993 11697996
10.459168 10.950368 0.931418 11697996
10.546760 11.263680 3.393553 11697996
9.816605 9.841441 2.147162 11697996
8.900684 10.326940 3.501934 11697996
9.587831 9.874531 1.605354 11697996
9.503463 9.268714 3.710831 11697996
10.890499 9.286201 3.590243 11697996
11.199445 9.473436 0.811305 11697996
9.978550 10.186781 2.887346 11697996
10.946456 10.289273 1.090632 11697996
9.716681 10.209722 2.153827 11697996
11.022792 10.388915 2.897126 11697996
9.053210 10.924660 0.032964 11697996
9.144674 8.735027 3.470078 11697996
10.358968 9.752496 3.935205 11697996
9.170908 9.729231 1.161341 11697996
10.750012 10.897783 1.381861 11697996
10.938772 10.323598 3.582069 11697996
10.513652 9.601346 2.856819 11697996
9.160682 9.065630 1.419876 11697996
10.753428 10.087919 2.552950 11697996
10.666941 10.300504 1.669021 11697996
9.741937 11.033278 0.936871 11697996
9.396435 9.713850 3.361680 11697996
11.075372 9.625660 2.002612 11697996
8.865586 8.815382 3.076691 11697996
10.838625 9.952138 1.332710 11697996
9.080932 11.071483 2.117096 11697996
9.812863 9.906867 1.161545 11697996
9.052526 9.386209 0.603767 11697996
10.310707 10.444669 3.012647 11697996
8.884581 10.871410 1.528641 11697996
10.609859 9.424414 0.344910 11697996
9.508593 11.076664 0.931502 11697996
8.790588 10.368324 3.911267 11697996
11.166845 10.385515 2.870450 11697996
10.535823 10.486409 0.053543 11697996
10.356412 10.866345 1.813520 11697996
8.976653 11.095254 0.533813 11697996
9.493011 9.323596 0.244061 11697996
11.108382 9.413064 0.190262 11697996
9.048077 9.595368 1.779707 11697996
9.392720 9.233760 -0.004697 11697996
9.739359 10.240556 2.347724 11697996
9.147427 10.035361 3.965996 11697996
9.318701 9.168445 3.921892 11697996
10.474357 11.068249 1.884113 11697996
10.431589 10.567666 2.959816 11697996
10.690777 10.980116 3.172536 11697996
9.567427 11.077187 0.543706 11697996
9.757365 9.530646 0.613584 11697996
11.014357 9.827368 1.318530 11697996
8.824221 9.804156 0.338583 11697996
10.321897 9.027507 2.331088 11697996
9.197947 11.121127 2.030067 11697996
10.722681 10.974375 1.158622 11697996
10.749963 9.845654 2.765295 11697996
10.093676 10.701918 1.649725 11697996
9.594845 11.258081 2.101197 11697996
10.493191 9.829168 0.540603 11697996
9.707335 11.033653 0.422608 11697996
11.078374 10.402917 0.213534 11697996
9.939658 8.929907 2.403339 11697996
9.599764 10.241867 3.511928 11697996
9.709179 9.397119 3.207389 11697996
10.357327 9.622998 0.921892 11697996
10.115754 9.666754 3.077267 11697996
9.098214 9.775543 1.544555 11697996
9.554043 8.907619 1.814702 11697996
10.258354 9.591706 2.345007 11697996
10.624634 10.317664 3.392462 11697996
11.018081 10.121686 0.253164 11697996
10.212936 8.776631 1.874378 11697996
10.768066 11.053462 1.121008 11697996
9.908677 9.303773 0.328861 11697996
9.122890 8.818882 0.410272 11697996
9.631621 10.116161 1.107280 11697996
11.150108 10.907698 2.074675 11697996
9.776546 10.329000 3.632145 11697996
9.811280 9.632282 3.595346 11697996
10.374764 9.527661 1.033220 11697996
8.753821 10.557954 3.548683 11697996
10.439816 10.239199 3.848957 11697996
10.087397 9.853671 0.322547 11697996
9.071668 9.508087 2.980917 11697996
9.792976 9.530186 2.315375 11697996
9.883995 10.299658 2.174031 11697996
10.203496 9.217340 1.085404 11697996
11.094773 9.190639 0.564496 11697996
10.604302 9.761558 1.600511 11697996
10.788704 11.178654 1.035242 11697996
9.943302 10.190267 3.684395 11697996
10.155709 10.893775 1.460034 11697996
9.590734 8.911950 3.382651 11697996
9.750355 10.855881 3.034043 11697996
9.346839 10.014140 3.962451 11697996
10.807315 9.692567 1.415084 11697996
10.463594 10.431952 3.644945 11697996
9.396509 10.251519 0.874599 11697996
10.013618 9.069562 3.084220 11697996
10.659432 9.071333 1.831765 11697996
9.377260 10.962387 2.303090 11697996
10.884857 11.005136 0.556992 11697996
9.468872 9.648182 3.029159 11697996
9.044281 9.377563 2.335507 11697996
10.162355 8.979412 3.714111 11697996
9.080074 10.813472 1.642658 11697996
10.880776 10.054106 1.456016 11697996
9.204841 9.152030 2.055324 11697996
11.239558 9.297133 2.081171 11697996
9.160723 11.179634 1.266197 11697996
10.141171 9.962093 1.649414 11697996
9.119598 10.483324 1.257517 11697996
8.831691 9.454099 2.999438 11697996
10.787572 11.072344 2.392041 11697996
10.493484 10.935111 1.067756 11697996
9.158523 8.966156 3.932240 11697996
11.225425 8.791234 3.019581 11697996
9.127088 9.603150 1.961865 11697996
9.182182 9.970820 1.347340 11697996
9.905002 8.927299 1.625625 11697996
10.647827 10.847272 1.264493 11697996
9.088845 10.417059 1.132523 11697996
9.223627 8.711379 2.799277 11697996
10.932145 10.214154 1.269962 11697996
9.789854 9.812545 3.066430 11697996
10.329720 8.843097 0.816059 11697996
9.641443 11.050162 0.200275 11697996
10.852214 9.597225 2.429359 11697996
8.779588 10.899096 2.786877 11697996
9.256063 10.865819 2.565436 11697996
10.181099 9.536727 0.594300 11697996
9.626198 9.778680 2.322929 11697996
8.910492 8.905858 1.696546 11697996
9.634074 9.057567 1.977443 11697996
9.129261 9.391889 2.696320 11697996
9.384757 8.932412 1.399506 11697996
9.506360 8.830062 2.751357 11697996
9.657425 9.017027 2.070863 11697996
11.043018 10.340455 3.506575 11697996
9.973359 10.145552 0.498565 11697996
10.493872 10.941121 0.759275 11697996
9.969253 10.681977 1.105821 11697996
9.145828 9.557961 3.800532 11697996
8.829350 9.114387 3.374539 11697996
8.902157 8.796107 0.549970 11697996
11.088791 10.426098 2.108809 11697996
9.355362 8.760762 3.478056 11697996
10.593921 9.625335 2.056827 11697996
8.896362 11.107301 0.804079 11697996
8.843363 9.777230 3.945123 11697996
10.287034 9.657689 2.583004 11697996
10.043536 10.385381 3.408478 11697996
10.627689 10.522003 1.012995 11697996
10.540966 11.221891 0.653553 11697996
10.706405 8.926259 1.516646 11697996
10.952458 11.040376 3.316357 11697996
10.979064 10.874616 0.253800 11697996
11.144753 8.960670 0.594509 11697996
10.116450 11.070660 1.454656 11697996
8.824308 10.461643 0.771087 11697996
9.214804 8.839482 2.489486 11697996
8.963920 9.647426 0.802374 11697996
9.144955 10.851207 2.333637 11697996
9.096838 9.092926 1.510504 11697996
10.010897 9.153973 0.374616 11697996
9.829826 10.148014 1.522523 11697996
9.369166 10.377426 1.685711 11697996
11.104018 10.094453 2.777001 11697996
10.297857 9.610443 0.232855 11697996
9.324638 9.157471 0.196738 11697996
10.850897 10.746465 0.425258 11697996
11.047793 10.977036 3.512408 11697996
10.582603 9.544014 3.556598 11697996
10.567804 9.206475 3.992888 11697996
9.666203 10.476892 2.598682 11697996
10.453954 10.758060 0.963909 11697996
10.462471 9.700378 0.765993 11697996
10.855868 10.755569 0.808414 11697996
10.786689 9.715554 1.225670 11697996
10.208481 10.078353 0.825355 11697996
10.539335 9.680187 0.272778 11697996
9.041489 8.987166 3.143896 11697996
10.175239 10.794018 0.682822 11697996
9.894164 9.903688 1.943388 11697996
9.085492 11.224316 1.774307 11697996
8.780500 10.104943 2.791926 11697996
8.999233 11.175473 1.983673 11697996
9.945614 10.629338 3.861124 11697996
10.168476 9.187382 0.972995 11697996
10.443280 9.612483 1.757958 11697996
9.733608 9.091898 2.769892 11697996
10.617001 8.811048 3.743099 11697996
9.421789 10.115264 1.862201 11697996
8.924252 8.855637 0.344367 11697996
11.058979 10.728107 3.622913 11697996
9.943751 10.342310 2.319994 11697996
9.464499 10.949010 0.685441 11697996
9.226138 9.432359 1.450728 11697996
8.780228 10.409154 2.157876 11697996
9.533365 11.078046 3.379352 11697996
9.219760 9.680967 2.692582 11697996
10.746299 9.752663 1.808330 11697996
9.564534 10.806103 1.170099 11697996
11.203044 9.056603 1.293619 11697996
10.674818 9.240788 1.480406 11697996
9.791992 10.914557 2.157187 11697996
10.936375 8.823628 1.139078 11697996
10.183137 11.187469 2.088367 11697996
10.832700 9.996522 2.950346 11697996
10.262208 10.646761 3.583520 11697996
10.040009 10.426813 2.797906 11697996
8.822976 9.016592 3.201873 11697996
10.992819 10.580296 1.118676 11697996
9.681440 10.283545 3.896945 11697996
10.093060 9.701759 0.915400 11697996
10.259227 10.051888 2.909887 11697996
8.818894 10.164134 2.929222 11697996
10.870298 9.298817 1.627013 11697996
10.417191 9.604056 1.080805 11697996
9.108350 8.915380 2.763143 11697996
9.357807 8.938031 2.772937 11697996
10.097832 8.827326 1.255602 11697996
10.832140 9.286613 0.004323 11697996
10.089620 10.568849 3.303001 11697996
10.782055 10.025367 3.272911 11697996
9.916229 10.453196 2.019967 11697996
9.214510 9.232530 2.133945 11697996
8.968624 10.899076 3.894139 11697996
10.653359 9.611762 1.249095 11697996
9.250038 10.229830 1.292985 11697996
10.056545 10.817722 2.010053 11697996
11.044901 11.091906 1.240406 11697996
9.131352 10.379190 2.461553 11697996
9.586601 9.039701 1.777219 11697996
10.894801 9.557130 0.551125 11697996
9.592561 8.951949 2.821447 11697996
10.435404 11.241391 0.591076 11697996
11.128629 10.049351 1.895397 11697996
11.177837 9.715605 2.437817 11697996
10.577945 8.783258 1.203169 11697996
10.480961 11.022884 1.765637 11697996
11.181385 9.296563 0.420707 11697996
10.610649 10.622598 1.927391 11697996
9.723698 9.613997 1.427390 11697996
10.644558 9.757289 0.465766 11697996
10.773029 9.714247 0.188420 11697996
9.520244 11.214969 2.462016 11697996
9.562048 11.032746 2.382240 11697996
9.337852 8.767368 3.158454 11697996
10.899627 9.801225 1.054846 11697996
9.842752 10.634472 1.561066 11697996
9.909415 9.208635 3.305580 11697996
10.440334 10.985460 0.841633 11697996
8.773232 11.077803 0.065545 11697996
10.622715 8.950863 1.465226 11697996
10.588483 8.956320 2.479293 11697996
9.751599 9.307922 3.638645 11697996
11.071588 10.222050 2.020493 11697996
11.057220 11.061941 0.032823 11697996
11.125841 9.098517 2.001828 11697996
10.226472 9.756344 2.088693 11697996
10.013885 9.256061 0.164169 11697996
8.851241 9.167240 2.082217 11697996
9.631375 9.692712 0.195028 11697996
8.795901 9.507898 1.862647 11697996
10.506562 8.818115 1.757346 11697996
9.137656 9.577169 0.310530 11697996
11.027960 8.780330 3.794930 11697996
10.538523 8.957128 1.864373 11697996
10.166045 9.206900 2.516509 11697996
9.269264 8.961524 0.188517 11697996
9.853791 10.692328 2.428511 11697996
9.207318 10.574581 3.010719 11697996
9.917245 10.411921 1.868610 11697996
9.104461 9.695930 1.749595 11697996
9.691249 10.393720 0.395519 11697996
10.014771 10.862054 2.393749 11697996
10.693355 9.932673 2.174082 11697996
9.728500 10.395280 3.636292 11697996
9.537775 10.289016 3.965851 11697996
8.875484 10.682562 1.035192 11697996
10.068003 10.843637 1.486923 11697996
8.775786 9.716073 0.351372 11697996
8.918921 9.903207 1.381813 11697996
10.437353 8.965765 2.588904 11697996
10.628058 10.833767 0.083358 11697996
11.191548 10.220631 1.751075 11697996
10.702889 10.140201 0.581214 11697996
11.195043 8.730240 2.286732 11697996
10.964208 9.301755 0.438896 11697996
8.979553 10.460791 1.619594 11697996
10.593988 10.690502 1.013731 11697996
10.770662 10.007095 2.743344 11697996
10.751129 10.148937 1.648402 11697996
10.221517 10.693312 3.567324 11697996
10.248368 11.131885 3.156426 11697996
9.220740 10.721973 1.166475 11697996
11.205234 9.527555 0.028440 11697996
10.354342 8.772750 0.646237 11697996
9.892719 10.086238 3.804118 11697996
9.785063 10.014793 3.291456 11697996
10.851799 11.145811 1.422550 11697996
10.099038 8.904587 0.113470 11697996
10.153028 10.605280 1.192502 11697996
10.561894 9.351209 2.031542 11697996
10.902270 9.850461 1.312582 11697996
8.749578 10.552510 1.212446 11697996
10.676626 9.664116 1.816533 11697996
10.872170 9.696283 3.633390 11697996
9.693138 9.117860 3.478034 11697996
9.745349 8.868342 3.225369 11697996
11.235591 9.025022 3.918903 11697996
9.255070 9.149382 2.737979 11697996
10.341923 10.680434 1.027764 11697996
10.309746 10.129227 0.914342 11697996
11.133937 11.131351 3.602227 11697996
9.424308 11.006038 3.360671 11697996
10.481751 9.496140 2.810701 11697996
11.130665 9.670502 0.672794 11697996
9.998376 9.167319 2.460218 11697996
10.808834 9.846169 0.148067 11697996
10.394988 11.118893 0.713335 11697996
9.253735 9.416451 2.082946 11697996
10.676332 11.021379 0.785014 11697996
9.700692 8.893868 1.916930 11697996
11.135890 9.084763 2.900804 11697996
10.964771 9.821527 0.457299 11697996
10.664056 11.218197 2.728890 11697996
9.254158 10.945633 0.368417 11697996
9.033733 9.494013 0.713695 11697996
10.201400 9.441449 1.663999 11697996
9.895184 8.983498 0.021550 11697996
9.701756 9.046181 0.687439 11697996
10.783427 8.955901 0.528269 11697996
9.771382 11.078238 0.904604 11697996
11.131355 10.930448 1.824419 11697996
10.040756 8.777868 3.412778 11697996
8.916041 10.715776 2.166733 11697996
10.112906 8.891758 1.564006 11697996
10.598323 10.215285 2.181496 11697996
10.567447 10.124389 2.145194 11697996
10.931072 9.595077 3.904656 11697996
10.581965 10.723047 3.855224 11697996
9.006019 9.581804 2.329200 11697996
9.891220 10.257624 2.255484 11697996
9.939590 10.857251 2.869955 11697996
10.319973 9.285840 0.060182 11697996
9.793985 8.778692 3.449075 11697996
9.908792 8.781913 1.797304 11697996
10.590949 9.419250 0.975642 11697996
10.357224 10.217537 1.417278 11697996
9.879357 10.625679 0.959764 11697996
10.784077 8.870269 2.503110 11697996
10.855213 11.238059 3.650363 11697996
11.040886 10.711294 1.338453 11697996
10.579916 11.039637 3.482704 11697996
11.188660 10.861225 3.788229 11697996
10.910196 10.184624 2.209573 11697996
9.804036 10.574201 0.135220 11697996
10.666701 9.692429 3.065403 11697996
9.105394 10.196896 3.388184 11697996
11.186532 10.483551 3.717925 11697996
10.088242 10.838087 0.188544 11697996
9.457008 9.446508 0.193384 11697996
10.448210 10.227225 0.746210 11697996
10.237509 10.689364 0.020294 11697996
9.010406 11.040198 1.823888 11697996
9.335197 9.663042 0.141523 11697996
9.466998 8.828650 3.874527 11697996
10.335293 10.230994 3.778465 11697996
9.654072 10.997591 3.393808 11697996
11.152346 9.800382 0.827995 11697996
9.546499 9.714325 0.795106 11697996
10.570498 10.529384 2.064789 11697996
10.210213 8.857806 2.199293 11697996
10.024006 10.677969 1.633691 11697996
10.338626 9.823486 0.685409 11697996
9.813512 11.185763 0.431580 11697996
10.676734 9.783086 1.135850 11697996
10.456182 9.687791 3.564605 11697996
9.870773 10.541414 2.292621 11697996
11.212152 9.908721 0.337900 11697996
9.709196 9.299564 1.382063 11697996
9.001994 10.375854 3.628103 11697996
9.951129 9.056418 2.190214 11697996
11.233557 9.553580 1.026274 11697996
9.027008 9.924464 1.597447 11697996
11.220452 9.988183 0.249074 11697996
9.221141 11.122781 2.515516 11697996
10.833347 9.645289 1.827478 11697996
10.522715 10.562598 0.247989 11697996
10.733833 10.751857 2.392163 11697996
10.491672 10.087038 1.795541 11697996
11.199061 9.027417 0.985370 11697996
9.625502 11.124084 0.187094 11697996
9.568862 10.070471 3.709415 11697996
10.113594 9.719989 2.416062 11697996
9.401283 10.852038 2.717911 11697996
11.047180 10.490222 1.323573 11697996
9.076187 9.044703 0.988359 11697996
9.003614 10.352781 2.573154 11697996
10.821761 9.295091 0.054688 11697996
10.221188 10.635223 2.714961 11697996
9.627941 8.778662 3.558258 11697996
10.644661 10.446034 0.572224 11697996
10.684779 8.914979 2.189622 11697996
9.763541 10.104515 1.049582 11697996
10.077404 9.180634 2.365408 11697996
9.523699 9.698436 1.452953 11697996
8.976795 9.286466 0.228560 11697996
10.304638 9.856890 2.263499 11697996
10.786703 10.578967 3.730755 11697996
9.557960 9.242978 0.126620 11697996
9.620837 10.243028 0.515359 11697996
10.455910 9.259561 1.151102 11697996
9.466960 9.303987 2.766782 11697996
10.059628 9.194662 3.898562 11697996
11.160500 9.972651 2.730737 11697996
10.860282 9.617287 1.454679 11697996
10.126916 10.678215 3.822457 11697996
10.303900 10.797178 1.996310 11697996
10.980523 10.484192 1.395692 11697996
11.172259 10.802825 0.680232 11697996
9.735673 10.505540 1.094439 11697996
8.975627 9.836185 3.440056 11697996
11.063537 9.512180 3.169022 11697996
9.475168 10.711047 2.726594 11697996
10.222841 9.654974 1.957472 11697996
10.436267 9.142904 2.811883 11697996
11.258568 8.779027 3.255359 11697996
11.218081 9.966215 1.435919 11697996
10.381909 10.987490 0.376815 11697996
9.735598 11.138518 3.051855 11697996
9.614627 10.591392 1.471116 11697996
10.689827 9.468022 2.483913 11697996
10.238557 10.478776 3.885853 11697996
10.142125 10.865926 3.557006 11697996
9.208160 10.212303 2.129900 11697996
11.162812 10.979425 0.427460 11697996
10.304961 9.404627 3.723085 11697996
11.233425 9.633233 1.479551 11697996
10.355373 11.229623 3.810689 11697996
9.979720 9.618566 3.611417 11697996
11.117376 9.904584 0.673469 11697996
9.401460 9.093781 1.044536 11697996
10.172194 10.769683 0.406573 11697996
11.223619 10.319735 0.749070 11697996
9.699354 9.501224 1.463563 11697996
10.665925 9.049782 0.823414 11697996
9.320423 9.882223 3.641248 11697996
11.028863 9.636334 0.737119 11697996
9.556409 8.790317 3.771141 11697996
10.509312 9.226210 0.834187 11697996
8.989728 9.934649 3.948701 11697996
8.818181 11.196233 3.380868 11697996
8.799236 11.084599 1.014555 11697996
9.815503 10.013956 3.274229 11697996
9.839786 9.777097 1.681676 11697996
11.149907 10.779661 2.537841 11697996
9.146011 9.791124 2.306372 11697996
10.560239 9.305764 0.159796 11697996
10.943638 9.449797 0.005331 11697996
9.310553 9.405555 2.522889 11697996
11.181377 10.379810 1.025148 11697996
10.890071 10.175052 3.650130 11697996
10.466833 10.219012 3.503504 11697996
10.963552 9.503634 3.239917 11697996
9.916483 9.490096 3.848044 11697996
10.335262 10.594102 1.396317 11697996
8.970729 9.219588 2.735984 11697996
10.722401 9.383574 3.026889 11697996
10.882640 9.914724 1.389476 11697996
10.450357 8.844814 1.169143 11697996
10.713484 10.049681 1.329789 11697996
9.782250 9.807651 2.755234 11697996
11.078109 9.177094 0.659606 11697996
10.993856 11.238927 0.912132 11697996
9.162725 8.792020 1.628775 11697996
9.524293 11.137823 2.103645 11697996
10.744163 9.478969 1.088334 11697996
9.046957 9.328296 2.119168 11697996
10.362890 8.983516 1.301063 11697996
9.593349 9.613680 0.088215 11697996
10.387839 10.120758 1.616694 11697996
10.487630 9.540132 2.799436 11697996
11.087467 10.908466 1.728573 11697996
10.788633 11.097403 3.508568 11697996
9.439111 9.073453 0.049396 11697996
9.566957 8.988969 2.083121 11697996
10.029452 9.785856 3.301960 11697996
9.315356 10.279682 1.505007 11697996
8.895190 11.221037 2.827312 11697996
9.732615 9.363169 1.651075 11697996
9.259253 9.551750 3.915344 11697996
9.679320 8.885583 3.187256 11697996
10.292756 10.883458 2.022089 11697996
9.824334 9.410424 0.843309 11697996
9.328280 11.173818 1.970524 11697996
10.933895 9.260832 3.361113 11697996
9.574322 9.682421 3.042385 11697996
9.329596 9.856105 1.920942 11697996
8.981689 9.343795 1.681437 11697996
8.888852 10.352344 3.488750 11697996
9.006078 9.320735 2.481385 11697996
9.331320 9.890187 3.726608 11697996
10.521844 10.922668 3.702927 11697996
10.058947 10.325905 2.926600 11697996
10.056106 10.701850 0.055791 11697996
10.553852 9.247714 2.092855 11697996
8.765882 11.211353 0.432214 11697996
9.705769 10.815458 0.043677 11697996
10.934727 9.070779 0.985577 11697996
9.336438 8.941865 1.201135 11697996
10.904907 9.060860 3.801317 11697996
10.928920 10.878634 1.207867 11697996
9.876266 9.126899 3.933416 11697996
8.774823 9.305494 3.101947 11697996
10.415892 9.248542 0.761820 11697996
10.265536 9.308892 1.182126 11697996
10.924848 9.149010 0.378456 11697996
9.093657 9.980300 1.523591 11697996
9.816410 11.183050 2.222883 11697996
10.484685 10.908178 2.279943 11697996
9.541681 10.607452 1.244632 11697996
10.230247 9.782565 3.928914 11697996
9.471430 10.187829 1.372315 11697996
9.885876 10.702694 0.375478 11697996
10.127787 9.288837 3.661053 11697996
11.076437 9.974769 1.058297 11697996
10.674781 10.116937 2.426587 11697996
9.483986 10.020086 1.727265 11697996
11.034819 9.829369 2.202542 11697996
11.243596 11.110886 1.047367 11697996
11.121082 11.093125 3.717911 11697996
11.127006 10.879995 3.077839 11697996
9.354430 9.637394 3.007135 11697996
8.864405 10.283615 2.713447 11697996
10.577355 8.969655 1.577476 11697996
11.125044 11.095732 2.260913 11697996
8.787130 10.786300 1.976934 11697996
10.422867 9.415596 1.497603 11697996
9.783082 10.182156 0.122541 11697996
8.893780 10.765834 3.872187 11697996
10.502165 9.083476 3.232182 11697996
10.982158 10.196586 3.554066 11697996
11.176727 8.861935 1.531041 11697996
10.938417 11.074714 0.770820 11697996
10.984488 9.717082 3.059392 11697996
10.553283 10.395135 3.601552 11697996
10.783773 10.273220 3.870892 11697996
9.532157 9.654317 0.650817 11697996
10.154515 10.558722 2.092300 11697996
9.993093 9.270051 0.648777 11697996
9.859246 8.914944 1.376168 11697996
8.762669 10.331469 1.025377 11697996
9.232515 11.102219 2.102775 11697996
10.459853 9.935006 1.963645 11697996
9.722760 9.820904 0.701031 11697996
9.450998 9.867495 2.351579 11697996
10.670640 9.469999 0.333546 11697996
10.571660 9.351004 1.861255 11697996
10.351907 11.163467 2.694328 11697996
10.389053 10.998100 2.443984 11697996
9.991706 10.256816 3.000979 11697996
9.690698 9.904320 1.219762 11697996
9.503967 10.622364 1.504571 11697996
9.053674 9.857648 2.685540 11697996
10.166891 9.523467 0.874409 11697996
10.845515 10.628725 1.994080 11697996
11.111158 10.608630 1.192714 11697996
10.193054 10.653152 3.715137 11697996
9.483802 9.406449 3.665070 11697996
10.419471 8.836879 2.590092 11697996
9.030196 10.165860 3.917316 11697996
10.936820 10.111235 3.899861 11697996
10.456830 10.821452 0.085326 11697996
11.043897 9.379743 3.868039 11697996
10.419193 10.277700 0.797295 11697996
11.200120 10.582840 3.739983 11697996
10.588032 9.430140 3.017449 11697996
10.741484 8.898952 3.499788 11697996
10.982581 9.823050 0.995319 11697996
9.341519 10.792192 0.572379 11697996
9.861416 9.942964 3.123584 11697996
8.961567 8.816946 3.656304 11697996
11.239570 10.277432 2.799550 11697996
9.675173 11.017525 2.380129 11697996
10.482653 9.844460 2.692813 11697996
10.277570 10.739433 2.976360 11697996
8.869030 8.820979 2.781074 11697996
10.642619 11.072278 1.940601 11697996
8.781200 9.061698 2.730630 11697996
9.288020 10.452035 2.128617 11697996
9.450253 9.026455 0.739392 11697996
9.182084 9.269773 2.211232 11697996
10.788458 9.220026 3.712106 11697996
11.167551 9.621414 0.289885 11697996
9.928717 10.381047 3.530129 11697996
9.309034 10.399261 2.198171 11697996
9.598257 9.063441 2.211529 11697996
10.644322 10.697866 0.034225 11697996
11.074457 11.138046 2.791097 11697996
10.670303 11.240706 0.042052 11697996
10.786525 10.022613 3.966266 11697996
10.149532 10.752614 3.825364 11697996
9.926004 8.793782 1.248904 11697996
10.897892 8.983209 3.194181 11697996
8.777632 9.516554 1.482833 11697996
9.976444 8.969647 1.288454 11697996
9.072742 10.277376 0.450686 11697996
10.783997 9.170138 3.300048 11697996
10.155425 9.553396 2.058276 11697996
9.674713 10.066882 3.983030 11697996
11.201671 11.197598 3.976253 11697996
9.832599 9.213077 3.466878 11697996
11.122981 9.757346 1.346653 11697996
9.050919 9.881017 2.944543 11697996
8.824662 10.498637 3.234566 11697996
10.347921 9.276144 3.387065 11697996
10.685651 9.531319 1.741246 11697996
10.408668 8.794012 1.745847 11697996
10.688853 9.884505 2.301460 11697996
8.841968 9.300904 2.997544 11697996
9.793988 10.883978 3.087379 11697996
9.516820 9.580048 3.531951 11697996
9.933846 9.740896 1.457580 11697996
8.872125 11.101230 3.044334 11697996
9.014926 10.323655 1.943162 11697996
8.739062 10.723008 0.112484 11697996
9.828032 9.352924 2.537672 11697996
11.220969 9.311365 1.282150 11697996
9.247136 9.850757 2.025527 11697996
8.944903 10.986873 0.563604 11697996
10.079870 10.013269 2.219163 11697996
9.797026 10.287456 3.050174 11697996
11.038642 10.611822 3.598575 11697996
8.801737 9.077787 2.011416 11697996
9.815395 8.895255 0.530266 11697996
10.381113 8.978375 3.390470 11697996
9.901339 10.257336 1.579581 11697996
10.297082 8.900986 1.449817 11697996
11.027081 9.246815 1.371972 11697996
10.247139 10.222889 3.181017 11697996
9.922523 9.182044 2.514002 11697996
10.463977 10.366673 1.372354 11697996
11.001204 10.937129 1.361850 11697996
9.028738 10.391652 0.710379 11697996
9.123393 10.262015 1.679270 11697996
9.021701 9.260709 0.131658 11697996
10.817794 9.151250 1.126408 11697996
10.399505 10.168724 2.201730 11697996
9.437248 10.835736 1.011084 11697996
8.916446 10.664976 1.400527 11697996
10.985594 10.736437 0.385162 11697996
9.994960 10.150064 2.626123 11697996
9.330626 10.691829 2.848198 11697996
10.868751 8.957471 3.829326 11697996
10.879947 10.029707 2.540884 11697996
9.759689 9.904188 3.918116 11697996
11.185334 11.033922 2.167381 11697996
10.498151 10.317324 1.337174 11697996
10.551707 9.288431 1.163883 11697996
10.793272 9.169297 2.773382 11697996
8.872048 10.779168 0.573691 11697996
10.377113 8.913561 2.994998 11697996
9.509793 9.893419 1.450979 11697996
9.365824 9.590939 0.403641 11697996
10.852594 10.460955 3.625828 11697996
10.611538 9.799387 3.881885 11697996
8.823179 10.865767 2.200496 11697996
9.679186 9.815186 3.002197 11697996
9.045251 8.774840 2.563947 11697996
11.049173 9.646042 1.556884 11697996
10.725539 10.821292 0.133102 11697996
9.383959 11.129113 2.730517 11697996
10.327742 10.190195 2.552536 11697996
9.570237 9.548604 2.025233 11697996
8.899508 9.982677 1.958596 11697996
9.092024 10.728742 0.880060 11697996
8.831342 10.817846 1.692401 11697996
9.783909 9.978824 2.039079 11697996
10.318225 8.961866 1.724474 11697996
9.531743 9.905054 0.533446 11697996
9.326006 9.640110 0.723960 11697996
8.812751 10.247774 3.141452 11697996
10.483343 10.293873 3.694198 11697996
10.735847 10.771144 0.048708 11697996
10.270278 10.135574 0.450095 11697996
11.010941 9.866705 1.882237 11697996
9.795797 9.289182 2.248486 11697996
10.077519 9.017965 0.093656 11697996
9.672827 10.060833 0.952780 11697996
10.570191 10.059316 1.603042 11697996
9.267866 11.123303 2.398132 11697996
9.716684 10.122901 0.747865 11697996
9.920993 10.893697 0.167240 11697996
10.402073 10.480968 2.073496 11697996
9.155554 10.005052 0.490054 11697996
8.870042 11.030766 0.876734 11697996
11.109891 9.368730 0.803541 11697996
10.132462 9.231433 2.615469 11697996
10.986161 10.829809 0.504325 11697996
10.448585 11.015710 2.154921 11697996
9.009520 10.278945 3.546635 11697996
9.436114 9.605160 0.160355 11697996
11.092758 9.011411 3.022303 11697996
11.120838 8.994067 3.863154 11697996
8.858018 10.532398 0.413952 11697996
8.857898 9.458061 0.745689 11697996
10.282483 11.119236 3.011110 11697996
8.800199 10.181946 0.864489 11697996
8.780510 8.822278 3.795759 11697996
11.192928 10.566365 2.124564 11697996
10.404683 9.002977 3.209984 11697996
9.319021 9.182665 0.529227 11697996
10.943152 9.730399 3.376933 11697996
10.619244 10.436814 0.444315 11697996
9.821336 8.972744 3.756548 11697996
9.323225 9.403416 2.398974 11697996
9.087251 9.225007 3.914617 11697996
9.809354 9.769928 1.989966 11697996
10.482903 10.516365 0.009750 11697996
9.570744 10.830125 1.249199 11697996
10.353055 10.394734 2.599728 11697996
10.989496 10.968113 0.626773 11697996
9.233305 9.453221 1.102605 11697996
9.571039 9.308746 2.819461 11697996
9.665743 10.374241 1.377865 11697996
10.096414 10.924897 3.168662 11697996
11.163815 9.761344 0.017879 11697996
9.487084 9.531268 0.969042 11697996
8.956419 10.685618 1.247800 11697996
9.139539 9.100282 3.667352 11697996
10.836987 9.823618 2.440571 11697996
11.222381 8.926650 4.008623 11697996
9.969025 10.809482 1.848322 11697996
8.935654 9.028042 1.000013 11697996
9.676913 10.187836 1.034970 11697996
10.316454 9.584147 1.539479 11697996
10.816387 10.372674 1.357019 11697996
10.268283 9.375045 3.977931 11697996
10.083895 9.580500 3.283310 11697996
9.023390 10.389712 0.904433 11697996
9.862788 9.198035 3.724900 11697996
11.134843 8.968903 2.081512 11697996
10.786789 10.839170 0.411368 11697996
9.191341 10.318204 0.891999 11697996
9.357503 11.059476 3.166661 11697996
9.768147 8.998386 0.126359 11697996
9.994245 9.633668 0.424015 11697996
8.851377 10.051875 2.478687 11697996
9.937443 11.125753 0.909043 11697996
10.424182 9.965068 0.065435 11697996
10.297411 9.604987 2.992586 11697996
10.047938 9.220333 3.343135 11697996
10.328167 9.818476 3.832790 11697996
9.320506 11.141874 1.590480 11697996
9.098104 10.523281 1.413699 11697996
8.861540 9.936142 2.215056 11697996
9.841618 10.232267 2.362615 11697996
10.840786 10.589617 1.382541 11697996
10.971269 9.917511 3.732698 11697996
10.288414 10.008156 2.686199 11697996
8.907435 9.631969 2.034082 11697996
10.948462 10.754634 1.446596 11697996
10.807060 8.868376 3.011266 11697996
9.066836 10.271709 3.232347 11697996
10.808011 8.922838 1.542383 11697996
9.198207 10.901415 0.455700 11697996
10.796320 9.922588 0.065563 11697996
10.693699 10.351588 3.574515 11697996
10.854836 10.953069 2.319400 11697996
10.011700 9.548929 3.319248 11697996
10.982766 10.276317 0.250420 11697996
8.875879 9.301942 2.650178 11697996
9.404722 8.831422 2.989244 11697996
9.401088 10.128265 1.946654 11697996
10.779022 10.803773 3.225423 11697996
8.939389 8.941393 0.474644 11697996
10.853171 10.633315 3.099849 11697996
9.956786 10.071988 3.263147 11697996
11.183066 10.653183 2.864806 11697996
11.049320 10.053647 1.970604 11697996
9.202811 10.018497 2.776944 11697996
10.590412 10.817971 3.194717 11697996
9.377754 10.720798 1.739851 11697996
11.189216 9.453938 3.547719 11697996
10.962256 9.611868 1.021660 11697996
8.910750 11.032693 0.432195 11697996
8.793146 10.907858 0.108103 11697996
10.217269 10.025677 1.326290 11697996
10.623977 10.269696 1.464182 11697996
8.958590 9.957369 3.811156 11697996
10.470558 10.598283 1.823890 11697996
9.633730 11.143344 2.705995 11697996
10.881696 9.675586 3.134938 11697996
8.851876 10.919137 3.909256 11697996
10.876823 10.423750 1.866373 11697996
10.723746 9.697788 1.111429 11697996
9.776875 9.407699 0.372001 11697996
10.053935 10.077868 2.713076 11697996
9.773718 11.166592 0.761031 11697996
8.955988 10.004402 3.969954 11697996
10.500175 9.818344 3.122178 11697996
9.357845 9.789893 0.702140 11697996
8.948465 11.149721 3.075922 11697996
9.251844 9.046531 3.737419 11697996
11.130183 9.015894 2.154335 11697996
11.238120 10.821382 0.976073 11697996
10.847402 10.598251 3.682453 11697996
9.092269 9.675719 3.954274 11697996
10.762046 10.593650 2.149473 11697996
10.663292 10.550661 0.493911 11697996
9.188129 9.028293 1.636622 11697996
9.294938 9.934409 3.774308 11697996
8.861259 9.649813 1.858627 11697996
10.692603 8.935917 1.611306 11697996
10.673826 10.506062 2.336823 11697996
10.613212 9.809137 1.881004 11697996
10.921784 10.084149 3.984740 11697996
9.039655 9.458997 2.789048 11697996
10.454285 9.724380 3.198910 11697996
10.740576 9.006779 2.161465 11697996
9.095262 10.799248 0.127193 11697996
9.271174 11.046499 3.206727 11697996
9.892216 10.960187 0.832722 11697996
10.887522 10.755921 0.877537 11697996
9.211774 9.482161 1.057595 11697996
10.428765 9.665509 3.645924 11697996
10.897463 11.221098 0.727605 11697996
9.220639 11.159366 2.188718 11697996
9.612664 10.661712 1.765946 11697996
10.073672 9.915228 3.958358 11697996
9.364017 10.950591 2.716268 11697996
10.838136 10.507890 3.176622 11697996
10.805244 10.914783 3.070211 11697996
9.688395 10.533893 1.356662 11697996
10.816228 9.318724 1.189448 11697996
9.990966 9.361687 0.543659 11697996
9.027081 9.558332 1.064951 11697996
9.165541 9.170522 0.189453 11697996
9.288295 10.295834 3.862410 11697996
9.741037 8.920454 0.439382 11697996
9.232377 8.732912 2.330152 11697996
10.870097 9.149304 2.963089 11697996
8.905206 9.672828 3.878314 11697996
9.576736 10.127684 3.674752 11697996
11.061371 9.216972 0.919707 11697996
10.710101 9.459715 1.236393 11697996
9.864974 9.567768 1.596120 11697996
8.800673 11.159523 2.158012 11697996
11.168701 10.245376 2.362955 11697996
11.188699 9.608805 1.194895 11697996
11.211235 9.773450 0.666528 11697996
9.139027 9.779280 2.506458 11697996
9.120447 10.274703 3.224736 11697996
9.522448 9.432285 2.855535 11697996
8.806706 9.574025 3.742183 11697996
10.158667 10.867276 2.586665 11697996
10.594662 10.304092 3.842407 11697996
9.992871 10.116008 3.919983 11697996
8.829334 8.897893 1.706593 11697996
10.233389 8.958365 0.259507 11697996
9.109205 10.972935 0.780640 11697996
8.801412 8.915833 3.084135 11697996
9.912761 8.911044 3.146479 11697996
11.144385 10.973127 2.225454 11697996
9.277906 8.762619 0.887666 11697996
8.983771 9.087200 1.608117 11697996
9.305375 10.251761 1.359713 11697996
10.517259 8.777732 3.261791 11697996
10.721221 9.812044 3.717957 11697996
9.584549 9.686230 0.417211 11697996
9.385821 8.808611 3.320236 11697996
10.691935 9.561193 2.403360 11697996
10.154455 9.519341 4.019907 11697996
9.571493 9.816658 1.666867 11697996
9.805637 10.121606 3.035945 11697996
10.003753 9.394935 1.851125 11697996
10.739224 10.939432 1.436485 11697996
9.932500 8.825454 1.498929 11697996
9.209347 10.430202 1.889292 11697996
9.119152 11.051205 2.038563 11697996
9.988991 9.787932 3.661324 11697996
11.010032 10.092815 0.194887 11697996
9.319785 10.964917 1.399080 11697996
9.907041 10.197071 3.399871 11697996
11.247022 10.680430 0.243799 11697996
10.041721 9.613155 1.268961 11697996
10.892420 9.372377 2.336033 11697996
10.610751 8.789159 1.627618 11697996
8.885027 10.838062 2.361095 11697996
9.064065 9.472219 1.787319 11697996
9.220474 8.852192 3.772366 11697996
9.787498 9.076264 1.144398 11697996
9.598834 8.829598 3.026963 11697996
10.587836 8.744844 2.813986 11697996
11.161546 9.453699 0.284815 11697996
11.216855 9.896639 2.892856 11697996
10.198018 11.193206 0.670283 11697996
10.018771 10.780594 1.987377 11697996
9.777591 10.515066 1.112963 11697996
10.721662 9.845861 2.533019 11697996
10.732852 8.834674 1.738056 11697996
10.708818 9.219192 0.589826 11697996
10.411875 10.724888 0.676092 11697996
8.753205 9.253269 3.480845 11697996
9.925131 10.368382 1.004108 11697996
10.040466 10.802120 1.704244 11697996
8.855042 10.264997 3.881221 11697996
9.427485 10.033061 1.566850 11697996
10.845411 9.852499 1.607734 11697996
8.812361 8.890060 1.063899 11697996
9.383718 11.104201 1.666565 11697996
10.899391 9.477506 1.652956 11697996
8.819579 11.207802 2.966105 11697996
8.906198 10.108516 0.914048 11697996
10.623239 10.741492 0.840221 11697996
9.090791 8.854326 2.656408 11697996
10.029091 9.519197 2.587704 11697996
8.804065 10.093922 3.359034 11697996
10.581057 9.468346 2.531607 11697996
8.894283 9.852108 0.537100 11697996
9.589492 10.165186 3.944149 11697996
8.806434 9.915677 1.306434 11697996
9.199217 10.336369 3.103425 11697996
11.201953 11.029431 0.870520 11697996
9.804777 9.893520 0.328038 11697996
9.650101 9.914116 0.278120 11697996
10.998475 9.936802 1.330446 11697996
9.235471 11.170681 0.637661 11697996
11.087853 11.089413 2.977534 11697996
11.044322 10.661230 1.319753 11697996
10.498824 10.518114 0.214539 11697996
10.038507 11.189620 1.524513 11697996
10.546714 10.250308 3.814528 11697996
9.360627 10.495090 0.560009 11697996
10.601876 9.401767 3.133655 11697996
10.242125 10.688494 0.760155 11697996
8.822788 10.035163 1.662425 11697996
11.161368 9.737010 1.520092 11697996
8.950310 9.314380 3.407124 11697996
10.314124 8.808006 3.560899 11697996
10.472108 8.844374 3.944809 11697996
9.282011 9.116765 2.125205 11697996
10.440443 10.828723 0.619319 11697996
10.685369 9.722264 0.402650 11697996
10.629922 9.889872 1.894907 11697996
9.428671 9.802964 3.602219 11697996
8.920323 9.133742 2.872037 11697996
10.331195 9.202621 2.863656 11697996
10.060215 11.070177 3.028201 11697996
10.347857 10.570432 3.485426 11697996
10.109897 10.098024 0.866471 11697996
9.944783 9.578588 0.422586 11697996
9.508721 10.998123 1.467029 11697996
10.125736 8.877897 1.164165 11697996
10.086814 11.177672 2.651812 11697996
10.101572 9.403407 2.246157 11697996
8.994661 8.864588 0.240525 11697996
9.267950 9.240706 2.076935 11697996
9.298620 10.891475 0.812289 11697996
11.155706 9.677484 1.944256 11697996
10.519283 11.242481 1.984827 11697996
9.184577 11.034883 0.620286 11697996
8.780922 11.257227 0.063154 11697996
9.405677 10.107280 0.735969 11697996
10.599648 10.531431 2.648173 11697996
10.729054 10.343376 1.047525 11697996
9.589479 11.008993 1.503320 11697996
9.039993 9.033705 1.553202 11697996
9.715883 10.974732 1.256339 11697996
9.749271 9.075841 0.591741 11697996
9.261366 8.980409 2.013541 11697996
10.940800 10.367507 0.027728 11697996
10.591351 9.284026 1.810495 11697996
10.021156 9.928469 1.175831 11697996
10.284826 10.474412 3.137881 11697996
9.978684 10.969381 0.392415 11697996
9.089890 10.552935 3.404897 11697996
9.638151 11.199082 3.387736 11697996
8.983907 10.546975 0.486404 11697996
10.134158 8.862508 3.244565 11697996
10.800061 10.321371 0.749098 11697996
10.106026 8.863355 2.494806 11697996
11.223031 9.094086 0.468076 11697996
9.511533 9.189957 0.643828 11697996
11.236250 9.033018 3.294208 11697996
9.173993 9.710908 0.770930 11697996
9.338917 9.236939 3.978760 11697996
10.493775 9.251917 2.540848 11697996
9.840045 9.406125 1.005047 11697996
10.050282 11.217640 2.964067 11697996
11.095781 10.372817 0.260265 11697996
10.820807 9.249889 1.019701 11697996
10.574726 10.671157 3.144728 11697996
10.554179 10.923313 1.445499 11697996
9.932649 9.031379 0.795798 11697996
10.695346 9.781205 0.166188 11697996
9.016113 9.970243 0.456961 11697996
10.831703 9.600450 1.385133 11697996
10.624669 11.249104 3.928643 11697996
10.650238 9.615735 3.766120 11697996
11.192733 9.909973 2.965095 11697996
11.058501 9.987423 3.064284 11697996
8.837989 10.886912 2.789824 11697996
11.066048 9.855694 2.722328 11697996
9.237907 9.776422 3.439611 11697996
9.310251 8.996571 3.445529 11697996
9.846117 10.739455 2.530738 11697996
10.956121 9.222944 0.191074 11697996
10.707271 10.494380 1.300188 11697996
9.897829 10.672865 2.361412 11697996
9.105818 10.409795 1.789250 11697996
10.207641 9.344207 2.214279 11697996
11.051631 10.180666 0.185546 11697996
10.041093 11.185136 2.950275 11697996
10.617550 11.008934 3.842674 11697996
9.754783 8.818630 1.522548 11697996
9.613442 9.487346 1.378832 11697996
10.699224 10.729753 1.613195 11697996
9.615376 10.484698 2.740621 11697996
10.209810 11.283444 0.285155 11697996
9.628646 8.836152 3.310287 11697996
9.547599 10.293266 3.165236 11697996
10.330999 9.118281 3.312586 11697996
9.402677 10.361326 2.976027 11697996
9.605800 10.656804 1.737494 11697996
9.087753 10.826575 2.146161 11697996
10.801585 10.516081 0.930222 11697996
10.828454 10.906978 3.734067 11697996
10.701083 10.957967 1.684032 11697996
11.218656 9.272165 3.297546 11697996
9.885857 11.236363 1.747635 11697996
8.845896 8.802804 2.480852 11697996
9.147305 10.111491 3.108421 11697996
10.572397 10.064575 0.182645 11697996
8.862032 10.208749 3.390180 11697996
10.313715 9.515349 0.838849 11697996
10.254109 8.984257 1.453674 11697996
9.602870 8.918801 3.583137 11697996
9.761633 9.808237 1.578083 11697996
10.872543 9.948296 3.050813 11697996
