# .PCD v0.7 - Point Cloud Data file format
VERSION 0.7
FIELDS x y z rgb
SIZE 4 4 4 4
TYPE F F F U
COUNT 1 1 1 1
WIDTH 1292
HEIGHT 1
VIEWPOINT 0 0 0 1 0 0 0
POINTS 1292
DATA ascii
10.109056 8.858930 2.466756 11697996
11.240804 9.046171 0.469236 11697996
9.501865 9.215906 0.632903 11697996
11.220614 9.000049 3.300568 11697996
9.172549 9.730923 0.752936 11697996
9.323477 9.253847 3.982366 11697996
10.467468 9.260260 2.524769 11697996
9.833471 9.408734 1.025242 11697996
10.047912 11.237744 2.964132 11697996
11.120607 10.392179 0.246494 11697996
10.832730 9.295250 0.996041 11697996
10.617522 10.682978 3.155503 11697996
10.578904 10.896395 1.465412 11697996
9.938151 9.061989 0.779776 11697996
10.714934 9.756624 0.207236 11697996
9.024664 9.962921 0.463599 11697996
10.800473 9.672555 1.401454 11697996
10.616091 11.242581 3.946389 11697996
10.627564 9.630859 3.788209 11697996
11.171100 9.905985 2.926981 11697996
11.071470 9.982921 3.080051 11697996
8.816190 10.881163 2.760418 11697996
11.044567 9.857191 2.790918 11697996
9.263272 9.755469 3.440597 11697996
9.327945 8.997601 3.406485 11697996
9.843700 10.720772 2.535172 11697996
10.935678 9.215227 0.175398 11697996
10.711683 10.513146 1.288899 11697996
9.907681 10.675524 2.342406 11697996
9.128736 10.400040 1.793828 11697996
10.191366 9.326753 2.230059 11697996
11.053370 10.190814 0.191349 11697996
10.060451 11.151206 2.949375 11697996
10.660720 11.017310 3.817322 11697996
9.737887 8.805902 1.547102 11697996
9.592924 9.475089 1.394141 11697996
10.703543 10.740805 1.614960 11697996
9.605904 10.494788 2.697154 11697996
10.221318 11.260623 0.291441 11697996
9.610753 8.837493 3.284310 11697996
9.525885 10.269279 3.166684 11697996
10.343632 9.106017 3.346044 11697996
9.376204 10.347836 3.001780 11697996
9.633910 10.650103 1.741490 11697996
9.095467 10.795753 2.156253 11697996
10.804222 10.489449 0.928139 11697996
10.806356 10.946639 3.703603 11697996
10.715620 10.968328 1.684870 11697996
11.179817 9.290257 3.267689 11697996
9.858934 11.246676 1.738095 11697996
8.851507 8.785701 2.484548 11697996
9.183165 10.116758 3.111083 11697996
10.553379 10.059668 0.197433 11697996
8.858528 10.213596 3.412860 11697996
10.314207 9.511568 0.837404 11697996
10.224370 8.982076 1.421111 11697996
9.622116 8.884987 3.587360 11697996
9.753328 9.804792 1.574857 11697996
10.869795 9.952870 3.038259 11697996
10.663059 10.328581 3.317364 11697996
10.831946 10.468173 0.691648 11697996
10.741520 10.247374 3.893598 11697996
11.080928 9.529300 1.665737 11697996
9.496698 10.797873 2.625708 11697996
10.218426 8.774390 3.140404 11697996
11.158892 9.475433 2.674386 11697996
10.322588 10.051192 2.073501 11697996
10.352382 10.053380 0.979345 11697996
8.886351 10.973583 3.435768 11697996
10.644117 9.907097 1.757303 11697996
9.453824 9.979863 2.192955 11697996
10.114766 10.689018 3.232925 11697996
9.279272 10.451311 1.883818 11697996
9.229863 9.758676 2.735877 11697996
9.816929 9.150016 3.531574 11697996
9.610453 11.040924 1.984548 11697996
10.586737 8.877471 1.301199 11697996
8.921621 11.170341 0.035272 11697996
11.030496 10.385382 2.065086 11697996
8.883787 11.168970 0.040284 11697996
9.285738 11.138404 1.590881 11697996
10.134017 9.172568 1.463174 11697996
9.183805 10.603224 0.516025 11697996
10.821359 10.945633 3.785189 11697996
10.178926 9.797482 2.639338 11697996
10.977279 10.445474 2.326390 11697996
11.145468 9.934775 2.102842 11697996
9.980102 10.202827 2.182174 11697996
10.032957 10.183249 2.026597 11697996
8.874325 9.563715 0.945292 11697996
10.377788 11.005010 2.184245 11697996
10.981378 10.958989 1.661432 11697996
9.949450 8.846718 0.505951 11697996
9.320594 10.382316 3.301085 11697996
11.160526 9.214028 3.177928 11697996
11.105388 10.637266 2.373809 11697996
10.874232 11.170302 1.200391 11697996
10.743389 9.583883 2.702983 11697996
9.990472 10.831656 1.080048 11697996
11.054739 10.058558 1.263327 11697996
8.987206 10.059829 2.586976 11697996
10.074698 10.400710 0.461745 11697996
10.820312 9.934430 3.387280 11697996
9.798764 10.368307 3.076974 11697996
10.071886 11.170884 1.585385 11697996
9.554428 9.941278 1.512645 11697996
10.302019 10.214284 3.230740 11697996
10.893808 10.690024 3.176457 11697996
10.731672 10.685419 0.884678 11697996
10.716019 10.087322 1.578775 11697996
9.718571 10.680990 3.988852 11697996
10.833793 9.534473 1.417643 11697996
9.076809 10.143592 3.905230 11697996
9.157518 9.556281 0.263236 11697996
10.939727 10.893845 1.630313 11697996
10.130357 10.262553 2.338984 11697996
9.559889 10.921800 1.773620 11697996
10.156477 10.739116 0.194002 11697996
10.875940 8.893947 0.783189 11697996
9.115787 10.847801 0.725324 11697996
11.010578 10.987688 0.512964 11697996
10.039231 10.197575 3.195551 11697996
10.382498 9.964664 0.200085 11697996
10.225136 8.943643 1.573277 11697996
9.256996 8.910322 1.463898 11697996
8.969737 10.310555 3.087763 11697996
10.537926 9.372836 1.551928 11697996
9.165798 9.328304 3.748729 11697996
9.487035 9.219248 0.589913 11697996
10.331927 11.043457 1.183599 11697996
10.486593 9.158901 1.497219 11697996
11.146663 10.342976 1.879178 11697996
10.630527 8.997374 3.693781 11697996
10.928219 10.839705 0.795953 11697996
10.849498 9.169210 1.464667 11697996
9.577092 11.176462 1.842341 11697996
8.951430 10.210609 1.799936 11697996
11.215394 10.148849 0.244137 11697996
10.028665 10.979163 3.617566 11697996
10.586945 10.312062 0.245257 11697996
8.820235 10.554705 0.637417 11697996
8.986834 8.829505 1.459031 11697996
10.921531 9.478079 0.202127 11697996
10.400609 9.479031 3.729941 11697996
10.244630 10.447794 0.742670 11697996
10.414970 10.759150 0.168740 11697996
10.802217 9.183598 1.214183 11697996
10.959304 9.795935 3.751656 11697996
10.466969 9.557146 1.611421 11697996
8.846362 8.959738 0.569652 11697996
10.159372 10.272835 3.671002 11697996
9.249041 11.003586 0.682605 11697996
10.777912 8.806612 0.548884 11697996
8.997350 10.701781 2.552555 11697996
10.713767 9.454766 3.096964 11697996
9.560203 9.787654 0.877849 11697996
10.971074 11.205330 2.366787 11697996
9.588029 10.544385 2.871643 11697996
9.648912 11.097975 1.294237 11697996
9.824941 11.146246 2.726991 11697996
10.307298 10.284082 3.024218 11697996
10.419666 10.645814 3.515142 11697996
10.909574 10.666443 1.466816 11697996
9.137468 10.865763 2.684516 11697996
10.837152 9.616097 0.372705 11697996
10.990137 10.532937 3.104948 11697996
8.811291 9.096888 3.982725 11697996
9.484570 9.430234 2.509276 11697996
10.756308 10.244169 2.466364 11697996
8.831572 9.467423 0.645293 11697996
10.270510 9.226878 3.741641 11697996
10.152919 9.109754 2.526330 11697996
10.359648 11.037244 2.561529 11697996
9.080819 9.505170 1.926481 11697996
10.053470 9.365391 2.228131 11697996
9.162251 9.353886 0.662053 11697996
11.054426 9.605079 3.936480 11697996
10.237334 10.737188 1.847745 11697996
10.997444 9.992488 2.431473 11697996
10.278739 10.938704 1.685585 11697996
9.630905 9.771667 3.305986 11697996
10.575015 8.870750 1.960941 11697996
9.308173 10.714073 1.508139 11697996
9.379844 9.247335 2.082687 11697996
9.114514 9.095597 3.222110 11697996
9.389271 10.515099 2.012675 11697996
11.117347 9.028800 2.335781 11697996
11.147467 9.906895 2.428532 11697996
9.298708 11.187611 2.928855 11697996
9.601375 11.222398 1.200915 11697996
9.084607 9.560366 3.193058 11697996
11.176225 8.973611 1.384170 11697996
10.212729 9.971086 1.712015 11697996
10.091301 10.461154 2.649973 11697996
9.351252 9.139772 0.752255 11697996
9.980529 9.433198 0.374801 11697996
9.074124 8.951169 1.416150 11697996
8.806116 10.311806 2.401660 11697996
9.767690 8.950899 2.956354 11697996
10.147941 10.989468 0.878612 11697996
11.060785 9.247019 3.997636 11697996
10.786020 8.976797 1.275767 11697996
9.627320 9.972224 2.849340 11697996
10.090156 9.336786 2.819421 11697996
10.071477 11.105258 3.052992 11697996
11.050105 10.838783 3.230656 11697996
9.403773 10.920505 1.007525 11697996
9.546876 10.775551 1.084001 11697996
8.728852 9.328136 0.080235 11697996
10.525509 10.778295 2.044091 11697996
10.470740 10.665628 2.453204 11697996
10.190435 9.115288 2.951813 11697996
10.315708 9.632666 3.706264 11697996
9.184251 10.709348 3.732980 11697996
9.691559 10.847956 2.560847 11697996
11.005489 9.893579 0.411063 11697996
10.574841 10.853814 3.340515 11697996
10.771196 10.270797 2.081212 11697996
10.370584 10.431520 0.355457 11697996
10.984398 10.445815 2.634260 11697996
9.689424 9.688218 2.622517 11697996
11.143234 10.946379 1.297352 11697996
9.381111 9.484798 3.177913 11697996
10.971599 8.918170 3.590008 11697996
11.220672 9.818658 1.965506 11697996
10.425846 10.349269 2.648166 11697996
9.660852 9.108053 0.448162 11697996
11.225527 10.432508 0.301383 11697996
9.945774 9.237899 0.998866 11697996
10.398433 10.341137 2.376490 11697996
10.805444 8.785168 1.181698 11697996
9.951227 9.044872 0.556556 11697996
9.687518 11.214244 0.800677 11697996
10.162902 9.169127 1.193241 11697996
8.873075 9.486625 1.535142 11697996
9.727794 8.910814 1.693887 11697996
9.825043 9.864699 1.054599 11697996
10.105991 10.849685 3.400020 11697996
10.272285 8.945595 1.111683 11697996
9.072798 10.193972 1.300840 11697996
11.094390 8.834706 2.006181 11697996
11.082683 9.336472 2.222525 11697996
11.095238 9.189352 3.962188 11697996
8.901835 10.411991 2.302108 11697996
8.890009 10.403783 0.537581 11697996
9.088244 11.103407 3.734335 11697996
9.193663 9.689035 0.834910 11697996
9.238091 10.777311 1.390822 11697996
9.342392 10.744318 1.352188 11697996
10.978023 10.252562 1.972025 11697996
10.381615 10.491871 2.572666 11697996
8.865307 10.215544 3.296734 11697996
9.451541 10.185291 3.576571 11697996
9.091920 10.895282 3.182698 11697996
11.151158 10.313665 0.717611 11697996
9.412213 9.040591 2.443802 11697996
9.120720 10.066269 1.058982 11697996
11.101380 9.479210 2.032890 11697996
10.816430 9.499509 0.287939 11697996
9.777554 10.399569 1.872103 11697996
10.269254 10.108268 1.178476 11697996
8.754139 10.416168 3.082282 11697996
10.323133 9.222745 1.378404 11697996
9.763267 9.281912 0.011566 11697996
9.232320 9.925110 2.875214 11697996
10.548051 9.568015 0.881046 11697996
10.212140 10.186331 3.549444 11697996
8.935476 11.093198 1.839637 11697996
11.035241 9.241954 1.292097 11697996
9.207811 9.780199 2.966169 11697996
8.925065 9.091499 2.125517 11697996
9.421626 10.248263 1.079252 11697996
11.091867 9.619246 3.505196 11697996
9.609872 10.084087 1.942358 11697996
10.604913 11.223138 0.064233 11697996
9.664957 9.613483 1.347760 11697996
10.770462 8.912064 3.640429 11697996
9.612705 10.442173 0.315572 11697996
10.801311 10.002440 2.880505 11697996
9.096555 10.059351 3.791379 11697996
8.987295 10.814503 3.471856 11697996
10.679473 8.884848 1.535553 11697996
9.139056 10.560812 2.756441 11697996
9.973072 10.030654 3.966515 11697996
10.151785 10.956046 2.298316 11697996
9.868065 10.136240 0.330960 11697996
8.884253 8.927271 2.129949 11697996
10.213499 9.790160 3.859091 11697996
10.633297 11.193770 2.232197 11697996
9.274200 10.159611 3.156768 11697996
9.897659 9.911971 2.600599 11697996
8.870691 10.262658 0.225954 11697996
10.794001 10.487901 1.941646 11697996
10.108945 9.686306 3.349650 11697996
10.959729 10.211862 3.363425 11697996
8.940484 9.218224 3.940973 11697996
9.309983 10.829560 3.330044 11697996
10.273998 10.754626 0.956287 11697996
10.802772 9.898909 2.285439 11697996
10.482147 8.778250 3.520867 11697996
10.813284 8.949924 0.867292 11697996
9.407296 10.234091 2.539471 11697996
9.086861 10.863036 1.131869 11697996
10.346859 8.833002 3.294834 11697996
9.688041 10.791245 2.912328 11697996
9.867160 10.547132 1.154170 11697996
11.150208 10.973598 1.436158 11697996
9.555417 8.817496 3.885699 11697996
10.772108 9.851963 2.251388 11697996
8.792897 9.324047 1.202652 11697996
10.843249 11.106312 3.728807 11697996
10.679183 10.943118 2.513919 11697996
9.537433 9.793655 1.206536 11697996
10.174516 9.271810 1.985595 11697996
9.770549 10.010249 2.742926 11697996
10.005922 9.718012 0.825749 11697996
10.341720 11.238354 1.880117 11697996
10.679200 9.202700 0.205117 11697996
9.513073 10.711913 1.207745 11697996
11.199708 10.977536 2.564427 11697996
10.534043 9.756553 2.072697 11697996
9.017376 10.396770 3.891606 11697996
9.196862 10.597550 0.158410 11697996
10.262895 10.029033 3.663316 11697996
10.772564 10.631809 3.112905 11697996
9.583684 11.226814 3.681532 11697996
9.403224 9.233144 2.980887 11697996
9.995715 9.265405 1.215470 11697996
9.131104 8.954229 0.828075 11697996
10.393025 9.631074 3.088745 11697996
10.582553 11.085437 2.260581 11697996
10.153774 8.928703 0.502228 11697996
10.724358 10.092993 3.489970 11697996
9.068030 10.978610 2.198838 11697996
11.021955 10.138398 1.564180 11697996
10.627537 10.408758 0.602174 11697996
8.840014 10.801732 2.870643 11697996
8.797307 10.489854 0.262094 11697996
9.369152 10.159093 3.541718 11697996
9.055460 9.324769 2.096025 11697996
9.647551 9.740355 2.058751 11697996
10.313215 10.018649 1.863234 11697996
9.222179 9.327852 2.290505 11697996
9.511241 10.870286 3.378816 11697996
10.069066 10.003317 3.325417 11697996
10.662402 8.779634 0.838392 11697996
9.218504 11.272576 3.913517 11697996
9.434788 9.880011 0.960962 11697996
8.853898 11.203868 2.723403 11697996
10.151296 9.628106 3.442963 11697996
11.208169 10.326279 0.174098 11697996
9.305246 9.015514 2.723929 11697996
8.963814 9.348530 1.319013 11697996
9.025187 9.790335 1.621010 11697996
8.917500 9.688922 2.169044 11697996
11.035110 11.096565 3.603362 11697996
10.392863 9.865249 3.014591 11697996
8.756413 9.749028 3.484730 11697996
10.299310 9.627558 0.346269 11697996
10.449064 10.595422 1.878485 11697996
10.766459 9.684179 0.077665 11697996
11.152132 8.915963 3.983643 11697996
10.565635 10.454020 2.022523 11697996
10.212191 10.215866 0.742448 11697996
9.998969 9.170448 1.444200 11697996
11.099150 9.251918 2.190506 11697996
9.037561 11.192768 0.919204 11697996
9.020526 9.481636 3.338970 11697996
10.488886 9.936002 2.765061 11697996
8.767404 11.217518 1.164181 11697996
10.538659 9.765267 3.079630 11697996
9.153359 10.662571 3.397784 11697996
9.104074 10.174526 4.002540 11697996
10.972690 10.286302 1.961023 11697996
10.904459 9.653049 1.044468 11697996
9.390751 8.934714 3.894731 11697996
8.748131 9.846915 2.456710 11697996
10.275365 10.428832 1.864268 11697996
11.083112 10.909279 3.527540 11697996
8.873314 9.430212 3.889839 11697996
9.909284 9.129015 3.492949 11697996
9.963328 9.652771 2.151956 11697996
8.923471 9.980441 2.425521 11697996
9.645164 9.926393 3.715697 11697996
9.944543 10.915792 2.632077 11697996
10.909094 11.120279 0.843751 11697996
9.312522 9.090763 0.092338 11697996
9.723849 10.881781 0.149823 11697996
10.169280 10.335372 3.535556 11697996
10.923382 9.071343 0.946729 11697996
9.327039 11.036902 1.769049 11697996
10.147687 9.231191 2.195808 11697996
8.761904 10.032342 0.749686 11697996
9.750574 9.854647 3.937809 11697996
9.945643 11.177310 2.373925 11697996
9.376078 10.886617 2.959143 11697996
10.682430 9.617222 2.215680 11697996
10.922635 9.056303 2.742199 11697996
10.899561 10.889066 1.779305 11697996
11.251335 9.903495 2.231348 11697996
9.664357 9.324863 2.489246 11697996
9.317557 8.854700 2.911004 11697996
11.025002 8.993517 2.696910 11697996
9.890096 8.801233 0.591025 11697996
9.813481 9.059068 3.570168 11697996
10.993999 9.767917 0.877499 11697996
11.131446 9.068012 3.697716 11697996
10.452501 9.165095 2.263813 11697996
10.775451 10.394568 1.388276 11697996
9.338687 10.589710 0.176723 11697996
9.360887 10.720985 2.756993 11697996
9.539524 9.345840 3.914383 11697996
9.046780 10.934232 2.213323 11697996
9.770082 9.933661 0.538600 11697996
10.536857 10.126316 1.816266 11697996
11.195252 11.031857 0.305480 11697996
8.941991 10.449525 2.811172 11697996
10.370884 10.050289 1.562682 11697996
10.600005 10.354062 0.805011 11697996
10.563627 9.668887 3.560615 11697996
11.108167 8.856835 0.310454 11697996
11.011685 11.198736 0.004297 11697996
10.742652 9.751423 3.597774 11697996
9.677046 10.807846 3.361445 11697996
9.505801 9.416650 2.214678 11697996
10.487911 9.576478 1.576875 11697996
11.032773 9.432328 1.927951 11697996
10.402827 10.023715 0.544325 11697996
9.804268 11.190051 2.357515 11697996
11.137036 8.914614 2.327083 11697996
10.975527 9.627567 2.528772 11697996
9.754877 10.915408 2.634725 11697996
9.149943 10.350332 0.901082 11697996
9.318762 8.857153 2.203947 11697996
11.063190 9.879571 3.042717 11697996
9.429736 10.900537 1.263190 11697996
10.277364 9.282461 1.505061 11697996
9.597195 10.419952 1.996846 11697996
9.691898 9.157729 2.249735 11697996
9.203370 9.104719 0.658510 11697996
10.513519 11.076349 3.431046 11697996
9.907844 9.815475 2.139254 11697996
10.177113 9.182302 3.338211 11697996
10.443310 10.088624 1.529361 11697996
9.230472 10.863799 1.186894 11697996
9.656567 10.222287 3.935146 11697996
9.763456 8.963064 3.524233 11697996
8.947317 9.497167 0.289719 11697996
10.632866 10.411983 0.138751 11697996
9.301372 10.463600 1.876039 11697996
10.518002 8.965050 2.450217 11697996
10.481227 10.321436 0.641173 11697996
9.935493 10.090067 3.668611 11697996
9.775475 9.742342 0.625199 11697996
11.208916 10.500899 2.815385 11697996
9.686652 10.602768 1.968008 11697996
9.160435 10.861764 3.773040 11697996
9.261404 11.058290 1.255072 11697996
11.087288 11.142588 3.805813 11697996
10.384864 10.197565 2.385799 11697996
9.894153 10.092737 3.631982 11697996
9.120750 9.109657 1.778708 11697996
9.552504 9.910560 3.286447 11697996
10.927730 9.283061 0.116458 11697996
11.080880 9.172180 0.646472 11697996
9.767407 11.090605 2.583951 11697996
11.000949 9.324857 1.461959 11697996
9.252550 9.892745 2.559983 11697996
11.188023 11.116282 0.874290 11697996
11.196962 10.605498 1.836532 11697996
10.345067 8.826495 3.758640 11697996
9.304169 9.731301 3.149542 11697996
10.314341 9.023815 0.862935 11697996
9.598095 9.453639 0.046549 11697996
10.051517 8.893627 3.169504 11697996
10.771378 10.386156 3.029576 11697996
8.763733 9.108243 3.488130 11697996
10.012785 9.593760 1.117238 11697996
10.364188 9.436857 2.322556 11697996
11.115846 9.641535 3.430505 11697996
9.850833 11.198427 3.219510 11697996
10.985590 10.574417 2.645963 11697996
10.698801 10.388454 0.610029 11697996
9.061804 9.102728 2.261184 11697996
10.219075 9.517916 3.790126 11697996
10.826803 10.715273 0.699322 11697996
11.253106 8.825445 0.933200 11697996
9.301810 9.571947 3.802510 11697996
11.253255 10.235999 1.583995 11697996
10.947050 9.405465 1.677990 11697996
11.001976 10.177983 2.435696 11697996
8.884313 10.796319 1.261843 11697996
9.629776 9.851795 0.339940 11697996
10.327938 9.027111 3.266364 11697996
9.547098 8.823009 1.275256 11697996
11.031558 9.107672 1.174826 11697996
10.343822 8.819076 0.416656 11697996
9.871024 9.653244 2.811186 11697996
10.848277 9.761672 3.920434 11697996
9.065263 9.311932 3.371345 11697996
10.043370 10.922725 0.747069 11697996
10.137164 8.824065 3.099581 11697996
10.870342 9.281722 3.630311 11697996
9.518845 9.780290 3.418830 11697996
9.478019 8.970545 3.449719 11697996
10.128673 9.199257 1.281425 11697996
10.562515 9.078443 1.771179 11697996
9.835072 10.901882 3.600618 11697996
11.054851 9.664704 3.541367 11697996
9.749734 10.892981 3.261831 11697996
10.042686 9.538589 0.534380 11697996
9.198705 9.264031 2.861992 11697996
10.441731 8.939685 3.111574 11697996
9.832375 9.581971 0.419609 11697996
8.811634 10.857345 3.314448 11697996
10.327172 9.627169 0.710008 11697996
10.498808 10.932178 1.670673 11697996
9.770900 10.718428 1.921178 11697996
9.244560 10.212710 2.087559 11697996
10.529914 10.669622 3.658317 11697996
10.105736 9.873550 3.140229 11697996
9.972518 9.644965 1.596016 11697996
9.328435 9.861159 3.464830 11697996
9.914980 11.158785 3.853018 11697996
8.975022 11.197447 1.012821 11697996
10.565752 10.071697 0.135772 11697996
10.534078 10.328648 1.776292 11697996
10.066319 9.106517 0.811335 11697996
9.410482 9.536789 2.595576 11697996
11.103374 10.957128 0.980917 11697996
10.616333 11.137684 1.070746 11697996
9.579391 10.417617 1.003864 11697996
8.861780 11.199776 1.626159 11697996
10.203404 10.079601 2.932184 11697996
8.964294 9.273636 1.989437 11697996
11.022128 8.991586 0.633576 11697996
9.793471 8.763760 0.772666 11697996
9.168240 10.402458 1.646330 11697996
10.845268 9.260386 0.587518 11697996
9.859493 9.613730 2.779991 11697996
9.742583 10.235486 0.250848 11697996
11.020871 10.469281 0.434451 11697996
9.485817 10.115606 1.543104 11697996
8.761233 11.082837 2.500537 11697996
10.299636 9.476934 0.535144 11697996
10.678064 8.894898 0.196691 11697996
11.216216 9.409304 2.626195 11697996
9.504786 10.747579 1.220704 11697996
10.215613 9.002718 1.044067 11697996
10.740664 10.820996 1.697616 11697996
9.520864 10.001888 2.348881 11697996
10.370672 9.147594 0.477694 11697996
10.620860 9.028591 2.468162 11697996
10.725473 10.162323 1.204141 11697996
9.378726 9.261785 1.744678 11697996
9.865541 10.283371 1.987371 11697996
9.167760 9.035295 1.659319 11697996
9.651933 8.966575 2.478206 11697996
9.488777 11.216434 1.638733 11697996
11.170469 9.594551 1.541489 11697996
9.672686 8.872092 0.375478 11697996
10.321032 10.651621 2.651682 11697996
11.008689 8.761086 2.024645 11697996
9.535640 9.047959 0.073805 11697996
9.978559 10.340404 2.634382 11697996
9.444138 9.648013 1.622854 11697996
9.387143 10.701819 2.880549 11697996
9.915570 9.761637 1.039046 11697996
9.147055 10.249663 2.848790 11697996
9.413771 10.675951 0.776137 11697996
10.065586 9.796403 3.936373 11697996
9.090428 10.586548 2.230366 11697996
8.796238 8.938867 1.139695 11697996
10.630331 9.193154 1.321155 11697996
10.044984 9.707924 2.255697 11697996
11.114114 10.358191 0.260351 11697996
11.122109 10.306573 3.510942 11697996
9.083504 10.230565 1.808018 11697996
9.903648 10.847919 3.223542 11697996
10.693598 10.682110 1.205028 11697996
11.207563 10.138436 1.953052 11697996
10.919313 11.247393 1.350858 11697996
10.762591 11.051106 3.791412 11697996
9.895251 10.283588 1.963655 11697996
11.246854 10.371130 0.456121 11697996
10.489546 10.071081 2.070168 11697996
10.089355 9.780403 3.661696 11697996
9.406741 10.691209 2.031401 11697996
9.585920 10.319336 2.673126 11697996
9.813832 9.630299 0.981509 11697996
9.081765 8.884141 3.346529 11697996
9.503707 8.956532 0.031320 11697996
10.748960 10.052729 2.267303 11697996
9.491894 9.156462 3.777735 11697996
9.961905 9.894804 2.134378 11697996
9.396233 10.504529 0.410199 11697996
9.691146 10.209344 2.091751 11697996
9.348997 11.129638 3.845889 11697996
9.937684 9.963915 2.254202 11697996
8.984392 10.285065 0.933121 11697996
9.594112 9.608582 2.330243 11697996
11.097127 10.455606 1.172361 11697996
10.890036 10.414620 1.619874 11697996
9.375123 9.368662 0.093140 11697996
9.900664 10.017813 1.251986 11697996
11.166478 9.872916 1.165211 11697996
9.765142 9.308442 0.012675 11697996
9.060776 9.527925 1.800908 11697996
10.852597 9.423290 0.629542 11697996
9.628347 10.032577 1.451863 11697996
9.694626 10.815629 0.262282 11697996
11.241496 10.307233 3.984739 11697996
8.762985 9.714315 2.628565 11697996
9.979953 10.762840 3.144831 11697996
10.090001 10.001245 2.281427 11697996
11.158190 9.835396 2.139286 11697996
9.793539 10.164522 3.505078 11697996
8.944849 9.185333 2.410508 11697996
9.674205 10.370152 2.836849 11697996
10.538165 9.865423 3.815949 11697996
10.557351 9.557380 2.801853 11697996
9.006594 9.512913 2.921545 11697996
10.819494 11.231541 2.795369 11697996
11.212014 10.728564 0.449697 11697996
11.237794 8.737239 1.726703 11697996
9.806743 9.938115 2.521517 11697996
10.464096 8.919237 3.622217 11697996
10.679582 9.611236 1.725936 11697996
10.306592 8.898855 1.260807 11697996
9.724432 10.456983 3.794275 11697996
10.591557 10.468875 1.335594 11697996
10.145709 10.326785 3.661123 11697996
10.176485 9.230191 0.602580 11697996
9.847502 9.076250 1.020499 11697996
10.572806 10.688445 1.767476 11697996
9.953255 10.189867 0.445779 11697996
10.090147 10.408543 3.721635 11697996
10.237431 9.628673 1.567300 11697996
11.077830 9.437271 3.306549 11697996
9.772854 8.754015 3.507702 11697996
9.409988 9.790391 1.272460 11697996
8.934697 8.945868 3.424980 11697996
10.490959 10.501445 1.286491 11697996
10.227669 10.108664 0.207793 11697996
9.009094 10.440566 2.985365 11697996
10.733171 8.817460 1.098685 11697996
9.004752 9.030923 3.305132 11697996
9.745990 11.138824 2.917919 11697996
9.794978 10.939773 0.201704 11697996
11.013873 9.487679 2.044758 11697996
10.502683 10.130539 3.017436 11697996
9.238022 10.578223 2.780997 11697996
11.167460 10.907060 0.156792 11697996
10.105413 9.180854 1.859681 11697996
10.625917 10.269143 2.286598 11697996
11.235315 9.856949 3.105501 11697996
9.032001 10.049771 2.484814 11697996
10.900424 9.090753 1.209043 11697996
11.136073 10.810419 0.160415 11697996
10.383819 10.938918 3.300246 11697996
10.685778 10.845231 3.052190 11697996
9.484931 9.328864 1.074245 11697996
8.910823 9.898927 2.702781 11697996
9.990983 10.547361 3.638736 11697996
10.284332 10.479346 0.931073 11697996
10.297679 9.400629 2.767959 11697996
11.154633 10.999093 2.713606 11697996
9.598649 8.815216 1.105427 11697996
9.446072 9.565701 1.508328 11697996
10.141387 11.134987 2.545206 11697996
9.093789 9.260249 1.705706 11697996
9.380582 8.936956 2.919366 11697996
9.673183 9.702170 2.011611 11697996
10.728992 11.089274 3.695847 11697996
11.094164 10.393337 3.756861 11697996
10.955217 9.191544 0.040271 11697996
11.124203 10.435741 3.169162 11697996
8.969984 8.998597 1.206104 11697996
8.912153 10.274202 3.058321 11697996
8.984277 9.483556 1.004903 11697996
9.294416 9.558257 2.656741 11697996
10.057474 9.150693 3.163498 11697996
8.760286 8.936510 0.461314 11697996
10.158432 10.352889 1.275898 11697996
8.788546 10.274473 0.912119 11697996
9.495533 10.144190 0.420945 11697996
9.596072 9.900349 1.753909 11697996
9.332781 9.136231 1.377290 11697996
9.978972 9.033409 0.985284 11697996
9.383571 9.563643 0.363230 11697996
9.285402 9.582498 0.287998 11697996
9.543925 10.361860 1.872766 11697996
9.051084 9.833079 3.708863 11697996
9.481956 10.007368 0.555417 11697996
9.788337 10.387493 0.699454 11697996
10.765377 11.200170 1.697861 11697996
10.991146 10.238762 0.755638 11697996
9.370396 9.096181 2.479272 11697996
10.066886 9.448209 1.660952 11697996
9.491748 10.054510 2.803547 11697996
10.076873 10.508932 2.640013 11697996
10.913659 9.720990 2.161512 11697996
10.824572 9.574770 0.701900 11697996
9.479322 11.222442 3.658912 11697996
11.192935 10.331043 0.547254 11697996
10.952796 10.519456 3.556995 11697996
11.008189 10.126257 2.369698 11697996
9.451995 8.822099 1.791970 11697996
10.441354 11.076670 0.510065 11697996
9.707443 9.013939 2.025465 11697996
9.641634 9.549274 2.013598 11697996
10.290766 9.628699 1.242706 11697996
9.977599 10.517906 1.317035 11697996
10.344635 9.665312 3.568408 11697996
11.193879 8.898922 0.871704 11697996
10.158782 9.121045 2.864346 11697996
9.537196 9.268100 2.129972 11697996
8.772298 9.363202 0.388295 11697996
9.707598 9.491587 0.659002 11697996
9.048144 10.149062 1.898843 11697996
11.084698 10.250210 1.537002 11697996
9.386142 10.119902 0.669631 11697996
10.161425 8.790732 0.016755 11697996
10.002631 10.506349 3.055037 11697996
9.148530 9.254267 2.515048 11697996
9.351891 9.312428 0.503595 11697996
10.760283 11.130246 3.946500 11697996
9.223396 10.309815 1.557461 11697996
9.901486 9.502122 3.546534 11697996
8.799600 9.435412 2.227088 11697996
10.308547 9.664541 2.799981 11697996
9.753449 11.201637 3.793451 11697996
10.344036 10.565094 2.985917 11697996
10.544719 10.953370 3.960084 11697996
11.236413 9.073378 2.775741 11697996
9.842141 9.372862 2.461517 11697996
10.278698 10.733747 3.267622 11697996
9.536446 10.218759 3.514227 11697996
9.276977 9.967909 0.116891 11697996
10.247127 10.811252 1.672943 11697996
10.746362 10.263964 2.005189 11697996
10.919123 10.627701 1.053851 11697996
10.113834 8.894650 1.866904 11697996
10.003763 10.339837 1.241051 11697996
11.115542 9.632434 1.897385 11697996
10.492307 9.465815 3.638470 11697996
9.969818 10.106004 0.889804 11697996
10.866566 10.954655 1.240734 11697996
10.238738 9.789892 2.575550 11697996
9.677767 9.180614 3.331436 11697996
9.726978 10.911979 2.229539 11697996
9.460090 10.418504 0.855578 11697996
10.916790 10.631546 3.428022 11697996
9.292557 9.601476 2.339703 11697996
9.003473 10.759381 -0.003226 11697996
9.443172 10.890907 1.930154 11697996
9.872477 8.842013 3.037037 11697996
8.845260 9.763450 2.016580 11697996
8.963375 10.645570 0.338607 11697996
8.816190 9.264270 1.227381 11697996
10.889081 9.349405 1.066124 11697996
10.886559 10.427984 3.052412 11697996
9.040483 10.884826 3.804539 11697996
10.956804 9.496983 2.987834 11697996
10.861465 8.744242 0.326226 11697996
9.019125 10.349713 1.026702 11697996
10.444544 8.840968 1.922970 11697996
9.352376 9.318011 0.073387 11697996
9.597624 9.933797 1.236663 11697996
10.718101 8.933761 1.070468 11697996
9.084385 10.545525 0.967419 11697996
10.538068 10.185637 0.410856 11697996
11.019907 9.338283 1.883853 11697996
9.082950 9.859904 1.981714 11697996
10.117887 11.089537 2.758251 11697996
8.885466 9.224039 0.645217 11697996
9.532220 10.824164 3.749534 11697996
9.257679 9.621288 2.226374 11697996
9.260250 10.423255 0.181338 11697996
10.700885 9.873615 2.473925 11697996
9.519531 8.830398 3.774100 11697996
10.946022 10.055830 1.486058 11697996
9.067317 10.369392 1.694695 11697996
9.313130 9.373706 2.062918 11697996
10.277194 8.837672 3.903195 11697996
10.047894 9.205489 3.290530 11697996
10.705028 10.069692 3.179423 11697996
11.232254 10.628271 3.832796 11697996
9.298650 9.294128 2.138049 11697996
9.525283 10.973331 3.264442 11697996
10.069053 9.320315 0.481396 11697996
9.514550 10.457151 2.386018 11697996
10.931448 8.914308 1.138577 11697996
9.630608 10.344429 1.575460 11697996
10.510550 10.424714 1.529357 11697996
9.856608 9.053125 2.496818 11697996
9.289136 10.543001 2.073891 11697996
9.209207 10.041632 0.653077 11697996
9.623602 10.454149 3.760018 11697996
10.318522 9.799654 3.598582 11697996
10.028143 9.289388 2.016188 11697996
10.634557 9.834488 0.400667 11697996
11.236020 10.557733 3.166486 11697996
10.684901 9.612809 3.251098 11697996
10.216887 10.383492 0.739153 11697996
9.620113 10.314012 2.655358 11697996
10.970817 11.129869 3.952766 11697996
11.114183 11.199147 2.010281 11697996
9.202103 9.038647 0.239743 11697996
9.780080 9.768288 3.556522 11697996
9.303291 11.117845 1.621131 11697996
8.946294 10.578415 0.402528 11697996
11.185375 10.979520 2.711741 11697996
8.864066 10.684155 1.589538 11697996
10.630899 9.434106 1.054220 11697996
10.844073 9.563437 3.177086 11697996
10.156717 10.225229 0.943896 11697996
9.094226 9.700275 2.336819 11697996
11.079645 9.126365 0.520619 11697996
9.342222 8.833138 2.221197 11697996
10.930745 10.892880 2.314169 11697996
10.422919 10.734121 3.787806 11697996
9.430355 10.927153 0.967220 11697996
9.286704 10.216752 3.509027 11697996
10.362349 9.459485 2.900253 11697996
10.597077 10.425196 3.619000 11697996
8.867643 11.122846 1.201050 11697996
9.542120 10.195663 1.136635 11697996
9.633577 10.013954 3.173896 11697996
10.709609 10.380193 3.217749 11697996
10.152208 9.571251 0.160551 11697996
9.064109 8.899784 0.033689 11697996
9.500509 10.254497 1.400562 11697996
10.616262 9.569390 3.534418 11697996
9.082944 11.179649 0.591218 11697996
9.547594 11.127437 0.444567 11697996
10.741174 8.867322 1.566040 11697996
10.418532 10.828305 2.109836 11697996
11.213944 10.933545 3.067194 11697996
11.166742 8.883706 2.592432 11697996
9.920830 10.781543 3.907349 11697996
9.485209 10.401978 3.945355 11697996
9.102893 9.161795 3.154960 11697996
9.132875 10.556554 3.423097 11697996
10.958711 11.065024 2.827917 11697996
9.568988 10.468864 2.067842 11697996
9.350346 10.001096 3.717033 11697996
10.922038 9.732621 3.802604 11697996
9.589329 9.059769 0.406885 11697996
9.124211 9.185115 0.601507 11697996
9.512115 9.052013 1.360581 11697996
9.720509 10.325801 3.236964 11697996
10.826390 9.297188 0.742048 11697996
9.044341 10.158087 1.968272 11697996
9.512369 10.552013 1.084123 11697996
10.096545 9.253428 2.757675 11697996
9.517438 10.196674 0.014226 11697996
9.373034 9.165568 0.248292 11697996
10.817992 9.866229 1.529314 11697996
9.808644 10.753822 0.144430 11697996
9.013331 9.712986 0.860678 11697996
10.182927 9.439083 2.051791 11697996
10.913724 9.271153 1.058822 11697996
8.865540 10.271566 1.832920 11697996
8.826206 10.993177 3.592894 11697996
10.598583 9.083741 2.356324 11697996
9.318769 10.943381 1.811857 11697996
10.588471 9.888309 0.558424 11697996
9.470474 9.164428 3.736335 11697996
10.326821 10.308355 0.056452 11697996
10.721080 9.041038 3.709494 11697996
9.120237 11.129504 3.984390 11697996
10.272455 9.306099 1.969412 11697996
8.808052 9.030302 3.666550 11697996
10.307292 9.219748 2.656042 11697996
9.736731 9.985864 3.927534 11697996
8.782388 9.836355 1.491252 11697996
9.251682 10.462336 2.157257 11697996
9.633449 10.691384 2.772989 11697996
9.286927 9.873205 2.114965 11697996
8.754047 10.260482 3.209094 11697996
9.287186 10.955198 0.108229 11697996
8.799473 9.455244 2.508797 11697996
10.859254 9.774364 1.530554 11697996
10.256960 9.766230 1.792259 11697996
10.459822 10.082917 2.341865 11697996
10.152654 9.188787 2.927875 11697996
10.101746 10.309933 3.496231 11697996
9.173380 10.109352 0.991473 11697996
9.369701 8.843916 2.604465 11697996
11.253130 11.134472 1.232883 11697996
9.085578 10.193379 2.609810 11697996
9.649420 9.708474 2.726195 11697996
9.395298 9.754374 1.700249 11697996
9.366443 10.841311 3.594678 11697996
10.704196 8.863300 2.750666 11697996
10.171778 9.352009 1.602320 11697996
10.954117 10.716502 3.809515 11697996
9.096726 9.437466 3.341689 11697996
10.067151 9.660303 0.847765 11697996
9.231467 10.977919 0.451662 11697996
9.025152 10.998633 1.944858 11697996
10.955454 10.824187 1.340938 11697996
9.842100 9.251249 3.213758 11697996
10.387779 9.825581 1.340671 11697996
10.295505 9.881667 3.925858 11697996
9.440449 9.074071 3.578910 11697996
9.748780 10.495797 3.184429 11697996
8.993510 9.824906 2.831898 11697996
10.323586 11.006557 0.419815 11697996
10.095364 10.942349 3.011444 11697996
9.003478 9.491406 0.254586 11697996
8.763496 10.132347 0.952953 11697996
9.672179 10.635871 0.572713 11697996
10.389809 10.163383 3.323025 11697996
9.150206 10.212622 3.655392 11697996
11.213152 10.287266 2.506062 11697996
10.900257 10.055037 2.848209 11697996
10.159137 9.989065 0.124367 11697996
10.532601 9.437594 1.656311 11697996
9.081210 9.159431 0.479070 11697996
8.924812 10.866115 0.502392 11697996
9.091370 10.212543 2.260608 11697996
9.811072 10.622397 2.015375 11697996
10.923445 9.417809 3.381877 11697996
8.971466 10.747694 2.035685 11697996
8.852881 10.109736 2.765013 11697996
9.732006 10.105312 0.629007 11697996
10.733637 10.686087 0.501657 11697996
9.355619 10.097777 3.229499 11697996
8.771795 8.934190 1.677616 11697996
9.592937 9.718886 1.420788 11697996
9.608476 11.111626 2.507345 11697996
11.062375 9.861595 2.824873 11697996
9.445022 9.384175 2.576294 11697996
9.330032 9.614194 1.702807 11697996
10.535473 11.199730 0.378151 11697996
9.256994 8.919463 3.416920 11697996
10.586785 9.788558 2.314347 11697996
9.964853 10.669071 1.580503 11697996
9.810012 11.177709 2.141856 11697996
10.612530 11.025697 2.298541 11697996
9.714730 11.101322 3.418602 11697996
10.111243 8.932571 0.069629 11697996
9.765295 10.452227 1.645341 11697996
8.853048 9.778068 2.784210 11697996
10.152737 9.898393 2.369273 11697996
10.934166 9.921027 1.823552 11697996
10.132257 10.668337 1.104907 11697996
9.248073 8.994834 3.216115 11697996
9.624727 9.613255 0.807625 11697996
9.805695 10.132185 1.019676 11697996
10.033485 9.916035 2.427891 11697996
11.229359 10.532953 3.337874 11697996
9.593097 9.981031 1.892999 11697996
10.668776 8.842287 0.221565 11697996
11.163605 9.331870 0.027625 11697996
11.133207 9.324041 0.825353 11697996
9.740630 10.304556 1.544391 11697996
10.403069 8.976024 0.695314 11697996
11.145883 8.857036 2.806951 11697996
11.211185 9.432330 3.295813 11697996
11.113663 9.188184 2.092423 11697996
11.191293 10.744111 3.941990 11697996
10.518789 9.714729 2.555828 11697996
10.102933 10.150406 0.335131 11697996
10.795453 10.500833 1.363361 11697996
9.504898 8.850766 1.560283 11697996
9.311894 9.957415 3.394613 11697996
10.705062 10.535042 2.069992 11697996
10.919882 8.825954 2.289374 11697996
9.040687 8.877062 3.403324 11697996
10.235325 10.749927 0.393452 11697996
11.107568 10.943207 3.481456 11697996
10.636662 10.453445 3.043876 11697996
9.334510 9.982256 3.411830 11697996
10.407273 11.094028 0.746751 11697996
10.073697 9.384166 0.891185 11697996
10.611505 10.355485 1.682482 11697996
10.025027 10.168795 3.370118 11697996
9.629165 10.043729 2.728304 11697996
10.483348 9.182313 1.179142 11697996
9.984035 9.579068 1.794361 11697996
10.760396 10.273625 1.767926 11697996
10.682329 11.045147 0.925223 11697996
11.066998 9.868310 2.050696 11697996
10.469810 10.186044 1.547651 11697996
11.062612 9.292240 3.894588 11697996
9.177114 9.700145 2.541580 11697996
10.531649 10.345488 2.337947 11697996
9.555310 10.809068 1.733302 11697996
10.550342 9.493673 3.944096 11697996
10.305164 10.325136 1.591482 11697996
9.290009 9.754937 0.283516 11697996
9.015014 10.667823 2.494885 11697996
11.040993 10.965733 2.966929 11697996
9.255852 9.513659 0.119113 11697996
9.391848 10.484388 2.596958 11697996
9.259969 10.057609 0.019506 11697996
10.362599 9.588029 0.283878 11697996
9.888949 11.032259 1.125913 11697996
10.095345 9.885537 0.983359 11697996
9.994818 9.851954 1.758768 11697996
8.938027 9.050518 0.492547 11697996
10.214478 10.363130 3.593276 11697996
10.810863 10.481338 1.527916 11697996
9.284577 10.536930 3.044834 11697996
8.956849 9.307963 3.931385 11697996
9.293213 9.349957 3.738383 11697996
10.481824 10.354159 0.105553 11697996
11.213712 11.063652 2.771630 11697996
10.135261 10.453843 3.982376 11697996
9.020890 11.024698 2.420238 11697996
9.966711 10.574470 1.096364 11697996
10.705821 10.423843 0.963055 11697996
10.288526 9.872595 1.929628 11697996
9.237782 9.870451 3.132684 11697996
10.844834 9.953013 1.322223 11697996
11.218175 8.836493 0.156664 11697996
9.286706 9.574749 1.860854 11697996
9.445491 10.236895 3.905296 11697996
10.617785 10.910731 2.719482 11697996
9.764115 9.451679 2.259012 11697996
11.190503 10.733824 1.626224 11697996
9.077174 10.815348 0.283972 11697996
9.647514 9.698956 0.166181 11697996
9.711358 8.995866 2.291044 11697996
9.840343 11.027117 3.546065 11697996
10.637381 9.131760 3.462615 11697996
9.458329 10.154260 1.882446 11697996
9.642234 9.861899 3.448177 11697996
10.206246 9.588549 3.206835 11697996
10.918626 8.765041 0.630144 11697996
10.163012 9.798677 1.615328 11697996
9.442650 9.010160 3.417669 11697996
10.100527 10.822623 2.280997 11697996
10.143604 9.909385 3.402280 11697996
9.764772 9.060010 3.031549 11697996
11.171121 9.576430 1.211628 11697996
9.177561 9.646365 2.731876 11697996
9.134171 10.058096 1.850232 11697996
11.020588 10.274899 3.419848 11697996
9.037112 9.573501 0.201605 11697996
10.625881 9.790510 1.374463 11697996
11.005159 10.168091 0.081783 11697996
10.415810 10.189387 2.288181 11697996
10.428776 10.581144 2.548002 11697996
10.931056 9.810623 3.744333 11697996
9.447793 10.749718 3.091269 11697996
8.783667 9.805216 3.741085 11697996
10.432674 9.080707 0.446991 11697996
8.872406 9.609799 0.127159 11697996
10.952117 9.888760 1.903358 11697996
10.416279 10.365161 1.384514 11697996
8.992695 9.207926 1.530994 11697996
11.022160 8.960044 1.394599 11697996
9.203061 10.480844 1.175575 11697996
9.528422 11.022946 0.758545 11697996
10.636679 10.976989 2.822718 11697996
11.145582 10.761945 0.156468 11697996
9.106239 8.872794 0.237635 11697996
9.874173 10.007606 3.838296 11697996
10.454503 9.561489 2.672189 11697996
11.059122 10.865310 2.931237 11697996
9.976093 10.781058 0.082882 11697996
10.324015 9.066971 0.268212 11697996
10.415637 10.956299 0.986002 11697996
8.762412 9.453032 0.786937 11697996
9.310750 11.060939 1.234998 11697996
10.740459 9.004475 1.523120 11697996
10.000152 10.627505 0.388499 11697996
10.692127 9.849028 1.699144 11697996
10.228324 10.111931 3.913881 11697996
10.620870 9.433456 3.064692 11697996
10.121058 11.133219 0.301748 11697996
9.010095 9.865796 1.750775 11697996
9.587434 10.122977 3.792956 11697996
9.747581 10.807612 1.267288 11697996
11.018251 10.999619 0.417005 11697996
10.266325 9.193425 2.178982 11697996
8.763058 9.137179 1.833480 11697996
8.787544 9.223177 1.239024 11697996
8.855975 9.565733 2.082638 11697996
9.329613 10.834846 1.791161 11697996
9.030018 10.322440 2.098708 11697996
8.926762 10.668140 1.967099 11697996
9.140440 10.572328 0.332019 11697996
10.114406 11.166122 2.690264 11697996
9.302113 10.144352 3.521611 11697996
11.100027 10.549913 2.659583 11697996
10.710629 9.788701 0.652003 11697996
9.628930 8.999554 2.031302 11697996
10.361522 10.308031 3.017709 11697996
10.173052 9.179348 1.910499 11697996
11.244965 9.856088 1.993893 11697996
11.085635 9.225355 2.218135 11697996
9.946416 11.071809 1.760189 11697996
11.177632 9.491098 1.488028 11697996
9.959201 9.165187 1.392596 11697996
10.676845 10.570947 3.132680 11697996
11.090299 11.185534 3.765910 11697996
9.905262 9.167653 3.630121 11697996
11.189512 11.171851 0.606915 11697996
9.175723 9.233145 3.881655 11697996
10.836259 10.236994 2.578931 11697996
10.131482 10.170465 0.352063 11697996
9.824562 10.248090 0.594656 11697996
10.353974 8.731092 0.285131 11697996
10.431393 9.638659 2.673159 11697996
9.468427 9.186162 2.368314 11697996
8.765991 10.478899 3.919053 11697996
10.885089 10.101959 2.886219 11697996
10.573916 11.031412 3.461186 11697996
9.118240 9.754250 3.642705 11697996
8.819749 9.487853 0.870306 11697996
9.319154 10.808475 2.047006 11697996
10.184911 9.530841 2.910774 11697996
9.681168 9.831915 0.660683 11697996
11.072773 9.797830 2.112760 11697996
10.080010 10.324236 2.319082 11697996
10.743218 11.126534 1.857377 11697996
10.201774 9.686309 3.227650 11697996
8.828553 9.213210 0.234320 11697996
10.783670 9.812350 3.099138 11697996
11.173636 8.827027 0.999358 11697996
9.698924 10.482039 2.726119 11697996
10.904547 10.562262 1.845711 11697996
9.817745 10.780362 3.947001 11697996
10.666444 10.408806 0.150796 11697996
11.057595 9.011832 1.042200 11697996
10.195779 9.200197 0.968654 11697996
10.212247 11.145624 2.429015 11697996
9.484364 10.991576 0.796614 11697996
9.575160 10.620090 0.778899 11697996
9.024473 8.982367 1.431062 11697996
10.753624 9.790508 2.768958 11697996
10.454152 10.006973 2.196151 11697996
10.547104 8.863480 2.498715 11697996
9.023603 11.176548 1.089036 11697996
9.628050 10.123829 3.536500 11697996
9.682791 10.877451 2.889775 11697996
10.585812 9.141896 0.955121 11697996
8.831528 9.160568 1.171612 11697996
11.094472 10.696352 1.717144 11697996
8.900715 9.641060 3.342531 11697996
10.682049 9.148151 2.220663 11697996
10.709925 9.867375 3.845976 11697996
8.886760 9.408834 1.913077 11697996
9.978542 9.277207 1.374358 11697996
10.570972 9.915173 0.729035 11697996
9.536441 10.773803 3.161129 11697996
9.215991 9.559574 3.062889 11697996
10.176001 9.455903 2.900226 11697996
11.223252 9.846931 0.549501 11697996
10.852126 9.484620 0.513126 11697996
9.970473 11.172941 0.791041 11697996
9.627546 9.365818 0.579169 11697996
9.517679 9.627953 3.616336 11697996
9.730527 9.357508 3.472962 11697996
9.865588 9.962158 3.155661 11697996
9.233829 9.767406 2.377854 11697996
9.605322 9.342057 1.786073 11697996
8.781478 10.015034 0.758974 11697996
10.825589 10.537773 0.081003 11697996
8.866714 10.695768 0.347767 11697996
11.093387 11.183756 3.626439 11697996
10.443547 9.296413 1.210546 11697996
10.357818 8.858470 3.453547 11697996
11.183104 11.228160 3.800094 11697996
10.955831 9.775962 1.182826 11697996
11.058014 9.353154 2.874471 11697996
10.034434 10.910943 3.828379 11697996
9.995652 9.942661 2.961145 11697996
10.668371 11.014318 1.450710 11697996
9.919273 10.935545 0.929641 11697996
9.788958 9.650410 2.246612 11697996
10.761309 9.309528 3.276892 11697996
9.451269 9.676427 0.256243 11697996
10.500834 9.077116 2.434803 11697996
8.832987 9.301474 1.286182 11697996
10.531899 9.543191 3.638760 11697996
11.081179 9.121244 1.298331 11697996
10.306586 8.802723 1.673111 11697996
10.942606 10.723901 2.693143 11697996
9.573996 8.977054 1.285857 11697996
8.769573 9.678648 0.358262 11697996
8.850257 9.111877 3.138400 11697996
10.559378 10.713601 2.065961 11697996
10.458446 9.855183 1.383054 11697996
10.394269 8.961490 3.762251 11697996
10.347078 10.731955 2.376731 11697996
11.019825 8.810069 0.179230 11697996
9.017247 9.503596 2.693331 11697996
10.472422 9.738352 2.942777 11697996
10.778597 10.241101 3.121099 11697996
10.395024 8.971236 1.400479 11697996
10.102190 9.674660 2.055873 11697996
9.498642 11.076050 1.913006 11697996
9.754447 9.506353 1.413358 11697996
9.286461 10.494893 3.843032 11697996
10.905559 9.665565 0.692967 11697996
9.806710 10.557419 2.640726 11697996
8.877046 9.853036 1.592540 11697996
10.232842 10.295639 3.733967 11697996
8.759838 9.763190 1.657491 11697996
9.421633 10.167231 1.837651 11697996
9.467809 9.557802 0.052940 11697996
9.902347 10.172499 1.849842 11697996
9.456437 8.752763 2.151418 11697996
9.435236 10.111160 0.429215 11697996
9.303970 8.755470 3.956263 11697996
8.964315 10.394530 2.388919 11697996
9.615277 10.052754 1.657986 11697996
9.273849 9.888085 0.899124 11697996
10.802217 10.827286 1.371352 11697996
11.202174 9.910890 3.166643 11697996
10.532178 10.244588 1.288279 11697996
8.944996 10.630255 3.715456 11697996
10.537809 10.246902 2.759450 11697996
9.674332 9.280630 3.516053 11697996
10.956666 11.153805 0.955010 11697996
10.382409 10.663518 2.613683 11697996
10.189736 10.651588 1.206225 11697996
10.485209 9.473917 2.218961 11697996
9.907022 9.336981 0.054380 11697996
9.570025 10.696850 0.580551 11697996
10.319009 9.270243 0.250926 11697996
9.012309 10.803758 0.471616 11697996
10.409236 10.935767 1.978952 11697996
10.069160 9.049062 2.649284 11697996
10.188492 9.211203 3.804803 11697996
10.858588 9.827553 2.849591 11697996
10.334107 11.175932 1.112029 11697996
10.946357 9.086520 0.477291 11697996
11.133328 10.032990 1.437685 11697996
9.377114 10.222698 3.557727 11697996
9.053442 8.797469 1.251480 11697996
10.337115 10.582141 1.360454 11697996
8.950579 8.904989 3.241267 11697996
10.292987 9.167618 3.912654 11697996
9.105842 10.298335 2.624864 11697996
9.243331 9.809170 0.681879 11697996
9.862238 11.092580 3.353296 11697996
8.985656 10.290754 3.242103 11697996
8.806689 11.247187 2.910087 11697996
9.391384 10.315725 3.551003 11697996
11.141580 11.188204 0.493495 11697996
8.944431 9.270958 0.664229 11697996
10.265409 9.001862 3.660967 11697996
10.439898 11.081818 0.598497 11697996
8.774138 9.815092 3.651914 11697996
10.122407 10.360700 3.556499 11697996
9.581306 10.212256 1.140606 11697996
9.686663 8.793364 3.128419 11697996
10.001384 9.524408 3.100887 11697996
10.531769 9.815775 2.857783 11697996
9.357327 9.024169 1.061168 11697996
10.773903 11.066778 1.615295 11697996
9.906091 9.322739 3.060980 11697996
10.304262 9.401404 1.305086 11697996
10.401523 10.933664 3.307581 11697996
8.858053 9.655668 1.907355 11697996
9.241254 10.768878 3.030073 11697996
9.375688 10.768794 1.293081 11697996
9.281832 9.873286 2.346946 11697996
11.115091 8.991228 0.163825 11697996
10.113462 8.999734 1.859271 11697996
10.645473 9.899399 1.104682 11697996
10.316684 10.192793 0.607671 11697996
10.992761 9.678000 3.100809 11697996
8.887061 10.658440 1.598250 11697996
10.224801 9.652767 3.053616 11697996
9.027279 10.508667 3.377415 11697996
10.230884 10.472326 0.000282 11697996
9.090430 10.359096 2.104768 11697996
9.814557 10.488346 1.640568 11697996
10.056474 9.842607 1.464202 11697996
10.886658 9.897165 1.301647 11697996
9.483460 8.989369 1.821629 11697996
10.575103 9.202418 2.187358 11697996
11.178939 10.331539 3.092386 11697996
11.189003 9.367782 3.455135 11697996
9.945786 9.073640 1.566721 11697996
10.931345 9.787140 1.125142 11697996
11.226148 10.080385 0.421517 11697996
9.865933 8.749987 2.278450 11697996
10.036522 9.487176 2.351454 11697996
9.979321 10.746499 1.727653 11697996
9.919473 9.954933 2.827372 11697996
9.956390 10.703935 3.817317 11697996
10.724062 9.309470 2.478703 11697996
9.460238 8.921782 0.275850 11697996
