# .PCD v0.7 - Point Cloud Data file format
VERSION 0.7
FIELDS x y z rgb
SIZE 4 4 4 4
TYPE F F F U
COUNT 1 1 1 1
WIDTH 1292
HEIGHT 1
VIEWPOINT 0 0 0 1 0 0 0
POINTS 1292
DATA ascii
10.784763 9.217669 3.694884 11697996
11.154922 9.620680 0.249075 11697996
9.948324 10.380494 3.548155 11697996
9.305060 10.402992 2.244031 11697996
9.573030 9.099010 2.229606 11697996
10.651941 10.656477 0.037911 11697996
11.065486 11.130156 2.824083 11697996
10.702192 11.231654 0.056688 11697996
10.799297 9.991189 3.995476 11697996
10.192254 10.733747 3.840802 11697996
9.917077 8.784024 1.256164 11697996
10.918489 8.993520 3.218169 11697996
8.788876 9.478890 1.487609 11697996
9.972863 8.935604 1.294182 11697996
9.091523 10.308590 0.455113 11697996
10.794672 9.123608 3.297996 11697996
10.145633 9.593225 2.063702 11697996
9.689448 10.074025 3.963597 11697996
11.203297 11.220679 3.961956 11697996
9.830232 9.218830 3.463926 11697996
11.109267 9.741133 1.374363 11697996
9.075721 9.885346 2.940243 11697996
8.800652 10.470448 3.213037 11697996
10.371966 9.282149 3.404707 11697996
10.710151 9.553921 1.749421 11697996
10.402922 8.789178 1.746381 11697996
10.697539 9.914438 2.287313 11697996
8.846126 9.309612 2.997507 11697996
9.771485 10.869335 3.088095 11697996
9.515630 9.627064 3.527336 11697996
9.937064 9.764635 1.464011 11697996
8.866114 11.132380 3.023277 11697996
9.020995 10.327390 1.940233 11697996
8.727539 10.719160 0.114065 11697996
9.817797 9.282477 2.531082 11697996
11.195700 9.356955 1.276294 11697996
9.230348 9.854611 2.001712 11697996
8.937166 11.000440 0.541596 11697996
10.077537 10.024444 2.215216 11697996
9.825844 10.297868 3.060530 11697996
11.037310 10.607441 3.572501 11697996
8.827985 9.097205 1.981159 11697996
9.796643 8.899217 0.530249 11697996
10.372535 8.967874 3.345411 11697996
9.898940 10.240606 1.561512 11697996
10.309898 8.909326 1.460721 11697996
11.042683 9.241870 1.366820 11697996
10.213134 10.232772 3.176780 11697996
9.920693 9.217506 2.526618 11697996
10.453815 10.356199 1.341871 11697996
10.999986 10.936125 1.361785 11697996
8.997421 10.395471 0.688906 11697996
9.117046 10.248940 1.678004 11697996
9.031629 9.302032 0.109971 11697996
10.833694 9.153646 1.172306 11697996
10.395060 10.167827 2.220246 11697996
9.414517 10.834128 1.023592 11697996
8.915508 10.650961 1.406273 11697996
10.982523 10.761369 0.397836 11697996
10.020794 10.169308 2.630651 11697996
9.341097 10.681299 2.851108 11697996
10.884922 8.966934 3.807060 11697996
10.912215 10.056125 2.538967 11697996
9.771366 9.920366 3.938412 11697996
11.180923 11.021791 2.160574 11697996
10.485338 10.318701 1.388232 11697996
10.555527 9.286107 1.199305 11697996
10.779471 9.171585 2.797162 11697996
8.875081 10.785426 0.588514 11697996
10.397147 8.925550 2.977907 11697996
9.511215 9.903039 1.441247 11697996
9.362663 9.613302 0.362185 11697996
10.865026 10.477654 3.653611 11697996
10.617297 9.813575 3.887789 11697996
8.837427 10.892956 2.200060 11697996
9.637943 9.781260 3.006107 11697996
9.053072 8.810161 2.559899 11697996
11.024859 9.643903 1.600563 11697996
10.750005 10.867576 0.123064 11697996
9.374970 11.134562 2.727741 11697996
10.321200 10.173139 2.558787 11697996
9.531690 9.537335 2.068211 11697996
8.869962 9.995978 1.970990 11697996
9.128485 10.777190 0.888937 11697996
8.814392 10.789841 1.700773 11697996
9.781522 9.932610 2.061756 11697996
10.297008 8.978839 1.742890 11697996
9.548255 9.917790 0.520807 11697996
9.329863 9.664804 0.704509 11697996
8.812007 10.276098 3.139167 11697996
10.464205 10.259233 3.699998 11697996
10.795984 10.776209 0.070977 11697996
10.262994 10.140028 0.493794 11697996
11.014500 9.865317 1.878091 11697996
9.785306 9.293771 2.228324 11697996
10.105917 9.035830 0.109308 11697996
9.687059 10.009870 0.948901 11697996
10.572838 10.058096 1.620880 11697996
9.252504 11.109992 2.426392 11697996
9.709582 10.088987 0.771705 11697996
9.917544 10.880910 0.166659 11697996
10.391147 10.492125 2.078378 11697996
9.126890 10.014108 0.512706 11697996
8.864091 11.028425 0.855787 11697996
11.081107 9.349255 0.771792 11697996
10.126373 9.226671 2.614326 11697996
10.963811 10.855664 0.515956 11697996
10.447840 11.001139 2.142056 11697996
8.996110 10.275853 3.524738 11697996
9.422048 9.592151 0.154300 11697996
11.065269 9.009901 3.012230 11697996
11.110457 8.984773 3.892137 11697996
8.852994 10.512048 0.435930 11697996
8.863791 9.460823 0.751478 11697996
10.311674 11.114734 3.011298 11697996
8.793349 10.201344 0.853473 11697996
8.819952 8.784025 3.790809 11697996
11.209962 10.557378 2.140143 11697996
10.402102 8.997581 3.180556 11697996
9.350675 9.201660 0.520344 11697996
10.953004 9.724890 3.367772 11697996
10.638271 10.421208 0.444388 11697996
9.782291 8.972626 3.765863 11697996
9.302469 9.434312 2.386689 11697996
9.115273 9.229172 3.871318 11697996
9.799479 9.736881 1.986573 11697996
10.468051 10.547525 0.043931 11697996
9.526762 10.848145 1.254824 11697996
10.349405 10.458724 2.605552 11697996
10.992959 10.945337 0.626825 11697996
9.212644 9.474587 1.077984 11697996
9.575459 9.301384 2.810832 11697996
9.674356 10.371925 1.360301 11697996
10.065902 10.911331 3.190518 11697996
11.149177 9.780527 0.003611 11697996
9.500907 9.535936 0.940733 11697996
8.904795 10.707407 1.258013 11697996
9.098440 9.099624 3.657703 11697996
10.841679 9.809877 2.463480 11697996
11.228721 8.911901 3.993621 11697996
9.969004 10.805792 1.856591 11697996
8.904241 8.985340 1.014511 11697996
9.654712 10.187718 1.025720 11697996
10.312467 9.576497 1.534867 11697996
10.824159 10.369740 1.330916 11697996
10.252628 9.358513 3.964188 11697996
10.099507 9.537876 3.282034 11697996
9.041853 10.406700 0.912762 11697996
9.880768 9.240649 3.741584 11697996
11.119272 8.968062 2.092573 11697996
10.825493 10.800661 0.410645 11697996
9.178276 10.300623 0.874472 11697996
9.373404 11.074317 3.185550 11697996
9.794945 9.023687 0.149134 11697996
10.012445 9.609762 0.430860 11697996
8.814864 10.048569 2.484490 11697996
9.953326 11.089973 0.873678 11697996
10.433481 9.963305 0.049508 11697996
10.284305 9.597505 3.005734 11697996
10.063844 9.206250 3.340154 11697996
10.322833 9.820236 3.808582 11697996
9.319689 11.133297 1.597085 11697996
9.089863 10.522778 1.416141 11697996
8.854228 9.947366 2.258316 11697996
9.834085 10.254824 2.347403 11697996
10.848763 10.572859 1.373875 11697996
10.956038 9.929621 3.732489 11697996
10.306961 10.038214 2.671696 11697996
8.909208 9.603644 2.005768 11697996
10.943184 10.789564 1.460850 11697996
10.817589 8.840451 3.012541 11697996
9.065026 10.257787 3.188313 11697996
10.799283 8.935654 1.579431 11697996
9.231108 10.919402 0.487940 11697996
10.802303 9.939459 0.020253 11697996
10.723448 10.357244 3.564737 11697996
10.889700 10.971104 2.294169 11697996
10.035331 9.543540 3.376041 11697996
10.992227 10.279771 0.251474 11697996
8.900801 9.305485 2.615053 11697996
9.425500 8.791265 2.992641 11697996
9.436338 10.135180 1.903026 11697996
10.780690 10.821486 3.208746 11697996
8.957510 8.930017 0.471612 11697996
10.827968 10.640611 3.099129 11697996
9.932821 10.074950 3.245568 11697996
11.178639 10.636514 2.883775 11697996
11.085443 10.047736 1.975125 11697996
9.180867 9.987486 2.783523 11697996
10.597594 10.771829 3.216624 11697996
9.394460 10.755207 1.737879 11697996
11.176072 9.421052 3.513029 11697996
10.974434 9.577405 1.003922 11697996
8.931019 11.037371 0.448905 11697996
8.829690 10.920947 0.133443 11697996
10.191070 10.022145 1.327367 11697996
10.629360 10.285678 1.448288 11697996
8.948470 10.000953 3.828636 11697996
10.454611 10.597436 1.819807 11697996
9.632305 11.150702 2.708824 11697996
10.862845 9.672097 3.146785 11697996
8.858921 10.889292 3.952751 11697996
10.881801 10.448750 1.870859 11697996
10.730486 9.668963 1.112029 11697996
9.777759 9.404307 0.354457 11697996
10.078835 10.053806 2.736989 11697996
9.761395 11.188975 0.742523 11697996
8.990889 10.034997 3.983790 11697996
10.472718 9.798386 3.151614 11697996
9.370993 9.749040 0.694179 11697996
8.954863 11.169829 3.073748 11697996
9.241439 9.052638 3.728993 11697996
11.110218 9.038922 2.142110 11697996
11.234907 10.774610 0.928561 11697996
10.850648 10.576803 3.708536 11697996
9.116042 9.635552 3.953403 11697996
10.788485 10.580894 2.188254 11697996
10.670102 10.548685 0.449267 11697996
9.195942 9.028504 1.646868 11697996
9.312881 9.930315 3.772728 11697996
8.840548 9.623503 1.846862 11697996
10.662097 8.948401 1.621662 11697996
10.667417 10.479557 2.322375 11697996
10.632757 9.801411 1.849300 11697996
10.899894 10.084874 3.987506 11697996
9.046307 9.473083 2.776373 11697996
10.439683 9.701143 3.158982 11697996
10.774970 9.013917 2.167111 11697996
9.086109 10.791780 0.114770 11697996
9.278602 11.049588 3.224284 11697996
9.880958 10.929608 0.813620 11697996
10.880372 10.785172 0.872277 11697996
9.212305 9.500599 1.067756 11697996
10.414186 9.662816 3.633608 11697996
10.882888 11.201069 0.725399 11697996
9.241011 11.149631 2.170644 11697996
9.627016 10.663036 1.808271 11697996
10.048417 9.908670 3.930510 11697996
9.355322 10.912477 2.693439 11697996
10.858674 10.490968 3.194370 11697996
10.813858 10.880696 3.099607 11697996
9.752541 10.530190 1.311323 11697996
10.811274 9.340429 1.139011 11697996
9.990011 9.328660 0.549445 11697996
9.019237 9.581329 1.080429 11697996
9.163832 9.195434 0.235172 11697996
9.281306 10.289675 3.846552 11697996
9.758958 8.934559 0.451023 11697996
9.196901 8.733907 2.299887 11697996
10.910492 9.149298 3.003780 11697996
8.865419 9.658373 3.871220 11697996
9.564601 10.130450 3.701442 11697996
11.059902 9.218391 0.923072 11697996
10.701231 9.472728 1.236674 11697996
9.846562 9.592742 1.577859 11697996
8.781882 11.146044 2.146040 11697996
11.124882 10.257713 2.346323 11697996
11.223644 9.576330 1.181515 11697996
11.182377 9.799497 0.703610 11697996
9.142269 9.788078 2.499818 11697996
9.114641 10.291091 3.219146 11697996
9.516440 9.433434 2.872747 11697996
8.855989 9.535568 3.752132 11697996
10.183972 10.825409 2.598780 11697996
10.631775 10.304207 3.829946 11697996
10.012890 10.113095 3.915785 11697996
8.833980 8.915593 1.717665 11697996
10.236816 8.962687 0.260678 11697996
9.102327 10.962210 0.769384 11697996
8.772716 8.889998 3.131460 11697996
9.905912 8.948795 3.154166 11697996
11.148247 10.963566 2.214467 11697996
9.283248 8.786491 0.938348 11697996
8.970336 9.112017 1.608945 11697996
9.320789 10.219344 1.377955 11697996
10.505201 8.764483 3.285288 11697996
10.720134 9.829976 3.705824 11697996
9.571069 9.718965 0.420361 11697996
9.385015 8.810084 3.303943 11697996
10.701901 9.551612 2.414525 11697996
10.130486 9.510699 3.997552 11697996
9.579860 9.811528 1.658053 11697996
9.785390 10.134160 3.040157 11697996
10.004383 9.408250 1.859880 11697996
10.713800 10.929222 1.416567 11697996
9.941375 8.794671 1.510127 11697996
9.190831 10.417498 1.904181 11697996
9.161535 11.028763 2.061269 11697996
9.997508 9.787000 3.671849 11697996
11.046965 10.094569 0.170180 11697996
9.369899 10.959477 1.390568 11697996
9.854124 10.177909 3.397004 11697996
11.255479 10.704968 0.228030 11697996
10.026050 9.580109 1.278872 11697996
10.910410 9.406723 2.378789 11697996
10.574755 8.774501 1.623891 11697996
8.904420 10.794359 2.367908 11697996
9.064099 9.438125 1.787251 11697996
9.224606 8.830380 3.753570 11697996
9.812056 9.074160 1.085616 11697996
9.597660 8.821280 3.033757 11697996
10.607852 8.787409 2.823237 11697996
11.198723 9.450047 0.295942 11697996
11.203966 9.858715 2.896030 11697996
10.182061 11.231603 0.642801 11697996
10.023240 10.783826 1.980250 11697996
9.803655 10.517221 1.097482 11697996
10.709559 9.836166 2.501017 11697996
10.759283 8.851357 1.753914 11697996
10.692354 9.215709 0.588841 11697996
10.425242 10.756348 0.659485 11697996
8.748407 9.223653 3.447640 11697996
9.931171 10.392092 1.031043 11697996
10.036874 10.816679 1.664020 11697996
8.874902 10.306715 3.861356 11697996
9.430499 10.017883 1.564464 11697996
10.827077 9.843510 1.617749 11697996
8.803277 8.899987 1.068465 11697996
9.401788 11.114696 1.671634 11697996
10.913361 9.499192 1.653448 11697996
8.835087 11.207740 2.980471 11697996
8.863508 10.109879 0.872287 11697996
10.606925 10.747686 0.834028 11697996
9.083679 8.823281 2.670357 11697996
10.044374 9.550026 2.602209 11697996
8.793337 10.085008 3.384818 11697996
10.568345 9.490743 2.519394 11697996
8.870448 9.829920 0.507535 11697996
9.540977 10.167458 3.975821 11697996
8.814095 9.915944 1.299418 11697996
9.239724 10.332615 3.144001 11697996
11.214457 11.029428 0.831873 11697996
9.788210 9.888631 0.335167 11697996
9.639718 9.884619 0.239690 11697996
10.967920 9.948015 1.344365 11697996
9.232572 11.178074 0.645769 11697996
11.088295 11.111435 2.981780 11697996
11.059127 10.673942 1.350695 11697996
10.480262 10.509738 0.220365 11697996
10.007562 11.198432 1.522008 11697996
10.537141 10.234803 3.818704 11697996
9.394089 10.517130 0.574351 11697996
10.628927 9.395299 3.140372 11697996
10.254753 10.719510 0.791769 11697996
8.850745 10.029645 1.673258 11697996
11.158479 9.743092 1.511065 11697996
8.943901 9.282845 3.423057 11697996
10.316921 8.854928 3.587247 11697996
10.454743 8.821562 3.927520 11697996
9.294389 9.128187 2.095320 11697996
10.455577 10.826308 0.615825 11697996
10.645139 9.743032 0.431588 11697996
10.651395 9.873223 1.915159 11697996
9.419482 9.833042 3.620646 11697996
8.930885 9.151562 2.859204 11697996
10.331653 9.203866 2.844207 11697996
10.049951 11.048920 3.088897 11697996
10.364148 10.614566 3.483734 11697996
10.153505 10.114713 0.826103 11697996
9.946055 9.585644 0.410492 11697996
9.471614 10.991376 1.507362 11697996
10.145302 8.910801 1.175097 11697996
10.086882 11.183644 2.634146 11697996
10.087102 9.370528 2.245929 11697996
8.998144 8.826591 0.224836 11697996
9.247028 9.272753 2.070278 11697996
9.295194 10.894839 0.836417 11697996
11.199923 9.679257 1.952668 11697996
10.496715 11.243101 1.998183 11697996
9.191056 11.026447 0.598150 11697996
8.796015 11.223468 0.079310 11697996
9.421192 10.133885 0.765851 11697996
10.608468 10.525773 2.615800 11697996
10.738440 10.327033 1.053938 11697996
9.573977 11.002963 1.499544 11697996
9.041659 9.024385 1.554731 11697996
9.703172 10.978587 1.282724 11697996
9.730753 9.040277 0.618289 11697996
9.236155 8.945989 2.046115 11697996
10.915399 10.399327 0.059185 11697996
10.598731 9.268814 1.794833 11697996
10.048581 9.939879 1.143676 11697996
10.283669 10.494459 3.135937 11697996
9.959825 10.966440 0.351827 11697996
9.100877 10.521321 3.422442 11697996
9.635982 11.221506 3.405506 11697996
8.992589 10.541023 0.470341 11697996
10.118717 8.849371 3.253018 11697996
10.778885 10.335268 0.768078 11697996
10.116040 8.846771 2.489328 11697996
11.241279 9.055382 0.455393 11697996
9.500997 9.225519 0.614378 11697996
11.197243 9.044075 3.286993 11697996
9.143258 9.729368 0.734089 11697996
9.327534 9.204762 3.998183 11697996
10.478060 9.234571 2.572358 11697996
9.832723 9.402105 1.020678 11697996
10.047925 11.208550 2.927768 11697996
11.134281 10.352081 0.285654 11697996
10.808348 9.251773 1.022645 11697996
10.602685 10.672814 3.133775 11697996
10.568114 10.930897 1.455477 11697996
9.967028 9.033686 0.767570 11697996
10.705210 9.771176 0.186970 11697996
9.013790 9.974882 0.477894 11697996
10.806743 9.692666 1.384054 11697996
10.607132 11.246457 3.962372 11697996
10.626596 9.635522 3.775883 11697996
11.135338 9.926364 2.970981 11697996
11.071813 9.981713 3.049816 11697996
8.842621 10.891310 2.767649 11697996
11.065179 9.843750 2.735542 11697996
9.297172 9.762710 3.460445 11697996
9.323287 8.975517 3.423888 11697996
9.903908 10.705482 2.522249 11697996
10.927996 9.228914 0.175323 11697996
10.726771 10.490484 1.278639 11697996
9.917033 10.680809 2.372279 11697996
9.145280 10.432757 1.768314 11697996
10.208606 9.342856 2.231093 11697996
11.053070 10.163024 0.195773 11697996
10.061774 11.183570 2.955843 11697996
10.636129 11.008661 3.862694 11697996
9.754541 8.819555 1.536848 11697996
9.615098 9.477367 1.391160 11697996
10.683327 10.729835 1.585110 11697996
9.587239 10.474773 2.731585 11697996
10.225430 11.260027 0.308604 11697996
9.607414 8.848384 3.303505 11697996
9.536842 10.275717 3.174827 11697996
10.349090 9.097054 3.301372 11697996
9.407282 10.352229 2.976138 11697996
9.637385 10.627216 1.752406 11697996
9.071650 10.811110 2.123500 11697996
10.777309 10.486545 0.930124 11697996
10.798428 10.920823 3.706693 11697996
10.708743 10.959697 1.676918 11697996
11.192697 9.285453 3.319793 11697996
9.880729 11.236174 1.756633 11697996
8.852349 8.803097 2.465476 11697996
9.181440 10.096127 3.118212 11697996
10.550893 10.017009 0.190306 11697996
8.878224 10.196275 3.395874 11697996
10.311237 9.501752 0.821848 11697996
10.232759 8.972758 1.428820 11697996
9.630757 8.909054 3.608728 11697996
9.755955 9.787526 1.563987 11697996
10.872681 9.950823 3.055752 11697996
10.649439 10.310042 3.305037 11697996
10.803447 10.473357 0.674324 11697996
10.747017 10.244788 3.851549 11697996
11.074441 9.496055 1.664633 11697996
9.492944 10.803362 2.587587 11697996
10.247310 8.765984 3.146198 11697996
11.146845 9.519060 2.685576 11697996
10.337344 10.046019 2.052835 11697996
10.355936 10.038364 0.972985 11697996
8.881577 11.009892 3.453388 11697996
10.666540 9.912963 1.756659 11697996
9.486399 9.983216 2.197924 11697996
10.121328 10.701720 3.240346 11697996
9.284223 10.463569 1.895381 11697996
9.229942 9.752559 2.756568 11697996
9.755445 9.122127 3.557815 11697996
9.590449 11.045129 2.014103 11697996
10.621445 8.901224 1.303009 11697996
8.918365 11.143438 0.004889 11697996
11.019607 10.352275 2.077751 11697996
8.883224 11.183433 0.014022 11697996
9.305572 11.116689 1.608019 11697996
10.118031 9.162072 1.476781 11697996
9.194560 10.582603 0.530091 11697996
10.811027 10.970307 3.784522 11697996
10.160714 9.761028 2.650011 11697996
10.956948 10.452307 2.319788 11697996
11.143755 9.918142 2.114076 11697996
9.976972 10.235407 2.197825 11697996
9.997395 10.208906 2.032483 11697996
8.880128 9.541059 0.927055 11697996
10.376654 11.001127 2.186347 11697996
11.008657 10.915791 1.670933 11697996
9.957434 8.837330 0.514922 11697996
9.328547 10.384565 3.286466 11697996
11.169574 9.216409 3.204632 11697996
11.114423 10.649072 2.370941 11697996
10.836858 11.134425 1.206984 11697996
10.741420 9.550492 2.719765 11697996
9.996448 10.833914 1.070648 11697996
11.073160 10.043808 1.285770 11697996
8.996449 10.074992 2.583698 11697996
10.071072 10.383440 0.470115 11697996
10.856879 9.903432 3.405599 11697996
9.850761 10.387554 3.043942 11697996
10.116158 11.164441 1.597582 11697996
9.574518 9.967037 1.542928 11697996
10.300255 10.184562 3.238766 11697996
10.931471 10.700255 3.170033 11697996
10.670760 10.678675 0.895130 11697996
10.720672 10.076433 1.556259 11697996
9.745124 10.680769 3.998200 11697996
10.870342 9.564610 1.409183 11697996
9.071750 10.108220 3.913255 11697996
9.170169 9.546730 0.241463 11697996
10.959535 10.887179 1.621842 11697996
10.148226 10.280838 2.371816 11697996
9.560877 10.940928 1.821575 11697996
10.161423 10.741676 0.193787 11697996
10.864911 8.883494 0.792985 11697996
9.120094 10.846448 0.687808 11697996
11.006860 10.988044 0.530119 11697996
10.084634 10.198847 3.169251 11697996
10.378382 9.961924 0.206251 11697996
10.262404 8.921247 1.607425 11697996
9.291666 8.932812 1.456275 11697996
8.944369 10.309866 3.086377 11697996
10.486561 9.360649 1.555560 11697996
9.171090 9.336192 3.717718 11697996
9.499981 9.225293 0.593831 11697996
10.329165 11.025197 1.201707 11697996
10.496528 9.160897 1.489385 11697996
11.147897 10.373564 1.899037 11697996
10.624014 8.997963 3.676563 11697996
10.953618 10.837316 0.805363 11697996
10.881659 9.158331 1.486967 11697996
9.573505 11.182941 1.818073 11697996
8.956273 10.199739 1.787734 11697996
11.228474 10.134223 0.252005 11697996
9.986959 10.988194 3.597678 11697996
10.591110 10.288531 0.274199 11697996
8.813807 10.598382 0.598335 11697996
8.991172 8.856016 1.476757 11697996
10.902214 9.464205 0.147125 11697996
10.394053 9.460831 3.720586 11697996
10.241867 10.457397 0.765550 11697996
10.424894 10.746335 0.162803 11697996
10.790001 9.143745 1.240335 11697996
10.959683 9.802627 3.733968 11697996
10.480313 9.562643 1.590914 11697996
8.822349 9.000711 0.550237 11697996
10.175667 10.279934 3.685725 11697996
9.284320 11.024000 0.644773 11697996
10.792825 8.797963 0.542565 11697996
9.002394 10.695944 2.573416 11697996
10.706295 9.483377 3.097422 11697996
9.541759 9.778969 0.845722 11697996
10.979835 11.177357 2.374573 11697996
9.597979 10.543236 2.872571 11697996
9.635978 11.113027 1.285782 11697996
9.811481 11.165840 2.746210 11697996
10.346125 10.307638 3.029343 11697996
10.442614 10.688358 3.520340 11697996
10.929510 10.672812 1.433053 11697996
9.118286 10.885252 2.652234 11697996
10.838506 9.663644 0.384737 11697996
11.011147 10.535724 3.138696 11697996
8.782630 9.102368 4.011746 11697996
9.503318 9.424022 2.508015 11697996
10.734342 10.257968 2.461429 11697996
8.793976 9.467737 0.669478 11697996
10.258840 9.242129 3.700965 11697996
10.147440 9.114245 2.565677 11697996
10.373995 11.014460 2.590265 11697996
9.073370 9.485889 1.925758 11697996
10.067003 9.356585 2.206027 11697996
9.179589 9.365332 0.650213 11697996
11.017217 9.602078 3.950282 11697996
10.243510 10.748030 1.830469 11697996
11.021195 9.981442 2.421323 11697996
10.267797 10.948633 1.703948 11697996
9.669087 9.755081 3.327705 11697996
10.577048 8.876014 1.964596 11697996
9.282873 10.726157 1.522177 11697996
9.398761 9.248084 2.081543 11697996
9.118225 9.052279 3.246038 11697996
9.365818 10.451535 2.018795 11697996
11.116260 9.053101 2.306751 11697996
11.150296 9.892816 2.442597 11697996
9.309319 11.160729 2.946963 11697996
9.619400 11.200808 1.200233 11697996
9.070807 9.561617 3.183230 11697996
11.170769 8.919703 1.402165 11697996
10.215899 9.970415 1.698289 11697996
10.088739 10.475745 2.669223 11697996
9.360603 9.141240 0.734248 11697996
9.944141 9.401505 0.383911 11697996
9.080558 8.918262 1.406026 11697996
8.838918 10.354295 2.409733 11697996
9.789685 8.972072 2.959185 11697996
10.135803 10.983729 0.835480 11697996
11.067397 9.245599 4.009683 11697996
10.780390 9.009326 1.236634 11697996
9.619969 9.946860 2.820122 11697996
10.086102 9.351500 2.806039 11697996
10.083988 11.121357 3.076544 11697996
11.029327 10.859698 3.176975 11697996
9.404106 10.886886 1.026932 11697996
9.538594 10.776178 1.094158 11697996
8.760186 9.319502 0.049382 11697996
10.526475 10.761801 2.033307 11697996
10.485548 10.679475 2.462948 11697996
10.221117 9.074471 2.937413 11697996
10.306478 9.623140 3.729324 11697996
9.135161 10.729984 3.704744 11697996
9.684491 10.873970 2.536323 11697996
10.991750 9.906384 0.416574 11697996
10.579066 10.871771 3.353030 11697996
10.765618 10.301952 2.088872 11697996
10.361694 10.439754 0.318818 11697996
10.999454 10.464808 2.654299 11697996
9.684546 9.692902 2.618628 11697996
11.138026 10.957979 1.313835 11697996
9.383265 9.491025 3.173134 11697996
10.919637 8.947801 3.588489 11697996
11.208245 9.807934 1.949996 11697996
10.431627 10.316492 2.651529 11697996
9.639234 9.121762 0.425571 11697996
11.242297 10.424724 0.304446 11697996
9.960681 9.249912 0.959843 11697996
10.425569 10.350384 2.387325 11697996
10.786944 8.785297 1.224587 11697996
9.970667 9.053241 0.554406 11697996
9.724463 11.215207 0.841439 11697996
10.133335 9.190530 1.183799 11697996
8.885303 9.481304 1.571535 11697996
9.722059 8.913131 1.691250 11697996
9.807392 9.841501 1.079425 11697996
10.083656 10.848894 3.359874 11697996
10.295727 8.945206 1.136257 11697996
9.085912 10.172187 1.292808 11697996
11.086910 8.853096 2.030743 11697996
11.049348 9.345669 2.191530 11697996
11.065762 9.191075 3.971819 11697996
8.886973 10.377784 2.286073 11697996
8.893865 10.427956 0.515608 11697996
9.048226 11.076411 3.789796 11697996
9.199646 9.688427 0.833930 11697996
9.201115 10.755878 1.400430 11697996
9.326262 10.750351 1.319156 11697996
10.982886 10.215170 1.978392 11697996
10.378289 10.519094 2.557694 11697996
8.857818 10.247398 3.280943 11697996
9.466881 10.221048 3.566341 11697996
9.065844 10.900215 3.185075 11697996
11.141203 10.296794 0.733440 11697996
9.427484 9.055444 2.457509 11697996
9.145547 10.078423 1.056416 11697996
11.068069 9.441338 2.043599 11697996
10.789879 9.496801 0.246931 11697996
9.775774 10.353847 1.837487 11697996
10.242492 10.098167 1.193414 11697996
8.746812 10.455009 3.089536 11697996
10.313848 9.225956 1.385625 11697996
9.765480 9.298915 0.028668 11697996
9.244459 9.947053 2.860433 11697996
10.559308 9.521662 0.905913 11697996
10.193282 10.196205 3.559642 11697996
8.926598 11.098517 1.890356 11697996
11.021348 9.190514 1.309266 11697996
9.218067 9.807515 2.928643 11697996
8.934054 9.041482 2.170997 11697996
9.410536 10.267076 1.033980 11697996
11.082709 9.628533 3.465691 11697996
9.618481 10.099480 1.935850 11697996
10.607190 11.223948 0.066460 11697996
9.677260 9.643270 1.363672 11697996
10.783702 8.927011 3.651077 11697996
9.612823 10.423870 0.311717 11697996
10.797654 10.011420 2.918520 11697996
9.082299 10.050995 3.784082 11697996
8.999034 10.808368 3.472737 11697996
10.685918 8.957435 1.506249 11697996
9.138956 10.567896 2.767665 11697996
9.961226 10.060669 3.983352 11697996
10.154804 10.901990 2.317767 11697996
9.880675 10.113717 0.334816 11697996
8.883476 8.899622 2.157456 11697996
10.237025 9.796575 3.831377 11697996
10.629428 11.184565 2.229371 11697996
9.305695 10.093666 3.178240 11697996
9.874592 9.906627 2.632376 11697996
8.906090 10.251361 0.192217 11697996
10.802866 10.487449 1.933053 11697996
10.135136 9.683001 3.347700 11697996
10.966648 10.187103 3.387254 11697996
8.934819 9.217488 3.928243 11697996
9.330937 10.837317 3.332790 11697996
10.308183 10.730977 1.016728 11697996
10.791673 9.918322 2.282246 11697996
10.497701 8.768431 3.511886 11697996
10.828859 8.942541 0.882929 11697996
9.401659 10.219640 2.542181 11697996
9.110250 10.862338 1.143795 11697996
10.353590 8.816141 3.277812 11697996
9.682853 10.813233 2.909382 11697996
9.887728 10.530128 1.151573 11697996
11.142712 11.010598 1.455886 11697996
9.599133 8.807310 3.890146 11697996
10.746659 9.860434 2.283412 11697996
8.756372 9.325500 1.158873 11697996
10.848609 11.101935 3.743921 11697996
10.694757 10.933395 2.522155 11697996
9.547688 9.769069 1.228731 11697996
10.209194 9.260078 2.007987 11697996
9.795974 9.991851 2.704387 11697996
10.019414 9.714439 0.826175 11697996
10.303061 11.227612 1.903939 11697996
10.663448 9.201865 0.209931 11697996
9.517880 10.719060 1.212833 11697996
11.188687 11.027203 2.574771 11697996
10.510151 9.744065 2.082333 11697996
8.976618 10.369689 3.898271 11697996
9.215333 10.605964 0.131613 11697996
10.271788 10.046238 3.674962 11697996
10.766121 10.618224 3.116752 11697996
9.584607 11.247332 3.645247 11697996
9.396778 9.234792 2.970467 11697996
10.011340 9.283203 1.224505 11697996
9.151196 8.981453 0.812400 11697996
10.381591 9.650844 3.097244 11697996
10.570345 11.078368 2.242612 11697996
10.168553 8.910867 0.559328 11697996
10.696567 10.080150 3.469993 11697996
9.107899 10.989101 2.177019 11697996
11.001617 10.122843 1.533014 11697996
10.661857 10.422983 0.582509 11697996
8.838731 10.852928 2.864729 11697996
8.835056 10.476973 0.254175 11697996
9.389089 10.162722 3.527606 11697996
9.072535 9.311460 2.099452 11697996
9.647960 9.759798 2.075425 11697996
10.318365 10.023416 1.868021 11697996
9.261763 9.347769 2.336331 11697996
9.499367 10.900114 3.364534 11697996
10.030436 10.035519 3.326417 11697996
10.676983 8.815828 0.811707 11697996
9.193324 11.215145 3.941823 11697996
9.432943 9.877856 0.975757 11697996
8.865803 11.175682 2.720426 11697996
10.168550 9.606400 3.437064 11697996
11.234538 10.308185 0.192625 11697996
9.313810 9.006672 2.721133 11697996
8.941795 9.328967 1.303352 11697996
9.029987 9.788887 1.615010 11697996
8.880258 9.697457 2.137798 11697996
11.050694 11.098419 3.610404 11697996
10.400654 9.865502 3.007139 11697996
8.767704 9.727179 3.476175 11697996
10.280111 9.608542 0.323917 11697996
10.465909 10.571943 1.873373 11697996
10.771694 9.621947 0.100436 11697996
11.182427 8.940463 4.003296 11697996
10.539359 10.469267 2.054222 11697996
10.240355 10.217940 0.770787 11697996
9.986656 9.175187 1.448582 11697996
11.121035 9.280738 2.169883 11697996
9.031292 11.176064 0.951560 11697996
9.011750 9.467501 3.345545 11697996
10.492024 9.989499 2.792697 11697996
8.763281 11.185282 1.178681 11697996
10.544911 9.806310 3.064427 11697996
9.145720 10.677469 3.387390 11697996
9.121021 10.187268 4.008030 11697996
10.953164 10.229465 1.918400 11697996
10.901317 9.685574 1.045751 11697996
9.377721 8.964143 3.856103 11697996
8.755091 9.841041 2.447161 11697996
10.239758 10.453106 1.882414 11697996
11.055881 10.918793 3.567891 11697996
8.865744 9.453626 3.877525 11697996
9.907149 9.100938 3.471992 11697996
9.968276 9.660890 2.106356 11697996
8.902088 9.982463 2.424264 11697996
9.634432 9.935783 3.739065 11697996
9.923083 10.938453 2.627648 11697996
10.924678 11.107723 0.857201 11697996
9.311013 9.064305 0.089561 11697996
9.698307 10.848738 0.140135 11697996
10.171933 10.324888 3.536785 11697996
10.926497 9.036827 0.941572 11697996
9.297433 11.076713 1.764046 11697996
10.149391 9.228818 2.189710 11697996
8.770936 10.006167 0.766336 11697996
9.778481 9.896028 3.968770 11697996
9.962851 11.200627 2.389068 11697996
9.331797 10.908902 2.953585 11697996
10.682814 9.650866 2.228582 11697996
10.919216 9.058581 2.757583 11697996
10.884223 10.885495 1.802855 11697996
11.258896 9.865705 2.250157 11697996
9.695144 9.336135 2.491289 11697996
9.287103 8.849850 2.936255 11697996
11.042021 8.970304 2.702022 11697996
9.866577 8.800999 0.578712 11697996
9.806083 9.042582 3.580341 11697996
10.992458 9.792417 0.892281 11697996
11.076718 9.024691 3.706990 11697996
10.444901 9.160769 2.261864 11697996
10.759759 10.394661 1.389774 11697996
9.360656 10.565503 0.185550 11697996
9.380448 10.700361 2.766116 11697996
9.552324 9.312484 3.917490 11697996
9.038687 10.901270 2.230982 11697996
9.768733 9.926555 0.554427 11697996
10.528880 10.105355 1.788849 11697996
11.182790 11.063585 0.310709 11697996
8.946603 10.474540 2.815521 11697996
10.415959 10.051861 1.568822 11697996
10.603517 10.365251 0.754298 11697996
10.539725 9.686562 3.563469 11697996
11.069313 8.855737 0.328033 11697996
10.987692 11.230457 0.021079 11697996
10.770498 9.749747 3.568413 11697996
9.672550 10.791205 3.344311 11697996
9.509897 9.427377 2.228553 11697996
10.522455 9.566062 1.568951 11697996
11.013186 9.464201 1.928899 11697996
10.405430 10.038628 0.527385 11697996
9.785067 11.183588 2.385872 11697996
11.129496 8.878591 2.342222 11697996
10.994650 9.656279 2.522787 11697996
9.746163 10.893349 2.631470 11697996
9.193398 10.322286 0.871880 11697996
9.276162 8.839485 2.212619 11697996
11.046092 9.863776 3.053756 11697996
9.419767 10.899688 1.302153 11697996
10.279679 9.253269 1.516191 11697996
9.608076 10.449080 1.990976 11697996
9.728027 9.140172 2.242375 11697996
9.234890 9.107417 0.645757 11697996
10.495410 11.085207 3.401738 11697996
9.921839 9.784701 2.141074 11697996
10.127298 9.163353 3.347927 11697996
10.410995 10.089099 1.523492 11697996
9.241060 10.874158 1.143119 11697996
9.664026 10.250270 3.930887 11697996
9.790526 8.971238 3.542266 11697996
8.952540 9.499061 0.250859 11697996
10.625173 10.457399 0.109427 11697996
9.308419 10.511696 1.912672 11697996
10.504508 8.962572 2.450851 11697996
10.466913 10.325084 0.649686 11697996
9.918900 10.050498 3.693557 11697996
9.746971 9.734791 0.622135 11697996
11.226776 10.489847 2.829246 11697996
9.675926 10.627273 1.935864 11697996
9.158779 10.840205 3.788747 11697996
9.232099 11.048269 1.241456 11697996
11.108870 11.128463 3.822520 11697996
10.365869 10.183398 2.422398 11697996
9.867637 10.094256 3.629689 11697996
9.084481 9.109242 1.795956 11697996
9.567463 9.922668 3.254209 11697996
10.958509 9.283727 0.104840 11697996
11.085467 9.186136 0.627305 11697996
9.760581 11.098180 2.580701 11697996
10.997334 9.301001 1.462066 11697996
9.292011 9.873081 2.554352 11697996
11.203431 11.107743 0.856597 11697996
11.194399 10.609442 1.814906 11697996
10.355060 8.819292 3.736460 11697996
9.286349 9.742313 3.143068 11697996
10.346804 9.005738 0.875252 11697996
9.597830 9.468468 0.059166 11697996
10.050789 8.884932 3.166096 11697996
10.793895 10.393079 3.032588 11697996
8.768769 9.123161 3.478717 11697996
10.009953 9.578277 1.084215 11697996
10.317382 9.450205 2.356045 11697996
11.144235 9.574492 3.440724 11697996
9.859653 11.152740 3.205187 11697996
10.978388 10.575254 2.626910 11697996
10.672963 10.366434 0.627885 11697996
9.026757 9.118340 2.291565 11697996
10.162791 9.527288 3.764054 11697996
10.812531 10.728967 0.729987 11697996
11.227997 8.847440 0.915850 11697996
9.289991 9.564293 3.784523 11697996
11.262384 10.227988 1.619241 11697996
10.909903 9.398516 1.690252 11697996
11.007950 10.180100 2.417801 11697996
8.883892 10.802731 1.245288 11697996
9.625483 9.840987 0.339599 11697996
10.314489 8.980573 3.247774 11697996
9.536955 8.842716 1.272974 11697996
11.011438 9.108961 1.160185 11697996
10.350214 8.827876 0.415749 11697996
9.863245 9.677014 2.783769 11697996
10.857907 9.778265 3.948534 11697996
9.033855 9.300433 3.406240 11697996
10.037243 10.861601 0.751726 11697996
10.140718 8.786237 3.051483 11697996
10.844036 9.285959 3.617799 11697996
9.503001 9.769517 3.413190 11697996
9.452646 8.953225 3.463550 11697996
10.129975 9.208923 1.287942 11697996
10.576775 9.058329 1.746399 11697996
9.835429 10.874722 3.644232 11697996
11.082001 9.662911 3.512230 11697996
9.744379 10.923202 3.278041 11697996
10.083393 9.511650 0.518323 11697996
9.183629 9.276023 2.885797 11697996
10.455450 8.959388 3.120876 11697996
9.840313 9.574843 0.409762 11697996
8.781251 10.865801 3.323250 11697996
10.351859 9.657664 0.705848 11697996
10.479165 10.929496 1.656510 11697996
9.780135 10.717916 1.968696 11697996
9.246462 10.198128 2.072527 11697996
10.565035 10.703640 3.670540 11697996
10.099351 9.884048 3.147454 11697996
9.963667 9.673511 1.591124 11697996
9.319515 9.862670 3.453318 11697996
9.895322 11.120559 3.855255 11697996
8.976582 11.197742 0.968750 11697996
10.550388 10.084708 0.159180 11697996
10.543399 10.300786 1.756530 11697996
10.076380 9.111184 0.808576 11697996
9.398580 9.561758 2.570657 11697996
11.092855 10.971810 1.021332 11697996
10.622711 11.126796 1.060026 11697996
9.594369 10.411791 0.994082 11697996
8.892917 11.230727 1.634539 11697996
10.193432 10.048977 2.937854 11697996
8.950988 9.279300 1.998987 11697996
11.050773 9.033382 0.644600 11697996
9.768319 8.764550 0.812984 11697996
9.155816 10.434014 1.666102 11697996
10.834612 9.210392 0.548141 11697996
9.871347 9.608878 2.800165 11697996
9.740428 10.227578 0.276837 11697996
11.028808 10.458743 0.396000 11697996
9.491078 10.113098 1.520646 11697996
8.757169 11.087910 2.492423 11697996
10.323842 9.473940 0.543534 11697996
10.659786 8.890379 0.181164 11697996
11.228561 9.417521 2.622494 11697996
9.504377 10.763765 1.245236 11697996
10.226444 8.992351 1.025105 11697996
10.744987 10.832699 1.703051 11697996
9.523449 9.986925 2.363520 11697996
10.373819 9.147536 0.489099 11697996
10.612100 9.004864 2.444189 11697996
10.722603 10.146136 1.194013 11697996
9.373314 9.187691 1.753052 11697996
9.867399 10.293779 2.030004 11697996
9.155009 9.042727 1.655951 11697996
9.629141 8.948435 2.475411 11697996
9.465431 11.211978 1.598579 11697996
11.183315 9.606846 1.533391 11697996
9.649817 8.846307 0.389872 11697996
10.304329 10.617386 2.654044 11697996
11.008956 8.758829 2.015110 11697996
9.540845 9.027637 0.068880 11697996
9.988990 10.345161 2.642951 11697996
9.459340 9.636526 1.562875 11697996
9.388930 10.695248 2.884789 11697996
9.928074 9.800483 1.020640 11697996
9.166924 10.258897 2.857954 11697996
9.418509 10.661174 0.816710 11697996
10.078414 9.768668 3.926659 11697996
9.075629 10.580022 2.247393 11697996
8.796856 8.945381 1.186168 11697996
10.604877 9.157583 1.324434 11697996
10.052977 9.723657 2.228317 11697996
11.120907 10.343446 0.253952 11697996
11.069242 10.322014 3.534518 11697996
9.069436 10.238450 1.810434 11697996
9.913304 10.840172 3.209213 11697996
10.682921 10.678627 1.197086 11697996
11.190806 10.150558 1.944464 11697996
10.909323 11.196306 1.315165 11697996
10.725439 11.053660 3.768356 11697996
9.884559 10.222651 1.959918 11697996
11.254672 10.378745 0.442187 11697996
10.522584 10.041229 2.057217 11697996
10.095937 9.780700 3.644897 11697996
9.409492 10.663636 2.022659 11697996
9.612864 10.278074 2.661924 11697996
9.804305 9.642859 0.937280 11697996
9.095762 8.882853 3.374221 11697996
9.532219 8.942989 0.070246 11697996
10.756608 10.035956 2.291455 11697996
9.466729 9.179997 3.790111 11697996
9.957378 9.883265 2.108461 11697996
9.394152 10.542887 0.405451 11697996
9.658995 10.184573 2.082689 11697996
9.361202 11.101377 3.830855 11697996
9.911445 9.971807 2.233421 11697996
8.978272 10.278738 0.942578 11697996
9.645198 9.620418 2.334389 11697996
11.126527 10.480432 1.171596 11697996
10.867286 10.451459 1.587562 11697996
9.378726 9.401499 0.110986 11697996
9.904434 10.044216 1.272131 11697996
11.192928 9.836194 1.124583 11697996
9.731470 9.315434 -0.004208 11697996
9.021881 9.539021 1.801390 11697996
10.857603 9.445144 0.642666 11697996
9.631618 10.040223 1.424471 11697996
9.697320 10.821870 0.271380 11697996
11.224638 10.305767 3.997473 11697996
8.745314 9.725175 2.608707 11697996
9.960080 10.803047 3.159692 11697996
10.093273 9.979781 2.288279 11697996
11.161662 9.834291 2.112022 11697996
9.806268 10.175283 3.492373 11697996
8.970781 9.228168 2.384487 11697996
9.678687 10.407224 2.843164 11697996
10.542427 9.849491 3.823479 11697996
10.561861 9.569443 2.829730 11697996
9.026380 9.493751 2.937964 11697996
10.838160 11.221517 2.789526 11697996
11.220749 10.700860 0.431583 11697996
11.245125 8.761404 1.769358 11697996
9.806011 9.931554 2.475805 11697996
10.461855 8.909824 3.643705 11697996
10.676288 9.603466 1.712597 11697996
10.306786 8.920003 1.250682 11697996
9.738295 10.492431 3.814240 11697996
10.600329 10.458336 1.339840 11697996
10.171078 10.332330 3.613243 11697996
10.155302 9.199724 0.603548 11697996
9.854868 9.096863 1.035550 11697996
10.596177 10.664651 1.765414 11697996
9.913550 10.157162 0.459272 11697996
10.064105 10.398749 3.727260 11697996
10.218040 9.645750 1.563762 11697996
11.091189 9.483214 3.327440 11697996
9.774855 8.768591 3.501440 11697996
9.357192 9.805489 1.299486 11697996
8.928733 8.972214 3.388051 11697996
10.523602 10.509448 1.283264 11697996
10.257673 10.108903 0.185085 11697996
9.008114 10.482301 2.973038 11697996
10.702180 8.816878 1.096512 11697996
8.984878 9.036359 3.282644 11697996
9.775424 11.103770 2.934414 11697996
9.771143 10.952730 0.203214 11697996
11.040783 9.513294 2.060123 11697996
10.484819 10.123037 3.037964 11697996
9.261250 10.597194 2.785635 11697996
11.159766 10.909740 0.180390 11697996
10.107232 9.179949 1.921219 11697996
10.642852 10.275619 2.266025 11697996
11.227954 9.832809 3.101994 11697996
9.046747 10.068974 2.467889 11697996
10.917083 9.100051 1.206295 11697996
11.127524 10.815636 0.172763 11697996
10.408193 10.963209 3.277243 11697996
10.671067 10.784063 3.048101 11697996
9.499804 9.306387 1.106491 11697996
8.889337 9.926555 2.725051 11697996
10.013802 10.572656 3.671465 11697996
10.264561 10.454388 0.925443 11697996
10.266875 9.391429 2.788164 11697996
11.138894 11.009512 2.696564 11697996
9.596885 8.817184 1.123114 11697996
9.477317 9.577568 1.465422 11697996
10.160416 11.101799 2.567955 11697996
9.117569 9.264580 1.712610 11697996
9.362297 8.953405 2.957068 11697996
9.655235 9.735587 2.028048 11697996
10.717724 11.093360 3.680322 11697996
11.109966 10.402254 3.759435 11697996
10.961558 9.219572 0.017703 11697996
11.097058 10.405666 3.181135 11697996
8.983323 9.045148 1.226248 11697996
8.933518 10.232816 3.088269 11697996
8.984956 9.512576 0.984614 11697996
9.331409 9.593581 2.647204 11697996
10.071070 9.133201 3.186050 11697996
8.783885 8.925400 0.432070 11697996
10.150961 10.350036 1.275011 11697996
8.834980 10.255023 0.896335 11697996
9.485508 10.149262 0.396471 11697996
9.618744 9.882974 1.768077 11697996
9.292100 9.145977 1.333282 11697996
9.999583 9.028022 0.977436 11697996
9.364971 9.554933 0.371548 11697996
9.291100 9.613885 0.295785 11697996
9.581093 10.364775 1.898431 11697996
9.056847 9.818178 3.741789 11697996
9.488566 9.995973 0.532292 11697996
9.784019 10.360972 0.675401 11697996
10.785398 11.160700 1.701693 11697996
11.019806 10.268631 0.754482 11697996
9.333203 9.099266 2.458387 11697996
10.057016 9.461253 1.678990 11697996
9.502118 10.062633 2.783873 11697996
10.096674 10.544693 2.640045 11697996
10.962934 9.693760 2.185710 11697996
10.821199 9.531106 0.705667 11697996
9.473181 11.250616 3.657772 11697996
11.197149 10.290804 0.527420 11697996
10.973716 10.538447 3.540565 11697996
11.010530 10.142084 2.397420 11697996
9.405457 8.800753 1.793377 11697996
10.436756 11.085929 0.499458 11697996
9.698526 9.008505 2.008517 11697996
9.622945 9.538157 2.042391 11697996
10.293994 9.653913 1.227900 11697996
9.970547 10.523499 1.321152 11697996
10.345877 9.648069 3.512630 11697996
11.215039 8.882857 0.825467 11697996
10.168162 9.188830 2.815348 11697996
9.530406 9.277169 2.127768 11697996
8.766099 9.390209 0.364589 11697996
9.682521 9.512658 0.669517 11697996
9.051292 10.153938 1.900490 11697996
11.054569 10.269935 1.544247 11697996
9.400028 10.080679 0.694372 11697996
10.124119 8.784613 0.006609 11697996
9.980589 10.481281 3.022335 11697996
9.130028 9.232956 2.518168 11697996
9.293888 9.280165 0.473518 11697996
10.795063 11.166555 3.973240 11697996
9.175154 10.301038 1.523279 11697996
9.902924 9.475726 3.559000 11697996
8.790454 9.403023 2.259420 11697996
10.344053 9.712885 2.768665 11697996
9.763316 11.195925 3.776804 11697996
10.312707 10.593774 3.040465 11697996
10.572084 10.958247 3.980398 11697996
11.199949 9.114405 2.783038 11697996
9.853930 9.389522 2.463656 11697996
10.284286 10.738053 3.242183 11697996
9.513479 10.194555 3.520224 11697996
9.269200 9.935463 0.092247 11697996
10.252975 10.811759 1.698504 11697996
10.728617 10.229697 2.004319 11697996
10.937459 10.622521 1.043085 11697996
10.127816 8.847034 1.856906 11697996
10.013829 10.298653 1.242474 11697996
11.133064 9.613054 1.947346 11697996
10.512208 9.455008 3.622995 11697996
9.990701 10.090038 0.917570 11697996
10.850927 10.938982 1.227133 11697996
10.235449 9.799188 2.563799 11697996
9.688731 9.185582 3.349772 11697996
9.721210 10.907610 2.213159 11697996
9.462778 10.400130 0.857369 11697996
10.868649 10.636486 3.429994 11697996
9.241453 9.601710 2.356973 11697996
9.026980 10.765338 0.021808 11697996
9.430982 10.888194 1.905397 11697996
9.864387 8.827582 3.042271 11697996
8.788274 9.789308 2.001614 11697996
8.969307 10.608931 0.340447 11697996
8.819314 9.271601 1.220011 11697996
10.873049 9.348341 1.033165 11697996
10.894855 10.443520 3.049833 11697996
9.079598 10.863315 3.810940 11697996
10.904630 9.491713 3.001581 11697996
10.874064 8.774812 0.344062 11697996
8.993386 10.345007 1.065768 11697996
10.462379 8.845991 1.950292 11697996
9.363144 9.292750 0.098235 11697996
9.595148 9.926977 1.230476 11697996
10.731042 8.936561 1.098780 11697996
9.113319 10.526662 0.984716 11697996
10.550092 10.199107 0.433617 11697996
11.021706 9.319635 1.896943 11697996
9.075790 9.866184 2.012838 11697996
10.118040 11.089129 2.767673 11697996
8.842636 9.170491 0.642663 11697996
9.545010 10.828145 3.723827 11697996
9.251258 9.657560 2.210232 11697996
9.277129 10.452933 0.193311 11697996
10.708491 9.873874 2.496428 11697996
9.581301 8.845191 3.765459 11697996
10.928920 10.043551 1.492708 11697996
9.053782 10.386522 1.709535 11697996
9.311097 9.367500 2.043565 11697996
10.241217 8.829123 3.922446 11697996
10.036223 9.173546 3.310541 11697996
10.696031 10.074119 3.189510 11697996
11.205885 10.649679 3.784364 11697996
9.295887 9.282350 2.130562 11697996
9.503425 10.957095 3.245361 11697996
10.049727 9.360077 0.479122 11697996
9.530174 10.483386 2.379812 11697996
10.980637 8.895821 1.151206 11697996
9.662812 10.369804 1.567986 11697996
10.502666 10.427383 1.560131 11697996
9.862236 9.078684 2.521526 11697996
9.295629 10.503210 2.084086 11697996
9.226223 10.048601 0.627158 11697996
9.617036 10.450566 3.783422 11697996
10.287290 9.852171 3.589962 11697996
10.011188 9.314777 2.022308 11697996
10.614141 9.825714 0.422708 11697996
11.227886 10.561658 3.199806 11697996
10.709767 9.633017 3.238680 11697996
10.225924 10.366646 0.749494 11697996
9.611069 10.344120 2.653907 11697996
10.975141 11.104280 3.973336 11697996
11.126898 11.180391 2.010709 11697996
9.226335 8.976637 0.242100 11697996
9.773166 9.773964 3.566939 11697996
9.292039 11.083119 1.626691 11697996
8.915637 10.587851 0.420404 11697996
11.191161 11.022967 2.671472 11697996
8.889961 10.704554 1.590192 11697996
10.635552 9.423215 1.038105 11697996
10.861756 9.560066 3.118661 11697996
10.149777 10.231501 0.954021 11697996
9.101185 9.661815 2.361637 11697996
11.076910 9.104964 0.535681 11697996
9.389823 8.848014 2.194107 11697996
10.897182 10.892937 2.318490 11697996
10.422307 10.733296 3.780367 11697996
9.443751 10.885942 0.987302 11697996
9.269936 10.235905 3.507363 11697996
10.360932 9.472188 2.916847 11697996
10.620368 10.454470 3.635024 11697996
8.828000 11.132442 1.228947 11697996
9.555886 10.218255 1.086646 11697996
9.630967 10.034593 3.172143 11697996
10.680511 10.354549 3.209071 11697996
10.145075 9.542039 0.177638 11697996
9.031448 8.892851 0.027775 11697996
9.518566 10.285522 1.395118 11697996
10.619150 9.575801 3.550409 11697996
9.096114 11.171918 0.554847 11697996
9.555972 11.135183 0.482626 11697996
10.717133 8.856242 1.563958 11697996
10.416531 10.810963 2.147821 11697996
11.232308 10.921929 3.076637 11697996
11.149364 8.908689 2.602395 11697996
9.890308 10.773836 3.944042 11697996
9.454524 10.419477 3.946762 11697996
9.126204 9.191056 3.180522 11697996
9.137827 10.580716 3.442292 11697996
10.953212 11.034384 2.834693 11697996
9.589293 10.446494 2.082337 11697996
9.343816 9.963902 3.715007 11697996
10.925941 9.734914 3.770750 11697996
9.621563 9.077491 0.381170 11697996
9.127085 9.189821 0.573661 11697996
9.510689 9.068263 1.379049 11697996
9.711033 10.330695 3.249041 11697996
10.821660 9.287340 0.741084 11697996
9.058825 10.166763 1.989806 11697996
9.516856 10.530268 1.108514 11697996
10.140213 9.251211 2.744523 11697996
9.488498 10.226348 -0.014824 11697996
9.383921 9.205422 0.227210 11697996
10.803454 9.883451 1.471284 11697996
9.832037 10.813852 0.188901 11697996
8.979506 9.671324 0.890453 11697996
10.178051 9.423620 2.046771 11697996
10.868491 9.246819 1.050279 11697996
8.858239 10.261260 1.854920 11697996
8.813206 11.010061 3.604283 11697996
10.589621 9.089383 2.364349 11697996
9.331651 10.936265 1.810742 11697996
10.591752 9.901103 0.552323 11697996
9.461757 9.163684 3.739598 11697996
10.307607 10.275687 0.047458 11697996
10.715385 9.002168 3.698660 11697996
9.112514 11.086793 3.983000 11697996
10.280587 9.307045 1.956356 11697996
8.774959 9.009581 3.687908 11697996
10.318887 9.240931 2.642839 11697996
9.741332 9.978496 3.935220 11697996
8.763142 9.790359 1.473545 11697996
9.260197 10.475654 2.163342 11697996
9.651319 10.654985 2.774369 11697996
9.301333 9.855074 2.124881 11697996
8.777740 10.268146 3.202315 11697996
9.273409 10.949125 0.089034 11697996
8.803588 9.459971 2.491322 11697996
10.867496 9.821681 1.514867 11697996
10.266990 9.794197 1.775719 11697996
10.463082 10.044444 2.348447 11697996
10.165817 9.178004 2.946206 11697996
10.096106 10.316599 3.497449 11697996
9.167446 10.114477 0.998665 11697996
9.342752 8.845376 2.595130 11697996
11.234761 11.143360 1.256076 11697996
9.104313 10.167036 2.632968 11697996
9.651264 9.724862 2.741515 11697996
9.394438 9.780846 1.678663 11697996
9.382808 10.848507 3.607032 11697996
10.688552 8.848731 2.791107 11697996
10.162224 9.340539 1.580970 11697996
10.923158 10.692452 3.835904 11697996
9.119287 9.431341 3.372531 11697996
10.060772 9.653302 0.871741 11697996
9.226871 10.965458 0.426980 11697996
9.003461 10.986613 1.974061 11697996
10.948581 10.807646 1.320835 11697996
