# .PCD v0.7 - Point Cloud Data file format
VERSION 0.7
FIELDS x y z rgb
SIZE 4 4 4 4
TYPE F F F U
COUNT 1 1 1 1
WIDTH 1292
HEIGHT 1
VIEWPOINT 0 0 0 1 0 0 0
POINTS 1292
DATA ascii
9.579130 11.025831 2.016035 11697996
10.619134 8.880845 1.281285 11697996
8.933216 11.132238 0.033441 11697996
11.018409 10.392935 2.098024 11697996
8.904980 11.191436 0.028579 11697996
9.271610 11.096910 1.602157 11697996
10.118840 9.152555 1.486576 11697996
9.208594 10.606582 0.520544 11697996
10.819794 10.950816 3.782879 11697996
10.183558 9.795278 2.640812 11697996
10.962361 10.461300 2.336646 11697996
11.165878 9.909114 2.084613 11697996
9.976323 10.194869 2.170135 11697996
10.041680 10.220402 2.053082 11697996
8.905228 9.546928 0.937704 11697996
10.394777 10.982547 2.192023 11697996
10.996049 10.943078 1.673373 11697996
9.943508 8.854549 0.490991 11697996
9.330400 10.395118 3.285650 11697996
11.165083 9.212058 3.204329 11697996
11.117457 10.641271 2.368589 11697996
10.858240 11.168584 1.224926 11697996
10.737259 9.554404 2.727322 11697996
10.012046 10.830315 1.091413 11697996
11.047614 10.034258 1.259304 11697996
8.994226 10.058262 2.580675 11697996
10.092439 10.393338 0.428864 11697996
10.816285 9.920335 3.395515 11697996
9.834888 10.365287 3.044525 11697996
10.111816 11.181886 1.587330 11697996
9.588658 9.944761 1.521907 11697996
10.330791 10.221992 3.247860 11697996
10.907704 10.689926 3.162911 11697996
10.716900 10.657063 0.882977 11697996
10.684155 10.059101 1.595128 11697996
9.683868 10.691881 4.011384 11697996
10.837884 9.573762 1.411010 11697996
9.074013 10.138244 3.924415 11697996
9.152727 9.582709 0.246553 11697996
10.978506 10.905875 1.641330 11697996
10.142627 10.241078 2.378583 11697996
9.560708 10.946128 1.781202 11697996
10.196943 10.699626 0.181866 11697996
10.845119 8.886884 0.780058 11697996
9.091511 10.884444 0.689098 11697996
11.034470 10.992016 0.522029 11697996
10.059069 10.171288 3.217139 11697996
10.421856 9.963758 0.177139 11697996
10.252160 8.929745 1.577246 11697996
9.268643 8.928663 1.490301 11697996
8.943793 10.343475 3.096932 11697996
10.486766 9.344594 1.531598 11697996
9.151774 9.319839 3.680434 11697996
9.468966 9.204118 0.613302 11697996
10.344280 11.066096 1.173937 11697996
10.526595 9.174994 1.507445 11697996
11.136498 10.381001 1.888913 11697996
10.615331 8.985761 3.692079 11697996
10.953321 10.819345 0.802795 11697996
10.844764 9.176025 1.465168 11697996
9.581667 11.182747 1.830510 11697996
8.946486 10.203676 1.828880 11697996
11.211547 10.149668 0.242338 11697996
10.031475 10.979571 3.607372 11697996
10.594866 10.340545 0.261601 11697996
8.847491 10.559872 0.608978 11697996
8.970001 8.862449 1.485009 11697996
10.903951 9.442309 0.192130 11697996
10.406361 9.441723 3.723415 11697996
10.224721 10.467782 0.729389 11697996
10.395492 10.756179 0.159054 11697996
10.807761 9.141488 1.221445 11697996
10.969162 9.796625 3.748371 11697996
10.457701 9.549153 1.589067 11697996
8.845798 8.958691 0.560965 11697996
10.153674 10.287772 3.673687 11697996
9.268614 10.999878 0.665378 11697996
10.798806 8.818007 0.552041 11697996
8.983995 10.726562 2.545281 11697996
10.685395 9.474132 3.110268 11697996
9.547305 9.782288 0.868865 11697996
10.988984 11.194826 2.327230 11697996
9.599293 10.523606 2.857393 11697996
9.694555 11.119060 1.289967 11697996
9.808588 11.141843 2.732110 11697996
10.310800 10.299726 3.013397 11697996
10.438665 10.683011 3.531022 11697996
10.952955 10.686924 1.452636 11697996
9.112879 10.893934 2.664438 11697996
10.845478 9.638365 0.392950 11697996
10.971655 10.529861 3.111462 11697996
8.807473 9.090041 4.002009 11697996
9.461600 9.443626 2.506701 11697996
10.719590 10.241261 2.465182 11697996
8.795416 9.460163 0.684158 11697996
10.260052 9.235025 3.717682 11697996
10.141718 9.093305 2.544904 11697996
10.366712 11.039208 2.577869 11697996
9.059045 9.497699 1.920053 11697996
10.081572 9.368866 2.229214 11697996
9.172026 9.398402 0.678001 11697996
11.029037 9.559538 3.942877 11697996
10.267308 10.736653 1.861234 11697996
10.994260 9.986228 2.402582 11697996
10.267577 10.937067 1.695156 11697996
9.659986 9.745586 3.324885 11697996
10.571200 8.879616 1.946014 11697996
9.264339 10.704567 1.524821 11697996
9.399488 9.251273 2.084554 11697996
9.117813 9.073996 3.224048 11697996
9.377102 10.512751 2.034422 11697996
11.093250 9.058993 2.296450 11697996
11.139507 9.912522 2.410453 11697996
9.332580 11.199698 2.950409 11697996
9.576793 11.231400 1.228951 11697996
9.074185 9.514872 3.194822 11697996
11.181864 8.915349 1.384495 11697996
10.214055 9.951202 1.683444 11697996
10.089483 10.470985 2.661326 11697996
9.347085 9.167913 0.729168 11697996
9.951776 9.418490 0.422349 11697996
9.105194 8.934716 1.369878 11697996
8.828918 10.314369 2.375474 11697996
9.770482 8.955079 2.957286 11697996
10.153314 10.988860 0.857428 11697996
11.033485 9.268067 4.011163 11697996
10.769062 8.996588 1.227620 11697996
9.614287 9.927219 2.837238 11697996
10.086947 9.377612 2.812652 11697996
10.082214 11.122200 3.056284 11697996
10.995756 10.852489 3.204370 11697996
9.422226 10.900202 1.024553 11697996
9.527342 10.781095 1.065208 11697996
8.760608 9.296747 0.103273 11697996
10.523597 10.778917 2.030933 11697996
10.456074 10.680884 2.442446 11697996
10.202824 9.115150 2.941705 11697996
10.342741 9.618045 3.750108 11697996
9.156296 10.713430 3.712657 11697996
9.700978 10.867291 2.569918 11697996
10.957475 9.886908 0.443713 11697996
10.576533 10.838424 3.342258 11697996
10.761659 10.255155 2.095945 11697996
10.352187 10.430857 0.336996 11697996
10.996596 10.459962 2.655347 11697996
9.723660 9.674759 2.608174 11697996
11.173139 10.942401 1.305848 11697996
9.383893 9.461134 3.156741 11697996
10.934126 8.932243 3.604853 11697996
11.204669 9.825141 1.961661 11697996
10.438068 10.296743 2.671212 11697996
9.676875 9.132543 0.428465 11697996
11.230329 10.401053 0.310225 11697996
9.966680 9.265746 0.967636 11697996
10.399730 10.348341 2.357452 11697996
10.813368 8.767673 1.206009 11697996
9.980358 9.073266 0.564997 11697996
9.699718 11.184309 0.816980 11697996
10.153293 9.130601 1.187218 11697996
8.881714 9.504196 1.535503 11697996
9.748172 8.890837 1.729776 11697996
9.813999 9.865314 1.054973 11697996
10.105187 10.852956 3.381391 11697996
10.281456 8.926696 1.091061 11697996
9.081464 10.175443 1.292153 11697996
11.077116 8.865420 2.015744 11697996
11.074737 9.336015 2.203550 11697996
11.065653 9.167854 3.973997 11697996
8.881357 10.395184 2.284478 11697996
8.864296 10.409816 0.507439 11697996
9.061947 11.112612 3.754622 11697996
9.199855 9.688037 0.815479 11697996
9.208384 10.773528 1.413713 11697996
9.337950 10.740642 1.326077 11697996
11.015557 10.224692 1.964864 11697996
10.347362 10.544409 2.563339 11697996
8.853968 10.240490 3.290336 11697996
9.446844 10.198937 3.585294 11697996
9.061048 10.904722 3.196262 11697996
11.131577 10.287365 0.715330 11697996
9.423686 9.039411 2.417798 11697996
9.159950 10.067138 1.077917 11697996
11.078773 9.468788 2.046896 11697996
10.781200 9.503760 0.279522 11697996
9.806840 10.403082 1.834539 11697996
10.264585 10.096199 1.212121 11697996
8.765207 10.404483 3.065559 11697996
10.329220 9.201761 1.371468 11697996
9.760026 9.293619 0.052409 11697996
9.246868 9.964939 2.877311 11697996
10.565001 9.497844 0.898093 11697996
10.197066 10.186315 3.557917 11697996
8.958113 11.075128 1.860099 11697996
11.036979 9.200740 1.331290 11697996
9.228353 9.773608 2.968676 11697996
8.922243 9.073742 2.155863 11697996
9.400508 10.248429 1.045644 11697996
11.077969 9.613108 3.493767 11697996
9.604602 10.077574 1.951132 11697996
10.603993 11.197870 0.076279 11697996
9.685136 9.636536 1.389701 11697996
10.782383 8.924439 3.625572 11697996
9.598300 10.426909 0.279826 11697996
10.773304 9.984445 2.876040 11697996
9.111805 10.054817 3.813833 11697996
9.013448 10.781359 3.477644 11697996
10.654615 8.918701 1.531125 11697996
9.122869 10.567492 2.743980 11697996
9.976568 10.034376 3.999163 11697996
10.123111 10.927381 2.317459 11697996
9.872087 10.139108 0.330521 11697996
8.879408 8.914723 2.151157 11697996
10.219989 9.812526 3.847425 11697996
10.633338 11.187407 2.224463 11697996
9.292242 10.111147 3.183565 11697996
9.874450 9.922033 2.640392 11697996
8.909885 10.235183 0.195082 11697996
10.772771 10.489027 1.914284 11697996
10.153315 9.676399 3.347205 11697996
10.951962 10.191151 3.378813 11697996
8.947710 9.204898 3.922317 11697996
9.315009 10.809030 3.307942 11697996
10.296131 10.725022 0.967950 11697996
10.793306 9.909301 2.287331 11697996
10.492312 8.750253 3.499002 11697996
10.809362 8.898292 0.841660 11697996
9.386752 10.213631 2.520871 11697996
9.097190 10.845469 1.131909 11697996
10.334569 8.837677 3.302372 11697996
9.698846 10.806755 2.911028 11697996
9.863140 10.546470 1.170807 11697996
11.140054 11.015905 1.437070 11697996
9.576432 8.846338 3.890819 11697996
10.754101 9.859364 2.268884 11697996
8.767143 9.334512 1.209410 11697996
10.839191 11.101495 3.753418 11697996
10.661343 10.927104 2.513729 11697996
9.509873 9.778465 1.208200 11697996
10.199065 9.238689 1.986851 11697996
9.763999 9.996567 2.737911 11697996
10.026988 9.717971 0.831032 11697996
10.346522 11.239739 1.898552 11697996
10.692596 9.193409 0.191882 11697996
9.471969 10.678397 1.178884 11697996
11.197247 11.013558 2.573266 11697996
10.503796 9.719000 2.074465 11697996
9.016450 10.402271 3.926041 11697996
9.207158 10.603426 0.160389 11697996
10.254781 10.036944 3.682186 11697996
10.791010 10.630480 3.095647 11697996
9.589117 11.244858 3.668088 11697996
9.385903 9.218443 2.984926 11697996
10.017573 9.293095 1.216558 11697996
9.145748 8.973745 0.830556 11697996
10.376510 9.653253 3.091518 11697996
10.576512 11.036777 2.265936 11697996
10.194404 8.918438 0.533316 11697996
10.695810 10.067872 3.487978 11697996
9.092400 10.983693 2.162336 11697996
11.008014 10.132244 1.564982 11697996
10.634060 10.439247 0.592863 11697996
8.826435 10.804743 2.890106 11697996
8.803950 10.491334 0.254901 11697996
9.338962 10.157238 3.519052 11697996
9.037274 9.325433 2.120523 11697996
9.665027 9.749959 2.075071 11697996
10.336697 10.027149 1.890714 11697996
9.230447 9.357533 2.343560 11697996
9.488532 10.900433 3.337745 11697996
10.067550 9.999738 3.352411 11697996
10.659401 8.817142 0.837264 11697996
9.211232 11.251929 3.915767 11697996
9.414283 9.891783 0.956233 11697996
8.862191 11.216596 2.733069 11697996
10.139185 9.627164 3.413853 11697996
11.215542 10.313828 0.208162 11697996
9.288679 9.017639 2.753866 11697996
8.948154 9.325612 1.309774 11697996
9.011931 9.780422 1.616663 11697996
8.918159 9.695569 2.165644 11697996
11.063631 11.055805 3.598545 11697996
10.406770 9.854671 3.023567 11697996
8.767233 9.755939 3.482352 11697996
10.271694 9.605898 0.354126 11697996
10.463626 10.595986 1.857148 11697996
10.729681 9.631644 0.077254 11697996
11.152201 8.956648 3.976540 11697996
10.569511 10.447422 1.993496 11697996
10.174845 10.203241 0.692798 11697996
9.989976 9.159762 1.443345 11697996
11.113939 9.283229 2.192441 11697996
9.038757 11.157872 0.954965 11697996
9.007539 9.464163 3.323406 11697996
10.508736 9.953823 2.725366 11697996
8.773973 11.207508 1.158823 11697996
10.549826 9.823043 3.051597 11697996
9.145064 10.650998 3.385075 11697996
9.148479 10.160811 3.987145 11697996
10.952179 10.277710 1.954966 11697996
10.885711 9.662468 1.030485 11697996
9.382078 8.959758 3.888754 11697996
8.755951 9.826946 2.466589 11697996
10.251170 10.462133 1.864764 11697996
11.062007 10.914459 3.548882 11697996
8.866355 9.454774 3.893273 11697996
9.905781 9.116380 3.456840 11697996
10.010448 9.625602 2.127530 11697996
8.931100 9.974273 2.432126 11697996
9.651157 9.917612 3.716095 11697996
9.936834 10.896447 2.623384 11697996
10.908488 11.131151 0.853110 11697996
9.326262 9.094252 0.088467 11697996
9.684493 10.879704 0.142381 11697996
10.175404 10.349999 3.545475 11697996
10.946733 9.041270 0.955594 11697996
9.304245 11.052755 1.761423 11697996
10.170572 9.232278 2.230246 11697996
8.755706 10.008184 0.761901 11697996
9.721645 9.902245 3.962404 11697996
9.953153 11.228734 2.386522 11697996
9.353731 10.925974 2.961946 11697996
10.674066 9.617670 2.227188 11697996
10.914752 9.040930 2.767242 11697996
10.898248 10.876591 1.801719 11697996
11.241536 9.886354 2.239503 11697996
9.676518 9.348465 2.484606 11697996
9.302344 8.838891 2.935134 11697996
11.043115 9.007064 2.707814 11697996
9.874146 8.818796 0.597397 11697996
9.794787 9.044687 3.564652 11697996
10.985609 9.794956 0.858759 11697996
11.118778 9.027315 3.700928 11697996
10.432120 9.180779 2.290637 11697996
10.764505 10.426298 1.377237 11697996
9.381821 10.562133 0.164261 11697996
9.368904 10.705125 2.772634 11697996
9.545498 9.311857 3.932380 11697996
9.036551 10.932834 2.182451 11697996
9.783241 9.940031 0.527437 11697996
10.508969 10.128634 1.770415 11697996
11.172246 11.053682 0.286256 11697996
8.945129 10.464876 2.811809 11697996
10.398047 10.076904 1.530107 11697996
10.584958 10.326286 0.781021 11697996
10.555191 9.682302 3.558194 11697996
11.072277 8.846249 0.302101 11697996
11.007154 11.192967 0.017381 11697996
10.758676 9.758868 3.559979 11697996
9.689481 10.820857 3.343946 11697996
9.502582 9.410828 2.205012 11697996
10.497273 9.579950 1.541531 11697996
11.028331 9.450556 1.969005 11697996
10.397305 10.011590 0.535677 11697996
9.795464 11.153783 2.379772 11697996
11.102648 8.910715 2.302885 11697996
10.986167 9.616407 2.509174 11697996
9.704591 10.898295 2.666088 11697996
9.135127 10.342357 0.874727 11697996
9.310884 8.819035 2.188257 11697996
11.075932 9.879845 3.015250 11697996
9.447494 10.912251 1.250861 11697996
10.261965 9.244993 1.505557 11697996
9.615748 10.430579 1.969900 11697996
9.711793 9.146382 2.230207 11697996
9.200997 9.139305 0.633228 11697996
10.518774 11.094988 3.431378 11697996
9.873893 9.807514 2.143766 11697996
10.150329 9.165412 3.323613 11697996
10.404351 10.104536 1.521174 11697996
9.264080 10.881423 1.187505 11697996
9.640251 10.251838 3.954962 11697996
9.755060 8.981246 3.515799 11697996
8.929772 9.545522 0.261986 11697996
10.623125 10.414764 0.144220 11697996
9.321188 10.485797 1.856567 11697996
10.523356 8.955896 2.403429 11697996
10.492663 10.321879 0.633037 11697996
9.919541 10.083019 3.665173 11697996
9.722257 9.742833 0.623937 11697996
11.189455 10.533087 2.833941 11697996
9.659799 10.618815 1.956895 11697996
9.137317 10.842868 3.764310 11697996
9.231494 11.057332 1.238166 11697996
11.112006 11.105529 3.800511 11697996
10.377768 10.186051 2.416179 11697996
9.879489 10.103308 3.628770 11697996
9.102618 9.104747 1.802191 11697996
9.541371 9.966548 3.282647 11697996
10.930005 9.278580 0.138753 11697996
11.067288 9.192665 0.649805 11697996
9.758952 11.107778 2.594805 11697996
11.017133 9.337551 1.436168 11697996
9.272529 9.909075 2.551051 11697996
11.190962 11.117137 0.872154 11697996
11.201877 10.564167 1.856459 11697996
10.363263 8.834008 3.739109 11697996
9.310481 9.732336 3.131936 11697996
10.339520 8.997527 0.861858 11697996
9.577647 9.452724 0.029735 11697996
10.050542 8.883921 3.157488 11697996
10.820042 10.392203 3.058005 11697996
8.722280 9.071512 3.491865 11697996
9.996551 9.581214 1.093032 11697996
10.343686 9.415659 2.344491 11697996
11.139492 9.635197 3.440729 11697996
9.860450 11.181139 3.219970 11697996
10.979846 10.582358 2.649226 11697996
10.690190 10.374832 0.641593 11697996
9.028871 9.111110 2.299222 11697996
10.174240 9.526237 3.770127 11697996
10.833892 10.737924 0.722528 11697996
11.246944 8.838718 0.946905 11697996
9.297545 9.569021 3.789599 11697996
11.262006 10.223026 1.583390 11697996
10.928909 9.398338 1.646812 11697996
10.998317 10.170810 2.399685 11697996
8.929544 10.784461 1.239517 11697996
9.629997 9.850100 0.334463 11697996
10.310144 9.010839 3.260396 11697996
9.557207 8.821869 1.283297 11697996
11.001636 9.114526 1.184840 11697996
10.336206 8.819064 0.405444 11697996
9.891278 9.658051 2.821629 11697996
10.836597 9.765891 3.946406 11697996
9.075900 9.278601 3.416988 11697996
10.030012 10.887756 0.756376 11697996
10.131618 8.810558 3.063643 11697996
10.843930 9.278617 3.641077 11697996
9.533771 9.765147 3.423640 11697996
9.485628 8.962302 3.454280 11697996
10.149755 9.212338 1.271709 11697996
10.593858 9.074207 1.759775 11697996
9.853346 10.894176 3.634631 11697996
11.096042 9.673653 3.557508 11697996
9.763651 10.912656 3.270700 11697996
10.076774 9.520191 0.531011 11697996
9.206444 9.293943 2.888925 11697996
10.459117 8.963366 3.156827 11697996
9.837361 9.570498 0.436211 11697996
8.792515 10.862470 3.308688 11697996
10.323377 9.613301 0.691616 11697996
10.497666 10.909141 1.674775 11697996
9.734450 10.719781 1.931836 11697996
9.289038 10.196240 2.048355 11697996
10.535169 10.676533 3.640334 11697996
10.116192 9.907368 3.136092 11697996
9.976485 9.662735 1.606098 11697996
9.331641 9.859765 3.446175 11697996
9.908327 11.131642 3.816460 11697996
8.968781 11.202392 0.974498 11697996
10.577157 10.125132 0.146405 11697996
10.528643 10.291455 1.799908 11697996
10.085993 9.086529 0.802732 11697996
9.395254 9.588037 2.568934 11697996
11.118652 10.957322 1.029584 11697996
10.623665 11.113216 1.062665 11697996
9.595723 10.394669 1.001271 11697996
8.848757 11.215178 1.636294 11697996
10.179785 10.058373 2.954463 11697996
8.962465 9.264924 1.973303 11697996
11.016710 9.019716 0.625298 11697996
9.798093 8.746877 0.806441 11697996
9.164475 10.412032 1.681446 11697996
10.841210 9.258756 0.552652 11697996
9.834767 9.596386 2.797036 11697996
9.748620 10.243691 0.233878 11697996
11.015057 10.472466 0.411975 11697996
9.483482 10.113524 1.520249 11697996
8.770476 11.113347 2.503434 11697996
10.304072 9.461909 0.501852 11697996
10.671833 8.868294 0.206491 11697996
11.243065 9.425611 2.661881 11697996
9.527713 10.711546 1.209714 11697996
10.213253 9.033527 1.026051 11697996
10.730019 10.845935 1.700297 11697996
9.526509 10.015233 2.393567 11697996
10.366536 9.172158 0.464548 11697996
10.609209 9.041528 2.442084 11697996
10.715271 10.151745 1.190110 11697996
9.360485 9.209639 1.734407 11697996
9.855308 10.249046 2.026949 11697996
9.148958 9.069704 1.662689 11697996
9.606323 8.971229 2.448441 11697996
9.497539 11.193713 1.620352 11697996
11.184445 9.635357 1.533512 11697996
9.660907 8.844170 0.400634 11697996
10.300940 10.653250 2.646324 11697996
10.982998 8.789838 2.024391 11697996
9.521519 9.019078 0.074815 11697996
9.998052 10.346107 2.663945 11697996
9.415691 9.612238 1.581367 11697996
9.373893 10.732726 2.871865 11697996
9.929438 9.768191 1.011656 11697996
9.145634 10.250757 2.859774 11697996
9.444510 10.658182 0.807006 11697996
10.082870 9.752924 3.925965 11697996
9.094882 10.622281 2.257300 11697996
8.791844 8.905412 1.157396 11697996
10.640242 9.183094 1.307761 11697996
10.049940 9.710101 2.244297 11697996
11.111513 10.343677 0.208274 11697996
11.090478 10.309723 3.513714 11697996
9.081063 10.189086 1.810405 11697996
9.930470 10.857276 3.231074 11697996
10.711704 10.677768 1.174017 11697996
11.162825 10.094791 1.930247 11697996
10.932378 11.227418 1.331303 11697996
10.728433 11.076990 3.792950 11697996
9.872657 10.277289 1.979829 11697996
11.261904 10.386260 0.446006 11697996
10.498036 10.040508 2.051103 11697996
10.067362 9.828348 3.629417 11697996
9.422616 10.672587 2.041214 11697996
9.593984 10.309646 2.682952 11697996
9.818249 9.651659 0.953702 11697996
9.119648 8.885747 3.352872 11697996
9.536313 8.984901 0.062944 11697996
10.776199 10.046625 2.273093 11697996
9.518014 9.165772 3.783305 11697996
9.943701 9.872125 2.128119 11697996
9.388595 10.520651 0.420354 11697996
9.676748 10.203229 2.058506 11697996
9.379706 11.091544 3.838952 11697996
9.905107 9.945441 2.230767 11697996
8.958021 10.294976 0.924863 11697996
9.603893 9.616019 2.321902 11697996
11.112556 10.435772 1.146422 11697996
10.885625 10.433048 1.603278 11697996
9.364202 9.371735 0.091874 11697996
9.902661 10.011806 1.272380 11697996
11.196183 9.866821 1.133191 11697996
9.764164 9.300377 0.012639 11697996
9.024328 9.552626 1.803739 11697996
10.862741 9.460271 0.633826 11697996
9.657353 9.990151 1.431599 11697996
9.688006 10.818982 0.244036 11697996
11.217788 10.295725 4.002540 11697996
8.777304 9.717675 2.600731 11697996
9.986250 10.798493 3.163890 11697996
10.092144 9.997929 2.292870 11697996
11.146729 9.851195 2.122730 11697996
9.807253 10.174407 3.502216 11697996
8.961631 9.209930 2.359415 11697996
9.680912 10.429651 2.838048 11697996
10.532935 9.848972 3.808567 11697996
10.556091 9.572304 2.863368 11697996
9.025357 9.499320 2.932496 11697996
10.809889 11.228158 2.772543 11697996
11.206758 10.699203 0.447143 11697996
11.238166 8.736917 1.769997 11697996
9.825612 9.933879 2.484478 11697996
10.467937 8.898513 3.629978 11697996
10.672792 9.612463 1.677132 11697996
10.320237 8.910767 1.263664 11697996
9.717047 10.456264 3.809595 11697996
10.630320 10.451904 1.315937 11697996
10.166696 10.326101 3.631253 11697996
10.193509 9.220490 0.581864 11697996
9.848557 9.104236 1.011930 11697996
10.586713 10.643713 1.740241 11697996
9.936349 10.141911 0.458767 11697996
10.059138 10.364719 3.700100 11697996
10.224442 9.645288 1.591897 11697996
11.078841 9.464643 3.323803 11697996
9.772789 8.773890 3.536184 11697996
9.397790 9.804461 1.259283 11697996
8.937717 8.935979 3.405205 11697996
10.513634 10.510716 1.281986 11697996
10.244995 10.083286 0.142906 11697996
9.032791 10.465681 3.006336 11697996
10.718220 8.804648 1.099031 11697996
8.971402 9.068464 3.305230 11697996
9.758793 11.114996 2.923820 11697996
9.780014 10.916301 0.186493 11697996
11.053374 9.493127 2.012033 11697996
10.490185 10.114470 3.032675 11697996
9.251616 10.587867 2.749100 11697996
11.159714 10.926601 0.191658 11697996
10.091157 9.193334 1.892967 11697996
10.641566 10.257191 2.287895 11697996
11.199506 9.855742 3.106153 11697996
9.020515 10.094587 2.466512 11697996
10.925265 9.118287 1.199365 11697996
11.148205 10.799021 0.143876 11697996
10.377769 10.984941 3.259102 11697996
10.649719 10.827303 3.027303 11697996
9.487199 9.321135 1.081441 11697996
8.899806 9.889032 2.686392 11697996
9.994776 10.560671 3.661736 11697996
10.253765 10.443499 0.935407 11697996
10.283336 9.372297 2.794375 11697996
11.162907 11.004246 2.715908 11697996
9.569445 8.808485 1.088599 11697996
9.454018 9.589602 1.477855 11697996
10.132110 11.108617 2.568034 11697996
9.125501 9.272117 1.709731 11697996
9.393241 8.980056 2.902271 11697996
9.685059 9.734828 2.022629 11697996
10.723122 11.059971 3.682399 11697996
11.078337 10.410476 3.787004 11697996
10.969733 9.180154 0.010869 11697996
11.091668 10.428624 3.169745 11697996
8.942945 9.016287 1.206715 11697996
8.901500 10.252761 3.060556 11697996
9.000869 9.520015 1.012281 11697996
9.350121 9.557292 2.652639 11697996
10.072829 9.135688 3.161328 11697996
8.763973 8.928108 0.450694 11697996
10.128977 10.314569 1.274332 11697996
8.828025 10.248326 0.886530 11697996
9.464896 10.144158 0.434069 11697996
9.599485 9.896162 1.788233 11697996
9.316792 9.148785 1.368602 11697996
9.957398 9.022077 0.941861 11697996
9.348847 9.575394 0.367100 11697996
9.302416 9.606348 0.313372 11697996
9.537560 10.377439 1.866748 11697996
9.052297 9.803877 3.726015 11697996
9.478382 10.033590 0.521878 11697996
9.790007 10.358855 0.657965 11697996
10.807814 11.197162 1.668251 11697996
10.981011 10.241841 0.747274 11697996
9.364494 9.078360 2.473521 11697996
10.054777 9.462756 1.668322 11697996
9.504432 10.049262 2.798404 11697996
10.075898 10.542488 2.626453 11697996
10.955341 9.719416 2.194058 11697996
10.821467 9.558200 0.705457 11697996
9.467170 11.222538 3.631004 11697996
11.186727 10.302611 0.555383 11697996
10.953580 10.512949 3.555496 11697996
11.021445 10.133317 2.367955 11697996
9.420003 8.811785 1.778651 11697996
10.405476 11.076039 0.506477 11697996
9.650976 9.035115 2.011013 11697996
9.644751 9.588620 2.039748 11697996
10.312402 9.604134 1.235328 11697996
9.979437 10.513465 1.315953 11697996
10.365139 9.661957 3.555946 11697996
11.228415 8.875010 0.801915 11697996
10.165114 9.145549 2.825786 11697996
9.544581 9.278674 2.115849 11697996
8.746922 9.382679 0.374117 11697996
9.712974 9.492070 0.661591 11697996
9.031341 10.138104 1.913087 11697996
11.065685 10.240676 1.516401 11697996
9.394299 10.084749 0.710619 11697996
10.105853 8.785917 0.011615 11697996
9.983815 10.486349 3.050201 11697996
9.163266 9.264699 2.537796 11697996
9.309013 9.284885 0.503164 11697996
10.779612 11.165546 3.964894 11697996
9.229709 10.311500 1.556684 11697996
9.888255 9.511003 3.549255 11697996
8.775021 9.411233 2.246979 11697996
10.331644 9.681601 2.781540 11697996
9.766224 11.195372 3.821903 11697996
10.355816 10.565458 3.049932 11697996
10.563208 10.978045 3.953205 11697996
11.197957 9.102791 2.741517 11697996
9.867042 9.384992 2.461570 11697996
10.318498 10.749087 3.258188 11697996
9.535663 10.195889 3.507128 11697996
9.247685 9.924661 0.101469 11697996
10.277368 10.830582 1.701447 11697996
10.753795 10.242541 1.991683 11697996
10.875258 10.605358 1.043426 11697996
10.152123 8.906801 1.845994 11697996
9.986713 10.362313 1.222117 11697996
11.137093 9.643356 1.920904 11697996
10.434852 9.445210 3.636236 11697996
9.965267 10.098085 0.909178 11697996
10.851025 10.968889 1.232798 11697996
10.217818 9.796884 2.554187 11697996
9.689323 9.177005 3.334556 11697996
9.729734 10.879807 2.237513 11697996
9.476147 10.391169 0.860491 11697996
10.886610 10.612323 3.444125 11697996
9.266295 9.634252 2.337714 11697996
9.014084 10.746433 0.033519 11697996
9.414804 10.925115 1.938990 11697996
9.865493 8.866428 3.064679 11697996
8.822205 9.816008 2.033070 11697996
8.966250 10.616599 0.336919 11697996
8.822245 9.284104 1.208312 11697996
10.900294 9.380104 1.050460 11697996
10.893096 10.443720 3.049620 11697996
9.061305 10.874764 3.820361 11697996
10.949681 9.503736 2.999715 11697996
10.864269 8.784221 0.336422 11697996
9.017152 10.369810 1.046579 11697996
10.425594 8.836357 1.938126 11697996
9.368506 9.288440 0.082066 11697996
9.562422 9.957488 1.266679 11697996
10.716582 8.901965 1.104417 11697996
9.092671 10.550017 0.951832 11697996
10.543673 10.163079 0.435616 11697996
11.018311 9.303690 1.901927 11697996
9.091272 9.853264 2.005690 11697996
10.106936 11.113896 2.778615 11697996
8.868561 9.209217 0.623600 11697996
9.541435 10.821184 3.750514 11697996
9.264256 9.610584 2.210984 11697996
9.231945 10.432863 0.188624 11697996
10.693237 9.871972 2.489660 11697996
9.559775 8.829753 3.737336 11697996
10.956128 10.060378 1.477926 11697996
9.061916 10.347222 1.672385 11697996
9.320139 9.368490 2.036550 11697996
10.270196 8.796944 3.899596 11697996
10.055879 9.161615 3.286152 11697996
10.699386 10.054265 3.189670 11697996
11.246648 10.649427 3.840486 11697996
9.292990 9.307487 2.124050 11697996
9.508175 10.949973 3.270866 11697996
10.060147 9.344715 0.445091 11697996
9.507760 10.471662 2.377086 11697996
10.948220 8.894802 1.142771 11697996
9.648499 10.359629 1.581791 11697996
10.514592 10.466337 1.543281 11697996
9.855931 9.093539 2.536926 11697996
9.283711 10.507233 2.058433 11697996
9.207412 10.043837 0.669613 11697996
9.628991 10.474062 3.769266 11697996
10.329758 9.833226 3.615956 11697996
10.012074 9.292679 2.008345 11697996
10.631597 9.817526 0.422120 11697996
11.211230 10.590779 3.188489 11697996
10.710190 9.642404 3.268775 11697996
10.229324 10.367699 0.766573 11697996
9.643878 10.317244 2.655605 11697996
11.000453 11.147159 3.959813 11697996
11.113959 11.177377 2.017987 11697996
9.242593 9.009211 0.260355 11697996
9.777902 9.781424 3.612994 11697996
9.305893 11.080589 1.592666 11697996
8.889145 10.590670 0.410846 11697996
11.198000 10.988152 2.714012 11697996
8.858886 10.686972 1.603246 11697996
10.652157 9.454726 1.047762 11697996
10.856277 9.560995 3.156147 11697996
10.151582 10.219916 0.964735 11697996
9.084455 9.710948 2.391512 11697996
11.086826 9.115699 0.511011 11697996
9.371614 8.795849 2.191284 11697996
10.898562 10.865790 2.315015 11697996
10.448285 10.741027 3.764410 11697996
9.438089 10.917622 0.988508 11697996
9.285615 10.242363 3.504037 11697996
10.365180 9.463613 2.891346 11697996
10.603541 10.453856 3.632551 11697996
8.862635 11.132032 1.198027 11697996
9.536267 10.206230 1.116517 11697996
9.632286 10.035149 3.181108 11697996
10.702691 10.354136 3.223962 11697996
10.147933 9.576232 0.135689 11697996
9.068497 8.890287 0.064010 11697996
9.479899 10.264709 1.428562 11697996
10.640765 9.574258 3.561419 11697996
9.092478 11.204595 0.572789 11697996
9.582827 11.136436 0.465205 11697996
10.716523 8.848506 1.581202 11697996
10.399002 10.823115 2.136671 11697996
11.224530 10.954818 3.047102 11697996
11.122081 8.911191 2.591007 11697996
9.911772 10.787787 3.944028 11697996
9.448578 10.437371 3.935919 11697996
9.106677 9.179802 3.163371 11697996
9.155890 10.550415 3.420940 11697996
10.941129 11.044887 2.834184 11697996
9.596926 10.449345 2.056684 11697996
9.380455 9.981387 3.722453 11697996
10.926090 9.736124 3.793682 11697996
9.601750 9.066682 0.385733 11697996
9.069528 9.214698 0.614759 11697996
9.534516 9.069820 1.366049 11697996
9.742773 10.353472 3.256146 11697996
10.822347 9.302759 0.713602 11697996
9.049445 10.170705 1.962093 11697996
9.500122 10.544699 1.098364 11697996
10.136353 9.222316 2.781958 11697996
9.478319 10.191854 0.017049 11697996
9.393243 9.155881 0.229412 11697996
10.845081 9.871899 1.494781 11697996
9.817508 10.768529 0.195215 11697996
8.975611 9.703668 0.902747 11697996
10.188553 9.441299 2.040418 11697996
10.873411 9.233181 1.025790 11697996
8.891411 10.234651 1.868918 11697996
8.844869 11.006012 3.598660 11697996
10.584924 9.116029 2.374029 11697996
9.297964 10.922602 1.788051 11697996
10.567753 9.909643 0.540328 11697996
9.459258 9.135742 3.729089 11697996
10.330830 10.283055 0.033314 11697996
10.701477 9.027348 3.697502 11697996
9.135462 11.137377 3.961385 11697996
10.273906 9.273148 1.971478 11697996
8.782146 8.999214 3.669624 11697996
10.260255 9.245847 2.682789 11697996
9.716428 10.003124 3.945483 11697996
8.749858 9.783488 1.499369 11697996
9.248199 10.463564 2.124291 11697996
9.657652 10.691072 2.763165 11697996
9.270798 9.838840 2.151795 11697996
8.769089 10.275826 3.233783 11697996
9.311491 10.962907 0.151366 11697996
8.812057 9.455800 2.498703 11697996
10.833270 9.783519 1.530990 11697996
10.275230 9.808657 1.793663 11697996
10.455292 10.024653 2.334249 11697996
10.171034 9.208890 2.946241 11697996
10.099271 10.318651 3.515024 11697996
9.198020 10.102583 1.013467 11697996
9.346148 8.858425 2.607966 11697996
11.230803 11.135686 1.239632 11697996
9.080214 10.178955 2.619168 11697996
9.665733 9.719834 2.754831 11697996
9.383849 9.758350 1.711745 11697996
9.362252 10.861040 3.606933 11697996
10.697620 8.883827 2.759420 11697996
10.149269 9.322518 1.595658 11697996
10.944746 10.723026 3.825012 11697996
9.112671 9.455329 3.353967 11697996
10.079530 9.647311 0.849785 11697996
9.213283 10.953108 0.436704 11697996
9.024056 11.024137 1.957498 11697996
10.925925 10.807845 1.315387 11697996
9.851075 9.225131 3.204519 11697996
10.396609 9.831017 1.357992 11697996
10.271711 9.845958 3.914296 11697996
9.435236 9.072999 3.574325 11697996
9.772865 10.432043 3.223204 11697996
8.966110 9.811255 2.807756 11697996
10.338697 10.981059 0.457585 11697996
10.116969 10.953963 3.021600 11697996
8.990640 9.483677 0.255345 11697996
8.783241 10.173734 0.945966 11697996
9.685988 10.654271 0.557872 11697996
10.388955 10.144085 3.301004 11697996
9.123106 10.243026 3.676444 11697996
11.231580 10.321895 2.537038 11697996
10.948269 10.042689 2.825428 11697996
10.170368 9.981197 0.131877 11697996
10.551474 9.424392 1.614854 11697996
9.084360 9.115719 0.489262 11697996
8.897278 10.866702 0.497400 11697996
9.110149 10.224764 2.218537 11697996
9.805078 10.618037 2.038420 11697996
10.903635 9.413811 3.369994 11697996
8.996828 10.733468 2.038170 11697996
8.847847 10.145387 2.750270 11697996
9.725206 10.081185 0.623333 11697996
10.743760 10.658388 0.499868 11697996
9.368115 10.115555 3.250014 11697996
8.793703 8.972262 1.704952 11697996
9.632293 9.726035 1.448117 11697996
9.563854 11.139137 2.506665 11697996
11.031445 9.880088 2.823509 11697996
9.420600 9.414215 2.572601 11697996
9.317631 9.607414 1.679112 11697996
10.542069 11.192046 0.374429 11697996
9.260611 8.925344 3.401688 11697996
10.600293 9.810910 2.306259 11697996
9.963599 10.641939 1.585189 11697996
9.830956 11.165676 2.153705 11697996
10.599856 11.006051 2.263700 11697996
9.731138 11.092315 3.434063 11697996
10.122609 8.942358 0.075732 11697996
9.754588 10.472606 1.653187 11697996
8.846657 9.736611 2.811867 11697996
10.143280 9.914051 2.393820 11697996
10.979994 9.926183 1.837258 11697996
10.115898 10.708721 1.090190 11697996
9.235327 8.998088 3.226649 11697996
9.635283 9.632537 0.803213 11697996
9.806638 10.176271 1.008689 11697996
10.033895 9.925097 2.440650 11697996
11.217283 10.515232 3.330259 11697996
9.626183 9.984313 1.890877 11697996
10.671216 8.836360 0.208597 11697996
11.141942 9.370172 0.011567 11697996
11.150871 9.318827 0.823652 11697996
9.735275 10.282818 1.569521 11697996
10.403373 8.921669 0.691575 11697996
11.127510 8.873810 2.805599 11697996
11.200727 9.432306 3.266068 11697996
11.091789 9.180565 2.096200 11697996
11.149794 10.743040 3.906928 11697996
10.565475 9.695971 2.573530 11697996
10.118990 10.166294 0.346707 11697996
10.797257 10.459317 1.359891 11697996
9.516863 8.816586 1.537282 11697996
9.310900 9.936253 3.454980 11697996
10.721291 10.536686 2.085590 11697996
10.890126 8.836315 2.312049 11697996
9.023926 8.887388 3.405273 11697996
10.234661 10.785190 0.404161 11697996
11.107989 10.930551 3.458189 11697996
10.634763 10.455596 3.071412 11697996
9.339328 10.002463 3.429687 11697996
10.397979 11.063474 0.776228 11697996
10.084127 9.380429 0.863724 11697996
10.553821 10.381796 1.706011 11697996
10.033444 10.170297 3.398171 11697996
9.614333 10.027197 2.789149 11697996
10.518209 9.136314 1.198452 11697996
9.943172 9.587086 1.755895 11697996
10.772699 10.232068 1.751472 11697996
10.681381 11.047511 0.921360 11697996
11.086102 9.873941 2.075357 11697996
10.447944 10.151435 1.537277 11697996
11.036370 9.341265 3.925490 11697996
9.171054 9.722525 2.575036 11697996
10.512090 10.330156 2.335154 11697996
9.563468 10.831558 1.719844 11697996
10.500905 9.479980 3.946898 11697996
10.302086 10.329142 1.590249 11697996
9.304457 9.754175 0.298163 11697996
9.036631 10.673736 2.496956 11697996
11.054944 10.986908 2.980294 11697996
9.297308 9.495214 0.095614 11697996
9.408401 10.488369 2.624477 11697996
9.265881 10.052461 -0.033666 11697996
10.346871 9.616825 0.300292 11697996
9.898898 11.031919 1.116515 11697996
10.087846 9.875839 0.975026 11697996
9.980075 9.862891 1.794487 11697996
8.950863 9.033269 0.505730 11697996
10.162791 10.347818 3.647151 11697996
10.817959 10.469573 1.534907 11697996
9.256007 10.535088 3.036172 11697996
8.970737 9.286537 3.928540 11697996
9.286753 9.368896 3.753876 11697996
10.518040 10.336135 0.140526 11697996
11.188057 11.067467 2.773688 11697996
10.152651 10.416303 3.979476 11697996
9.032531 11.024321 2.428149 11697996
9.966988 10.570594 1.103496 11697996
10.685577 10.439800 0.986134 11697996
10.289593 9.903525 1.914422 11697996
9.268421 9.873967 3.117875 11697996
10.852478 9.965041 1.288132 11697996
11.248487 8.824920 0.150853 11697996
9.299930 9.560851 1.890970 11697996
9.427849 10.259785 3.950346 11697996
10.633226 10.956438 2.732504 11697996
9.791334 9.452752 2.246718 11697996
11.193274 10.701207 1.628578 11697996
9.092235 10.795543 0.263567 11697996
9.623905 9.668711 0.158741 11697996
9.713912 9.009364 2.276581 11697996
9.860253 11.067379 3.541491 11697996
10.653081 9.127764 3.453863 11697996
9.437486 10.174298 1.858446 11697996
9.683943 9.865958 3.377358 11697996
10.222939 9.562994 3.164042 11697996
10.883911 8.790464 0.640126 11697996
10.162024 9.789766 1.598961 11697996
9.420957 9.037291 3.412451 11697996
10.100565 10.826799 2.287909 11697996
10.119237 9.870316 3.367068 11697996
9.775719 9.080688 3.016346 11697996
11.145826 9.569256 1.211736 11697996
9.190928 9.629632 2.754226 11697996
9.108404 10.051600 1.830136 11697996
11.059857 10.274976 3.390922 11697996
9.078771 9.579141 0.195586 11697996
10.617070 9.789112 1.373053 11697996
10.993234 10.126374 0.073404 11697996
10.443945 10.180878 2.324219 11697996
10.440848 10.588839 2.583593 11697996
10.939107 9.801785 3.725443 11697996
9.423033 10.758783 3.124005 11697996
8.794474 9.810043 3.736555 11697996
10.428798 9.063962 0.426834 11697996
8.886835 9.579691 0.129179 11697996
10.926667 9.896148 1.923848 11697996
10.420615 10.325994 1.391815 11697996
9.016006 9.208828 1.517261 11697996
11.023930 8.953646 1.369794 11697996
9.206750 10.494811 1.190540 11697996
9.586892 11.026918 0.762730 11697996
10.611889 10.982615 2.846977 11697996
11.120411 10.750315 0.136341 11697996
9.143900 8.887525 0.235626 11697996
9.914240 10.019324 3.833904 11697996
10.434182 9.540548 2.721821 11697996
11.026913 10.876774 2.950378 11697996
9.985415 10.764391 0.080425 11697996
10.299761 9.051883 0.306542 11697996
10.389920 10.938457 0.951585 11697996
8.712127 9.448417 0.788785 11697996
9.332792 11.069288 1.226604 11697996
10.742263 8.992421 1.549000 11697996
9.999685 10.645006 0.387682 11697996
10.719344 9.837672 1.727269 11697996
10.236968 10.070460 3.923209 11697996
10.627272 9.405731 3.082936 11697996
10.140045 11.161363 0.305856 11697996
9.026519 9.879056 1.716850 11697996
9.563725 10.125086 3.805416 11697996
9.754933 10.778035 1.246410 11697996
11.051224 11.027530 0.414025 11697996
10.264454 9.194411 2.162032 11697996
8.763824 9.148956 1.841526 11697996
8.783843 9.238555 1.252309 11697996
8.851208 9.575400 2.068984 11697996
9.338454 10.831057 1.814554 11697996
9.009191 10.308309 2.095642 11697996
8.975868 10.654195 1.992003 11697996
9.178698 10.537792 0.341835 11697996
10.079678 11.211123 2.705462 11697996
9.313959 10.165149 3.536289 11697996
11.089117 10.560695 2.652431 11697996
10.720498 9.792743 0.654963 11697996
9.606916 8.985717 2.011431 11697996
10.366864 10.311597 3.001803 11697996
10.199848 9.201628 1.935059 11697996
11.202511 9.830078 1.986287 11697996
11.089234 9.222225 2.205855 11697996
9.944995 11.022701 1.739441 11697996
11.181779 9.485198 1.498492 11697996
9.971434 9.159698 1.407931 11697996
10.674055 10.545792 3.119977 11697996
11.109787 11.179122 3.756896 11697996
9.911679 9.181401 3.631307 11697996
11.203891 11.148509 0.600963 11697996
9.184754 9.234440 3.870734 11697996
10.828683 10.228943 2.581302 11697996
10.135275 10.173562 0.335860 11697996
9.815834 10.216306 0.598750 11697996
10.386096 8.748190 0.309677 11697996
10.461878 9.626724 2.674648 11697996
9.456400 9.144015 2.366640 11697996
8.770435 10.496213 3.896143 11697996
10.865400 10.090544 2.877917 11697996
10.597979 11.040477 3.486897 11697996
9.126370 9.720726 3.629644 11697996
8.830910 9.448366 0.862851 11697996
9.336452 10.815017 2.053452 11697996
10.188403 9.523503 2.914190 11697996
9.641375 9.846851 0.640089 11697996
11.069231 9.807575 2.123395 11697996
10.081144 10.329898 2.299967 11697996
10.780883 11.132428 1.874942 11697996
10.193622 9.674195 3.213976 11697996
8.832330 9.196990 0.254662 11697996
10.753618 9.775232 3.099324 11697996
11.203622 8.788580 1.004619 11697996
9.736907 10.483408 2.725331 11697996
10.897697 10.549587 1.826723 11697996
9.807393 10.816467 3.937077 11697996
10.664758 10.401602 0.125433 11697996
11.060255 9.008121 1.033720 11697996
10.199988 9.210195 0.954773 11697996
10.203391 11.137665 2.424900 11697996
9.506878 11.002684 0.780861 11697996
9.565692 10.594732 0.776874 11697996
9.056295 8.988895 1.483455 11697996
10.718053 9.789222 2.752025 11697996
10.461894 9.978551 2.214109 11697996
10.559530 8.838739 2.524204 11697996
9.036825 11.190999 1.072335 11697996
9.634724 10.163669 3.555895 11697996
9.681602 10.920228 2.862109 11697996
10.572709 9.141012 0.967032 11697996
8.873187 9.144068 1.184946 11697996
11.093783 10.672207 1.713042 11697996
8.916406 9.619032 3.324869 11697996
10.698745 9.112602 2.211220 11697996
10.672586 9.847777 3.862139 11697996
8.876407 9.424627 1.926502 11697996
9.987975 9.281425 1.349068 11697996
10.577829 9.926323 0.768640 11697996
9.546159 10.811907 3.152407 11697996
9.228522 9.574170 3.033344 11697996
10.189215 9.459368 2.898650 11697996
11.201804 9.856242 0.501850 11697996
10.885189 9.482093 0.507980 11697996
10.012714 11.155072 0.800900 11697996
9.605425 9.345301 0.582059 11697996
9.514700 9.587679 3.599368 11697996
9.725153 9.372844 3.466657 11697996
9.880857 9.990247 3.165984 11697996
9.236284 9.771374 2.388086 11697996
9.593891 9.381901 1.812354 11697996
8.795322 10.031238 0.782313 11697996
10.817399 10.555431 0.102721 11697996
8.868420 10.684009 0.379507 11697996
11.061422 11.179724 3.626684 11697996
10.388100 9.284062 1.175165 11697996
10.379769 8.889072 3.455867 11697996
11.152344 11.252086 3.790341 11697996
10.968702 9.795948 1.155286 11697996
11.058976 9.351735 2.885895 11697996
10.040754 10.883679 3.826581 11697996
9.956584 9.973200 2.966923 11697996
10.671206 11.023325 1.434596 11697996
9.910142 10.910064 0.930409 11697996
9.800169 9.616640 2.273027 11697996
10.751488 9.328579 3.303005 11697996
9.491162 9.691566 0.273878 11697996
10.536661 9.121549 2.428624 11697996
8.828354 9.326735 1.310241 11697996
10.544367 9.525132 3.650009 11697996
11.089360 9.096876 1.275905 11697996
10.318377 8.807592 1.685902 11697996
10.913471 10.721682 2.699310 11697996
9.591511 8.994346 1.295948 11697996
8.807078 9.704836 0.393811 11697996
8.847791 9.100234 3.145230 11697996
10.569309 10.694195 2.074865 11697996
10.437549 9.856162 1.372952 11697996
10.350655 8.993477 3.752917 11697996
10.340739 10.722654 2.352712 11697996
10.998160 8.819549 0.180811 11697996
9.000647 9.544362 2.754675 11697996
10.482543 9.731650 2.955321 11697996
10.782046 10.230062 3.121394 11697996
10.409931 9.003500 1.399091 11697996
10.128575 9.668380 2.037669 11697996
9.536717 11.030666 1.914526 11697996
9.750710 9.484466 1.408847 11697996
9.316128 10.499492 3.842886 11697996
10.889962 9.657645 0.691601 11697996
9.769479 10.565312 2.641595 11697996
8.853238 9.849103 1.620940 11697996
10.271392 10.317160 3.737093 11697996
8.763591 9.756501 1.687622 11697996
9.412990 10.179233 1.825099 11697996
9.484450 9.541191 0.051623 11697996
9.867898 10.168392 1.891808 11697996
9.454082 8.766152 2.157804 11697996
9.448947 10.113044 0.441986 11697996
9.315556 8.775007 3.967314 11697996
8.944014 10.364152 2.391373 11697996
9.638720 10.069403 1.663064 11697996
9.239857 9.882415 0.927609 11697996
10.765439 10.840937 1.397009 11697996
11.175447 9.870115 3.184937 11697996
10.546343 10.250735 1.247985 11697996
8.958594 10.604845 3.724754 11697996
10.565092 10.251808 2.740029 11697996
9.708777 9.268205 3.518072 11697996
10.964089 11.169109 0.974931 11697996
10.381497 10.664421 2.581743 11697996
10.171362 10.653116 1.211919 11697996
10.482284 9.476492 2.190867 11697996
9.897173 9.323613 0.066583 11697996
9.585567 10.700343 0.565397 11697996
10.345811 9.266983 0.306370 11697996
9.031625 10.776546 0.483030 11697996
10.416656 10.913717 1.966776 11697996
10.046226 9.041820 2.652921 11697996
10.197256 9.232538 3.794194 11697996
10.841355 9.843297 2.877028 11697996
10.328358 11.147974 1.095013 11697996
10.939576 9.087580 0.518793 11697996
11.145047 10.043561 1.442251 11697996
9.390812 10.221632 3.547171 11697996
9.070305 8.786913 1.251182 11697996
10.336090 10.534495 1.359515 11697996
8.917077 8.903258 3.270480 11697996
10.251942 9.189563 3.889010 11697996
9.110662 10.326615 2.621734 11697996
9.217965 9.793006 0.671933 11697996
9.845447 11.059653 3.358527 11697996
9.003038 10.267392 3.220863 11697996
8.824963 11.239638 2.919200 11697996
9.368325 10.326636 3.602329 11697996
11.165380 11.201939 0.510266 11697996
8.980597 9.264377 0.662999 11697996
10.213939 9.003129 3.686404 11697996
10.456972 11.117546 0.614014 11697996
8.743487 9.845621 3.642090 11697996
10.118579 10.380310 3.547570 11697996
9.588594 10.190679 1.097843 11697996
9.678307 8.766572 3.138440 11697996
10.024568 9.528118 3.120578 11697996
10.524422 9.802773 2.862171 11697996
9.337568 8.985673 1.091194 11697996
10.786466 11.071019 1.590163 11697996
9.958941 9.319275 3.116384 11697996
10.326617 9.419291 1.294028 11697996
10.385025 10.916016 3.304932 11697996
8.848053 9.684494 1.894438 11697996
9.243092 10.785652 3.059301 11697996
9.402106 10.793061 1.308480 11697996
9.321594 9.923610 2.365598 11697996
11.089366 9.007312 0.203258 11697996
10.098688 9.000472 1.875775 11697996
10.687667 9.883837 1.119244 11697996
10.290317 10.170314 0.600657 11697996
10.964909 9.678013 3.086027 11697996
8.879550 10.652794 1.562004 11697996
10.185768 9.632166 3.025225 11697996
9.009578 10.480463 3.423038 11697996
10.240029 10.481624 0.033716 11697996
9.086752 10.365957 2.129711 11697996
9.814919 10.479355 1.648844 11697996
10.055692 9.872657 1.478585 11697996
10.868685 9.935094 1.308148 11697996
9.499430 8.974036 1.792790 11697996
10.604125 9.221169 2.202077 11697996
11.193825 10.363485 3.101768 11697996
11.200413 9.391697 3.501137 11697996
9.950171 9.053011 1.574491 11697996
10.949487 9.806772 1.120166 11697996
11.242208 10.033620 0.401198 11697996
9.813674 8.758265 2.284409 11697996
10.066440 9.509116 2.356209 11697996
9.975499 10.756412 1.720293 11697996
9.917433 9.971037 2.847462 11697996
9.946920 10.687150 3.813365 11697996
10.724023 9.308450 2.469339 11697996
9.471987 8.922573 0.263994 11697996
9.350879 8.795634 0.480393 11697996
9.077990 10.626740 3.221014 11697996
8.924012 9.531371 3.351763 11697996
10.119833 11.002506 0.137230 11697996
8.773680 10.515371 3.779832 11697996
10.301414 8.827032 3.568696 11697996
9.311484 10.561004 1.799642 11697996
9.455150 10.884385 1.867283 11697996
8.933221 9.931036 0.223117 11697996
10.413458 9.472644 2.731769 11697996
10.501315 9.609943 3.303798 11697996
10.272934 9.750083 0.838368 11697996
9.253713 10.162419 0.228938 11697996
8.839870 10.331245 0.946961 11697996
10.472251 11.227591 3.556300 11697996
9.027985 8.933905 2.883332 11697996
9.536162 10.367136 3.744087 11697996
8.768358 10.064582 2.470906 11697996
10.794654 10.598283 3.403941 11697996
11.018106 11.235064 3.648814 11697996
10.464640 8.819682 0.951608 11697996
8.973280 10.285389 0.051431 11697996
9.075541 9.425264 0.731156 11697996
9.268049 8.963880 0.305955 11697996
9.584612 9.143839 0.221300 11697996
10.890532 10.326324 1.697204 11697996
9.823698 10.243204 3.623562 11697996
9.119449 9.811030 1.794617 11697996
9.897934 9.443139 1.235696 11697996
9.372464 9.143140 1.537692 11697996
10.163378 10.520598 3.077527 11697996
10.119610 9.902093 0.775203 11697996
11.012322 9.122144 1.678828 11697996
8.786418 10.472604 0.238805 11697996
10.447735 11.109154 2.014066 11697996
9.880022 9.572062 1.728997 11697996
11.209208 10.169680 0.769298 11697996
9.852741 9.166422 1.799540 11697996
9.778190 9.678030 2.905721 11697996
10.710364 9.454665 2.980909 11697996
10.547626 8.744741 2.887788 11697996
10.578814 10.552879 2.330231 11697996
9.376408 9.866662 3.204492 11697996
10.349142 10.677135 2.596801 11697996
10.360873 10.540969 2.535951 11697996
8.779848 8.863471 0.450692 11697996
10.170959 9.015666 2.605377 11697996
9.901019 10.272253 2.020955 11697996
9.829346 11.185517 2.434250 11697996
8.764203 9.448493 0.010998 11697996
10.615218 9.464382 0.348257 11697996
-9.810624 -10.485789 0.666092 6730418
-10.242107 -10.955689 1.083395 6730418
-10.566952 -9.874293 2.177430 6730418
-10.409859 -9.389792 0.330787 6730418
-9.654482 -9.584411 1.829991 6730418
-9.938908 -9.372304 2.439512 6730418
-9.997284 -10.281044 2.943326 6730418
-9.659842 -9.372713 0.204554 6730418
-9.592805 -9.719738 2.393123 6730418
-9.417239 -10.316648 0.302596 6730418
-10.714883 -9.752160 1.208331 6730418
-9.434510 -10.346787 1.989326 6730418
-9.632315 -10.844561 2.917432 6730418
-10.245018 -10.136929 1.450695 6730418
-9.494123 -10.137987 0.804633 6730418
-9.323343 -10.606077 1.772034 6730418
-10.479780 -9.784734 0.199543 6730418
-9.325521 -10.718697 1.773685 6730418
-9.545729 -10.743854 1.319950 6730418
-9.884810 -10.478315 1.607943 6730418
-9.389924 -10.541384 1.782829 6730418
-9.804813 -9.233066 1.234383 6730418
-9.860466 -9.009939 2.130952 6730418
-9.747828 -10.757887 0.079734 6730418
