# .PCD v0.7 - Point Cloud Data file format
VERSION 0.7
FIELDS x y z rgb
SIZE 4 4 4 4
TYPE F F F U
COUNT 1 1 1 1
WIDTH 1292
HEIGHT 1
VIEWPOINT 0 0 0 1 0 0 0
POINTS 1292
DATA ascii
10.689109 10.935433 1.704382 11697996
11.201608 9.251500 3.290196 11697996
9.869724 11.258409 1.753200 11697996
8.839210 8.784462 2.474644 11697996
9.190799 10.122603 3.116230 11697996
10.560887 10.043989 0.218932 11697996
8.862303 10.198813 3.398032 11697996
10.304736 9.524445 0.816133 11697996
10.264998 8.979312 1.403978 11697996
9.607726 8.911413 3.594027 11697996
9.754323 9.814140 1.585578 11697996
10.866921 9.948820 3.053668 11697996
10.654099 10.314490 3.297132 11697996
10.803911 10.467028 0.639405 11697996
10.741044 10.232330 3.850339 11697996
11.079120 9.520188 1.690901 11697996
9.506433 10.804547 2.613801 11697996
10.215524 8.792392 3.132027 11697996
11.143896 9.502780 2.692941 11697996
10.334998 10.062184 2.049778 11697996
10.346713 10.046181 0.968589 11697996
8.884103 10.966766 3.409164 11697996
10.636741 9.896303 1.740472 11697996
9.490651 9.993773 2.160097 11697996
10.104906 10.712319 3.239206 11697996
9.267222 10.480310 1.897710 11697996
9.257436 9.725829 2.722926 11697996
9.779914 9.118623 3.533852 11697996
9.607299 11.039252 2.015963 11697996
10.591763 8.885942 1.298766 11697996
8.921762 11.103878 0.017703 11697996
11.024128 10.403104 2.080696 11697996
8.877396 11.170793 0.044384 11697996
9.264373 11.142297 1.576979 11697996
10.119420 9.156159 1.456985 11697996
9.206194 10.582389 0.531748 11697996
10.796804 10.941499 3.772863 11697996
10.150240 9.802879 2.668083 11697996
10.944674 10.449463 2.312235 11697996
11.158112 9.919876 2.090666 11697996
9.967544 10.191371 2.195421 11697996
10.005451 10.202775 2.038008 11697996
8.881694 9.528134 0.946087 11697996
10.434761 11.035559 2.206665 11697996
11.007809 10.977896 1.689477 11697996
9.976185 8.845281 0.526338 11697996
9.317195 10.381695 3.286752 11697996
11.153630 9.205495 3.182091 11697996
11.108764 10.639169 2.349893 11697996
10.876659 11.162971 1.174155 11697996
10.753654 9.556024 2.725327 11697996
10.000133 10.822782 1.087616 11697996
11.065826 10.020551 1.255583 11697996
8.984383 10.038412 2.599194 11697996
10.104263 10.402457 0.471629 11697996
10.799384 9.920882 3.409413 11697996
9.850078 10.393548 3.124046 11697996
10.110380 11.156991 1.593829 11697996
9.574879 9.956848 1.554347 11697996
10.303162 10.220104 3.255171 11697996
10.934534 10.705665 3.131302 11697996
10.693666 10.701162 0.897666 11697996
10.691669 10.066951 1.577268 11697996
9.711438 10.722161 3.986054 11697996
10.817257 9.559185 1.431754 11697996
9.085094 10.141043 3.906941 11697996
9.153580 9.580299 0.242549 11697996
10.966338 10.869802 1.600032 11697996
10.165287 10.271164 2.355960 11697996
9.565325 10.946248 1.798103 11697996
10.170732 10.731314 0.198173 11697996
10.901472 8.872619 0.800722 11697996
9.107635 10.866012 0.668705 11697996
11.028289 11.003438 0.519186 11697996
10.080997 10.207011 3.162442 11697996
10.397074 9.972633 0.189706 11697996
10.221440 8.951016 1.569880 11697996
9.318688 8.909975 1.497495 11697996
8.952758 10.342617 3.101331 11697996
10.480792 9.362723 1.540457 11697996
9.175363 9.356507 3.715411 11697996
9.469243 9.205738 0.586848 11697996
10.315187 11.075622 1.200079 11697996
10.507068 9.162862 1.489972 11697996
11.147818 10.376756 1.891557 11697996
10.623337 8.978195 3.697086 11697996
10.920537 10.803754 0.804510 11697996
10.849803 9.189894 1.493057 11697996
9.564548 11.167783 1.820481 11697996
8.946256 10.209708 1.824147 11697996
11.217062 10.142486 0.234600 11697996
10.007514 10.993572 3.611825 11697996
10.610053 10.326087 0.269557 11697996
8.839255 10.563146 0.591496 11697996
9.001090 8.844386 1.456837 11697996
10.882230 9.470283 0.153340 11697996
10.390822 9.486312 3.720114 11697996
10.232557 10.454304 0.766196 11697996
10.419578 10.782459 0.190779 11697996
10.786674 9.160275 1.198282 11697996
10.962322 9.810183 3.746259 11697996
10.474725 9.572061 1.560770 11697996
8.837355 8.951128 0.534114 11697996
10.176357 10.310122 3.685385 11697996
9.267118 10.985218 0.652376 11697996
10.798113 8.820810 0.563244 11697996
8.964434 10.702584 2.537026 11697996
10.714463 9.472646 3.071770 11697996
9.551473 9.744946 0.820562 11697996
11.014730 11.175950 2.345392 11697996
9.575406 10.547059 2.890419 11697996
9.657199 11.133809 1.301626 11697996
9.804086 11.132103 2.703992 11697996
10.340727 10.295881 3.003569 11697996
10.434432 10.669237 3.535674 11697996
10.930178 10.679219 1.436509 11697996
9.114235 10.865702 2.691045 11697996
10.860634 9.629780 0.365682 11697996
10.969736 10.541691 3.095288 11697996
8.805387 9.115162 3.977511 11697996
9.476097 9.449335 2.506206 11697996
10.747869 10.245931 2.460378 11697996
8.813673 9.468881 0.674472 11697996
10.279565 9.213405 3.695681 11697996
10.171548 9.070101 2.566422 11697996
10.346332 11.033169 2.558607 11697996
9.046166 9.486986 1.887283 11697996
10.043867 9.348465 2.230358 11697996
9.174181 9.376334 0.662894 11697996
11.032745 9.608122 3.946425 11697996
10.225239 10.759400 1.821523 11697996
11.009629 10.001644 2.417977 11697996
10.279906 10.941972 1.687816 11697996
9.643648 9.763948 3.330610 11697996
10.559326 8.886788 1.958285 11697996
9.286952 10.728711 1.524042 11697996
9.370584 9.268723 2.096469 11697996
9.120744 9.107232 3.242392 11697996
9.360336 10.467998 2.025048 11697996
11.067883 9.086227 2.325518 11697996
11.124561 9.906818 2.437556 11697996
9.332562 11.177679 2.948018 11697996
9.626820 11.193109 1.214716 11697996
9.076544 9.529808 3.192154 11697996
11.170823 8.921189 1.358940 11697996
10.247355 9.989586 1.696851 11697996
10.088195 10.462011 2.650324 11697996
9.324046 9.131962 0.740034 11697996
9.974167 9.400833 0.390695 11697996
9.073463 8.934290 1.367312 11697996
8.803152 10.364140 2.399387 11697996
9.762203 8.953518 2.978550 11697996
10.128424 10.970847 0.853969 11697996
11.011965 9.264918 4.025817 11697996
10.783416 8.989945 1.268360 11697996
9.644101 9.930720 2.834326 11697996
10.077085 9.350784 2.822829 11697996
10.050905 11.142757 3.064118 11697996
11.025768 10.875626 3.198974 11697996
9.404902 10.905999 1.015527 11697996
9.550795 10.758583 1.083683 11697996
8.758481 9.320732 0.076566 11697996
10.481326 10.794582 2.009584 11697996
10.439681 10.660625 2.430852 11697996
10.177888 9.114119 2.952035 11697996
10.337356 9.633340 3.728906 11697996
9.157246 10.709403 3.690104 11697996
9.679457 10.875273 2.567401 11697996
10.989546 9.886887 0.461355 11697996
10.606964 10.870347 3.373976 11697996
10.767192 10.288340 2.083814 11697996
10.357005 10.417911 0.314086 11697996
10.986631 10.450807 2.659037 11697996
9.687803 9.665292 2.622480 11697996
11.127064 10.972246 1.289815 11697996
9.386538 9.466915 3.177549 11697996
10.945164 8.909870 3.578214 11697996
11.226881 9.826095 1.989715 11697996
10.409286 10.322508 2.643004 11697996
9.651081 9.103897 0.435473 11697996
11.228417 10.416829 0.239065 11697996
9.970037 9.257842 0.971217 11697996
10.400274 10.337698 2.371196 11697996
10.838054 8.771159 1.205905 11697996
9.969617 9.037519 0.549778 11697996
9.719670 11.196063 0.842783 11697996
10.151689 9.151967 1.197837 11697996
8.917936 9.494950 1.560808 11697996
9.713387 8.911791 1.710933 11697996
9.834667 9.845969 1.056260 11697996
10.106277 10.821681 3.365192 11697996
10.284840 8.954236 1.119328 11697996
9.086257 10.208345 1.328243 11697996
11.096431 8.884046 2.015123 11697996
11.062888 9.333712 2.223720 11697996
11.068125 9.187304 3.982601 11697996
8.893353 10.404718 2.300128 11697996
8.869623 10.403230 0.492291 11697996
9.062109 11.114549 3.755435 11697996
9.214458 9.680153 0.801638 11697996
9.205294 10.780173 1.401310 11697996
9.336698 10.728256 1.352645 11697996
10.960896 10.242105 1.975553 11697996
10.344388 10.522919 2.542753 11697996
8.847362 10.230326 3.265802 11697996
9.476254 10.209301 3.573044 11697996
9.071403 10.898498 3.173066 11697996
11.135323 10.299014 0.726742 11697996
9.410254 9.050843 2.453913 11697996
9.139892 10.057176 1.073371 11697996
11.058219 9.488320 2.038781 11697996
10.801949 9.508736 0.288587 11697996
9.778024 10.386131 1.861911 11697996
10.263415 10.086714 1.194131 11697996
8.733892 10.444405 3.088903 11697996
10.329128 9.242659 1.349754 11697996
9.748862 9.295803 -0.009121 11697996
9.267159 9.955919 2.862661 11697996
10.551232 9.530184 0.861535 11697996
10.194283 10.177040 3.536974 11697996
8.911019 11.074718 1.879039 11697996
11.017458 9.220196 1.315014 11697996
9.187428 9.816775 2.937228 11697996
8.935287 9.071048 2.152928 11697996
9.407825 10.266492 1.094793 11697996
11.081238 9.649685 3.526716 11697996
9.637007 10.059270 1.938106 11697996
10.605003 11.219332 0.091503 11697996
9.674404 9.669003 1.340531 11697996
10.774940 8.927072 3.656226 11697996
9.618784 10.412028 0.299248 11697996
10.775672 9.996917 2.871162 11697996
9.101027 10.052402 3.794808 11697996
8.983833 10.812659 3.464753 11697996
10.688934 8.944551 1.540938 11697996
9.141179 10.577339 2.758127 11697996
9.979433 10.066572 3.957607 11697996
10.175469 10.941101 2.313517 11697996
9.867686 10.125930 0.318174 11697996
8.888593 8.936206 2.156724 11697996
10.229029 9.805053 3.819642 11697996
10.613313 11.151561 2.246477 11697996
9.302634 10.094330 3.167834 11697996
9.863637 9.919499 2.643081 11697996
8.903631 10.255169 0.202266 11697996
10.782100 10.495308 1.935581 11697996
10.153795 9.661224 3.309623 11697996
10.975598 10.175097 3.394832 11697996
8.919394 9.191738 3.896538 11697996
9.311240 10.821591 3.321030 11697996
10.271949 10.728251 0.965191 11697996
10.778183 9.898269 2.280501 11697996
10.497788 8.757228 3.494812 11697996
10.832174 8.956529 0.847769 11697996
9.382718 10.220331 2.579804 11697996
9.100148 10.842314 1.145822 11697996
10.333218 8.833516 3.300694 11697996
9.670988 10.831761 2.892965 11697996
9.907393 10.540600 1.143659 11697996
11.139089 10.997132 1.421585 11697996
9.560536 8.808764 3.912243 11697996
10.737948 9.876622 2.256022 11697996
8.764658 9.318702 1.196920 11697996
10.831728 11.099483 3.737742 11697996
10.704559 10.946202 2.529549 11697996
9.539125 9.765317 1.167601 11697996
10.235673 9.237950 2.002324 11697996
9.761869 10.005892 2.745525 11697996
10.024768 9.705088 0.832988 11697996
10.336475 11.218358 1.888769 11697996
10.662763 9.170244 0.195812 11697996
9.490889 10.702014 1.206931 11697996
11.196782 11.018052 2.550051 11697996
10.496593 9.697794 2.091289 11697996
8.998168 10.375426 3.937454 11697996
9.195747 10.587445 0.122330 11697996
10.288667 10.025267 3.646478 11697996
10.753688 10.605379 3.102698 11697996
9.607158 11.242037 3.649152 11697996
9.418335 9.231354 3.033394 11697996
10.010483 9.294815 1.225651 11697996
9.148432 8.967858 0.838972 11697996
10.380826 9.590755 3.103010 11697996
10.584741 11.099341 2.285072 11697996
10.183036 8.900548 0.540712 11697996
10.703956 10.054661 3.462849 11697996
9.086136 10.977063 2.183882 11697996
11.025432 10.143382 1.549596 11697996
10.658758 10.414200 0.597027 11697996
8.827995 10.816312 2.860010 11697996
8.808117 10.484971 0.277667 11697996
9.377094 10.149038 3.516427 11697996
9.045987 9.305490 2.146492 11697996
9.664692 9.742438 2.084737 11697996
10.347166 10.025634 1.887378 11697996
9.232782 9.345745 2.323857 11697996
9.481757 10.900396 3.355710 11697996
10.046248 9.986992 3.318921 11697996
10.671038 8.840402 0.837159 11697996
9.207723 11.222065 3.894934 11697996
9.400693 9.889233 0.976472 11697996
8.850994 11.215628 2.722026 11697996
10.147537 9.572725 3.426349 11697996
11.205754 10.335103 0.184496 11697996
9.292830 9.011665 2.716018 11697996
8.923487 9.324432 1.323194 11697996
9.018967 9.750625 1.626703 11697996
8.894918 9.693296 2.166814 11697996
11.053225 11.095847 3.579816 11697996
10.385131 9.869051 3.025245 11697996
8.765772 9.699501 3.467237 11697996
10.269771 9.635271 0.340456 11697996
10.456127 10.567956 1.891125 11697996
10.738085 9.638496 0.090708 11697996
11.156334 8.914331 3.991221 11697996
10.555531 10.443755 2.018132 11697996
10.213809 10.234784 0.729166 11697996
10.002522 9.167687 1.439688 11697996
11.137877 9.253708 2.176002 11697996
9.079519 11.176206 0.929546 11697996
9.036108 9.490787 3.352440 11697996
10.493549 9.963275 2.781245 11697996
8.778520 11.239255 1.145281 11697996
10.556721 9.808924 3.072826 11697996
9.124021 10.662791 3.388393 11697996
9.127173 10.163923 3.984357 11697996
10.955818 10.264242 1.946667 11697996
10.892859 9.665919 1.021128 11697996
9.373170 8.935962 3.907022 11697996
8.758469 9.837251 2.438712 11697996
10.242852 10.431237 1.866694 11697996
11.090714 10.909677 3.565737 11697996
8.866323 9.459030 3.885474 11697996
9.888749 9.101327 3.443959 11697996
9.972922 9.632090 2.101608 11697996
8.905561 9.980968 2.449941 11697996
9.661548 9.913948 3.756694 11697996
9.939892 10.901329 2.648722 11697996
10.931183 11.133164 0.815035 11697996
9.329797 9.081728 0.085022 11697996
9.715271 10.840542 0.161048 11697996
10.202569 10.312639 3.560594 11697996
10.953259 9.041071 0.960311 11697996
9.313927 11.064618 1.780187 11697996
10.144556 9.230152 2.213328 11697996
8.770503 10.018957 0.766121 11697996
9.738727 9.892989 3.961128 11697996
9.937459 11.179593 2.369498 11697996
9.356725 10.918726 2.956638 11697996
10.687592 9.602011 2.223911 11697996
10.897240 9.051896 2.757571 11697996
10.885854 10.871215 1.809927 11697996
11.250867 9.891479 2.209829 11697996
9.656062 9.347603 2.504112 11697996
9.292586 8.849975 2.935760 11697996
10.999975 8.985931 2.666434 11697996
9.872947 8.804883 0.598476 11697996
9.808295 9.084101 3.570940 11697996
10.985702 9.822061 0.864821 11697996
11.100657 9.047686 3.695478 11697996
10.482632 9.153814 2.298410 11697996
10.766290 10.404453 1.404938 11697996
9.385830 10.575184 0.158006 11697996
9.377284 10.696464 2.749540 11697996
9.567331 9.309769 3.921781 11697996
9.043669 10.948550 2.216651 11697996
9.783120 9.951331 0.519929 11697996
10.552449 10.158619 1.804801 11697996
11.200027 11.013843 0.287620 11697996
8.948194 10.442718 2.819221 11697996
10.383636 10.058104 1.548469 11697996
10.581370 10.343063 0.778861 11697996
10.550735 9.684046 3.587701 11697996
11.070772 8.844636 0.320285 11697996
11.030514 11.206282 -0.005655 11697996
10.734598 9.772857 3.576923 11697996
9.680120 10.824570 3.345791 11697996
9.527717 9.438988 2.237369 11697996
10.525200 9.614087 1.601886 11697996
11.027967 9.435928 1.921016 11697996
10.406231 9.995615 0.544918 11697996
9.782907 11.158891 2.404480 11697996
11.109136 8.912552 2.336565 11697996
10.986950 9.633904 2.507858 11697996
9.744740 10.906507 2.653567 11697996
9.116903 10.334431 0.929648 11697996
9.268218 8.859722 2.208001 11697996
11.063638 9.854580 3.019795 11697996
9.445916 10.884076 1.293650 11697996
10.254438 9.234056 1.476496 11697996
9.620263 10.444084 1.971206 11697996
9.710528 9.146288 2.235692 11697996
9.198200 9.132876 0.672023 11697996
10.547085 11.114927 3.473786 11697996
9.893854 9.780371 2.140300 11697996
10.172370 9.151278 3.351416 11697996
10.432276 10.103794 1.526173 11697996
9.228426 10.853397 1.171285 11697996
9.637364 10.213549 3.955624 11697996
9.766918 8.969245 3.521299 11697996
8.962962 9.506943 0.255931 11697996
10.632368 10.452567 0.129084 11697996
9.319225 10.500651 1.896227 11697996
10.497891 8.976893 2.451802 11697996
10.483879 10.310798 0.630717 11697996
9.943127 10.086283 3.666034 11697996
9.752537 9.717123 0.621291 11697996
11.225362 10.514252 2.858082 11697996
9.668778 10.631614 1.943055 11697996
9.158480 10.860663 3.772660 11697996
9.271231 11.053884 1.243699 11697996
11.114099 11.149510 3.837366 11697996
10.385307 10.205924 2.405734 11697996
9.900390 10.111296 3.600002 11697996
9.102225 9.106811 1.808548 11697996
9.562387 9.934418 3.263251 11697996
10.942499 9.275286 0.142145 11697996
11.056599 9.198952 0.647413 11697996
9.783629 11.090336 2.593137 11697996
11.016541 9.351439 1.462437 11697996
9.290370 9.896488 2.550624 11697996
11.216647 11.141980 0.903161 11697996
11.202364 10.581146 1.823828 11697996
10.371483 8.846972 3.728939 11697996
9.305243 9.750445 3.129526 11697996
10.348433 9.026320 0.870709 11697996
9.606961 9.471608 0.032051 11697996
10.082268 8.890122 3.173573 11697996
10.793527 10.387557 3.079512 11697996
8.752522 9.111615 3.478944 11697996
10.018636 9.562605 1.103790 11697996
10.338775 9.435507 2.332929 11697996
11.122828 9.602934 3.433359 11697996
9.868106 11.180830 3.223612 11697996
11.014680 10.558978 2.654364 11697996
10.671356 10.414863 0.637893 11697996
9.024455 9.133022 2.299367 11697996
10.177499 9.544170 3.771004 11697996
10.806877 10.701847 0.700230 11697996
11.241181 8.843472 0.935688 11697996
9.304341 9.561733 3.776423 11697996
11.229639 10.241874 1.596647 11697996
10.922194 9.397702 1.653309 11697996
10.993248 10.183276 2.387193 11697996
8.879286 10.786019 1.241477 11697996
9.653031 9.861130 0.360780 11697996
10.297888 9.000962 3.229988 11697996
9.559628 8.831939 1.272594 11697996
11.014143 9.104932 1.156128 11697996
10.330109 8.829349 0.392749 11697996
9.849099 9.667325 2.805912 11697996
10.831656 9.754242 3.947104 11697996
9.048738 9.307996 3.408797 11697996
10.059278 10.843921 0.748406 11697996
10.129871 8.792901 3.078194 11697996
10.863289 9.265635 3.633367 11697996
9.513452 9.764054 3.422596 11697996
9.474731 8.975244 3.451031 11697996
10.129682 9.193880 1.273707 11697996
10.567763 9.060970 1.777578 11697996
9.830087 10.863233 3.651092 11697996
11.103388 9.663544 3.523786 11697996
9.788728 10.912762 3.271286 11697996
10.067124 9.509870 0.566967 11697996
9.189239 9.295219 2.881307 11697996
10.436610 8.966511 3.145653 11697996
9.857828 9.536598 0.411711 11697996
8.805364 10.862498 3.312968 11697996
10.309628 9.626213 0.723485 11697996
10.480284 10.883136 1.668504 11697996
9.764951 10.736434 1.938870 11697996
9.255111 10.195657 2.055343 11697996
10.548825 10.687347 3.643610 11697996
10.097279 9.875857 3.149774 11697996
9.928754 9.655074 1.594137 11697996
9.339347 9.859291 3.469689 11697996
9.900841 11.161950 3.811912 11697996
8.978539 11.176785 0.969308 11697996
10.569656 10.073298 0.144122 11697996
10.519011 10.302537 1.768643 11697996
10.109587 9.093095 0.804434 11697996
9.399161 9.556395 2.580274 11697996
11.090403 10.972588 1.022249 11697996
10.637908 11.132701 1.059253 11697996
9.602679 10.413739 1.019956 11697996
8.862366 11.215345 1.639215 11697996
10.181072 10.062501 2.961201 11697996
8.963195 9.265534 1.997795 11697996
11.025396 9.007909 0.614217 11697996
9.809209 8.769296 0.759393 11697996
9.159758 10.418467 1.656690 11697996
10.848028 9.249339 0.599564 11697996
9.831877 9.603017 2.766957 11697996
9.736760 10.206069 0.238801 11697996
11.002471 10.443101 0.392518 11697996
9.504415 10.127330 1.543397 11697996
8.757104 11.059551 2.505167 11697996
10.323357 9.476151 0.527187 11697996
10.649283 8.870181 0.217588 11697996
11.222430 9.396620 2.634710 11697996
9.504481 10.743738 1.230195 11697996
10.213869 9.049047 1.013178 11697996
10.754766 10.802446 1.723251 11697996
9.529668 10.011328 2.360531 11697996
10.345023 9.131778 0.499874 11697996
10.615829 9.039755 2.445152 11697996
10.731187 10.138153 1.197649 11697996
9.361931 9.216525 1.757705 11697996
9.877482 10.270587 2.024540 11697996
9.155531 9.051082 1.662063 11697996
9.609158 8.969678 2.459710 11697996
9.502434 11.236959 1.601430 11697996
11.189374 9.621007 1.522876 11697996
9.655227 8.874891 0.396939 11697996
10.322532 10.648907 2.672831 11697996
11.001152 8.777972 2.003975 11697996
9.539781 9.045227 0.097088 11697996
10.012096 10.336337 2.656771 11697996
9.428759 9.673058 1.608386 11697996
9.375836 10.677503 2.872890 11697996
9.889778 9.764728 1.039501 11697996
9.145242 10.273025 2.844146 11697996
9.419002 10.660583 0.806501 11697996
10.055554 9.763162 3.929660 11697996
9.105599 10.569382 2.227483 11697996
8.823669 8.923170 1.150348 11697996
10.616759 9.180380 1.315744 11697996
10.039536 9.706788 2.248244 11697996
11.116985 10.346731 0.253423 11697996
11.091766 10.331961 3.525389 11697996
9.083074 10.210999 1.823201 11697996
9.915124 10.880093 3.232752 11697996
10.712743 10.671300 1.164102 11697996
11.184481 10.123405 1.927346 11697996
10.906488 11.233972 1.330106 11697996
10.727380 11.074506 3.765793 11697996
9.865004 10.259730 1.972161 11697996
11.235376 10.405891 0.444268 11697996
10.490399 10.039810 2.084070 11697996
10.117210 9.772645 3.673563 11697996
9.390065 10.686245 2.050482 11697996
9.568812 10.319955 2.667415 11697996
9.830207 9.619583 0.919245 11697996
9.092487 8.890380 3.322319 11697996
9.517786 8.953902 0.023789 11697996
10.776074 10.037071 2.266773 11697996
9.476904 9.150867 3.825526 11697996
9.969442 9.885133 2.149073 11697996
9.395735 10.527328 0.410892 11697996
9.672737 10.212146 2.088969 11697996
9.373218 11.126258 3.845865 11697996
9.906190 9.967690 2.246938 11697996
8.973470 10.304879 0.922122 11697996
9.602298 9.605420 2.333944 11697996
11.115587 10.473550 1.149644 11697996
10.883000 10.413720 1.600269 11697996
9.375208 9.364657 0.086908 11697996
9.928556 10.025052 1.229997 11697996
11.193509 9.844701 1.131446 11697996
9.788254 9.315820 -0.009583 11697996
9.049080 9.518043 1.797812 11697996
10.862135 9.467589 0.653299 11697996
9.650009 10.005233 1.427641 11697996
9.701980 10.819311 0.262142 11697996
11.181813 10.316012 3.972653 11697996
8.763399 9.741798 2.594787 11697996
10.017654 10.761540 3.176571 11697996
10.093806 10.000527 2.305110 11697996
11.141033 9.835681 2.123346 11697996
9.804761 10.196552 3.481353 11697996
8.970983 9.189150 2.370888 11697996
9.672646 10.393304 2.820918 11697996
10.537220 9.848620 3.828766 11697996
10.551353 9.580341 2.838085 11697996
9.008768 9.502104 2.934664 11697996
10.841264 11.248627 2.816464 11697996
11.221581 10.693662 0.457412 11697996
11.242065 8.754053 1.768158 11697996
9.803790 9.940391 2.491042 11697996
10.452999 8.914323 3.628914 11697996
10.701718 9.617119 1.681052 11697996
10.288428 8.921537 1.238216 11697996
9.709743 10.463954 3.799664 11697996
10.589070 10.460480 1.323538 11697996
10.159845 10.302966 3.612350 11697996
10.139600 9.201624 0.612582 11697996
9.825732 9.096952 1.059498 11697996
10.566386 10.659992 1.758887 11697996
9.961865 10.158464 0.457999 11697996
10.078950 10.412509 3.726403 11697996
10.222659 9.646253 1.565781 11697996
11.060781 9.479772 3.314169 11697996
9.791249 8.777539 3.531771 11697996
9.404638 9.823372 1.259472 11697996
8.910525 8.948278 3.424375 11697996
10.508185 10.514702 1.277823 11697996
10.217584 10.115037 0.199617 11697996
9.031885 10.437858 2.965718 11697996
10.739925 8.834332 1.099400 11697996
8.964037 9.051385 3.291009 11697996
9.745467 11.159912 2.919000 11697996
9.783642 10.915100 0.184560 11697996
11.040238 9.506028 2.034736 11697996
10.522167 10.119015 3.015636 11697996
9.226585 10.579052 2.789603 11697996
11.141057 10.886340 0.190318 11697996
10.101206 9.165042 1.893611 11697996
10.644767 10.284527 2.286485 11697996
11.214453 9.877342 3.107923 11697996
9.039852 10.066193 2.487957 11697996
10.958379 9.087305 1.228920 11697996
11.124956 10.785839 0.149620 11697996
10.402668 10.975676 3.277765 11697996
10.678727 10.823502 3.073436 11697996
9.504643 9.330160 1.062437 11697996
8.889485 9.893643 2.713313 11697996
10.012033 10.574100 3.684748 11697996
10.307627 10.478956 0.936058 11697996
10.285951 9.415117 2.781383 11697996
11.155149 10.988865 2.723112 11697996
9.573364 8.812486 1.110234 11697996
9.461986 9.588773 1.507442 11697996
10.156588 11.132251 2.545359 11697996
9.130037 9.280209 1.713272 11697996
9.372401 8.964779 2.931651 11697996
9.703048 9.717484 2.013087 11697996
10.711852 11.080985 3.700898 11697996
11.112217 10.377695 3.784534 11697996
10.966990 9.180368 0.008087 11697996
11.095757 10.440604 3.194824 11697996
8.965726 9.008823 1.221123 11697996
8.926605 10.289609 3.091243 11697996
9.003922 9.539133 0.990839 11697996
9.293169 9.575062 2.657150 11697996
10.066274 9.157413 3.159483 11697996
8.783743 8.956927 0.458784 11697996
10.170812 10.328358 1.288614 11697996
8.809078 10.269057 0.911341 11697996
9.476390 10.140407 0.402168 11697996
9.602995 9.871397 1.770941 11697996
9.316761 9.159595 1.350809 11697996
9.992360 9.025122 0.943382 11697996
9.371253 9.548883 0.398189 11697996
9.304858 9.599782 0.288890 11697996
9.546213 10.350099 1.888778 11697996
9.069640 9.846928 3.709671 11697996
9.466681 10.006930 0.550930 11697996
9.800992 10.350953 0.678682 11697996
10.802561 11.199597 1.681471 11697996
11.039078 10.266735 0.742510 11697996
9.329975 9.096031 2.487549 11697996
10.048066 9.444458 1.654153 11697996
9.510557 10.082042 2.788390 11697996
10.089886 10.564154 2.632527 11697996
10.933148 9.728834 2.191494 11697996
10.839925 9.555451 0.707196 11697996
9.479921 11.218814 3.656527 11697996
11.184582 10.297937 0.544362 11697996
10.956120 10.524022 3.557487 11697996
11.007197 10.140682 2.393657 11697996
9.416713 8.816554 1.784283 11697996
10.413159 11.091524 0.524707 11697996
9.709834 9.024639 2.008631 11697996
9.658547 9.554120 2.036679 11697996
10.284255 9.637589 1.231704 11697996
9.990297 10.527218 1.311256 11697996
10.380248 9.656067 3.513122 11697996
11.223025 8.890226 0.803560 11697996
10.184798 9.162323 2.843517 11697996
9.538321 9.293037 2.127764 11697996
8.749443 9.381488 0.380925 11697996
9.708668 9.493959 0.660625 11697996
9.053682 10.139492 1.871768 11697996
11.071009 10.261156 1.530936 11697996
9.368863 10.079324 0.692049 11697996
10.112407 8.791570 0.048054 11697996
9.984563 10.477205 3.009206 11697996
9.164320 9.261447 2.517777 11697996
9.326924 9.312603 0.493332 11697996
10.788920 11.151955 3.952040 11697996
9.198406 10.293331 1.531342 11697996
9.903458 9.472241 3.542033 11697996
8.773173 9.402098 2.248119 11697996
10.343079 9.659984 2.786620 11697996
9.767655 11.224706 3.789687 11697996
10.367158 10.579778 3.021446 11697996
10.578657 10.963595 3.986372 11697996
11.198243 9.085013 2.755252 11697996
9.838488 9.396772 2.459563 11697996
10.305187 10.752963 3.255494 11697996
9.492914 10.217666 3.517911 11697996
9.276748 9.928454 0.088108 11697996
10.255507 10.813171 1.686514 11697996
10.730303 10.247867 1.973874 11697996
10.921130 10.651722 1.036506 11697996
10.139679 8.881184 1.842612 11697996
10.000841 10.303794 1.229416 11697996
11.108841 9.653460 1.913079 11697996
10.438090 9.449658 3.619838 11697996
9.950759 10.088697 0.926315 11697996
10.829575 10.935050 1.222156 11697996
10.242302 9.812480 2.580044 11697996
9.710092 9.209982 3.353816 11697996
9.730804 10.905057 2.227567 11697996
9.456397 10.419192 0.835378 11697996
10.891725 10.639985 3.417165 11697996
9.265413 9.622758 2.344909 11697996
9.023722 10.776499 0.008127 11697996
9.408821 10.911440 1.952924 11697996
9.885489 8.826547 3.059203 11697996
8.849800 9.806478 2.034803 11697996
8.972071 10.634618 0.337851 11697996
8.803870 9.302085 1.221758 11697996
10.864923 9.366552 1.073578 11697996
10.881989 10.457633 3.020220 11697996
9.057009 10.831131 3.826920 11697996
10.928174 9.482271 2.982460 11697996
10.875858 8.758260 0.342347 11697996
9.004790 10.359765 1.030631 11697996
10.449728 8.822927 1.917465 11697996
9.362053 9.324069 0.063432 11697996
9.571508 9.929358 1.251695 11697996
10.710663 8.916407 1.074394 11697996
9.099522 10.541114 0.961760 11697996
10.547108 10.171665 0.400635 11697996
11.027889 9.318190 1.899252 11697996
9.038082 9.844891 2.003615 11697996
10.113074 11.089167 2.746213 11697996
8.853179 9.202685 0.636547 11697996
9.542877 10.843956 3.751870 11697996
9.256100 9.641404 2.217101 11697996
9.255692 10.477897 0.181888 11697996
10.714437 9.863946 2.508480 11697996
9.544484 8.841764 3.740942 11697996
10.965220 10.053962 1.458920 11697996
9.079080 10.376926 1.670534 11697996
9.334042 9.395920 2.063093 11697996
10.252441 8.821131 3.911048 11697996
10.047571 9.201880 3.299106 11697996
10.712410 10.083078 3.232027 11697996
11.230954 10.645696 3.797455 11697996
9.290129 9.274529 2.149603 11697996
9.534483 10.953641 3.261903 11697996
10.059291 9.354515 0.468142 11697996
9.492267 10.440107 2.347312 11697996
10.953260 8.886006 1.127785 11697996
9.663857 10.365577 1.551659 11697996
10.496532 10.430737 1.558822 11697996
9.885566 9.085679 2.532957 11697996
9.316378 10.533609 2.091277 11697996
9.206116 10.043195 0.682912 11697996
9.621284 10.456409 3.778133 11697996
10.331260 9.842490 3.623042 11697996
9.979398 9.298429 2.032707 11697996
10.614254 9.786971 0.430005 11697996
11.253490 10.549052 3.178497 11697996
10.698647 9.614463 3.227719 11697996
10.270486 10.377021 0.761622 11697996
9.611591 10.357162 2.653901 11697996
11.006100 11.141442 3.949590 11697996
11.107552 11.181984 2.031833 11697996
9.206697 9.010489 0.237586 11697996
9.735157 9.770332 3.590259 11697996
9.302496 11.097220 1.606618 11697996
8.893723 10.576222 0.424057 11697996
11.167171 11.020418 2.712863 11697996
8.874782 10.692261 1.588694 11697996
10.633784 9.431146 1.041614 11697996
10.851383 9.597257 3.151339 11697996
10.167575 10.215191 0.969039 11697996
9.104714 9.676625 2.357112 11697996
11.070840 9.117987 0.535793 11697996
9.367600 8.814419 2.182169 11697996
10.914643 10.879883 2.325858 11697996
10.422383 10.735619 3.777838 11697996
9.462630 10.920282 0.983477 11697996
9.263826 10.220093 3.510627 11697996
10.374094 9.446542 2.905794 11697996
10.590703 10.448621 3.613336 11697996
8.859962 11.168580 1.226636 11697996
9.561641 10.227169 1.088302 11697996
9.624253 9.986769 3.167720 11697996
10.704806 10.360278 3.214659 11697996
10.119648 9.550085 0.170098 11697996
9.072450 8.896415 0.043174 11697996
9.498553 10.226456 1.419671 11697996
10.631825 9.571207 3.553463 11697996
9.119997 11.183722 0.547061 11697996
9.550207 11.140618 0.469031 11697996
10.686923 8.855667 1.542338 11697996
10.393044 10.825770 2.164918 11697996
11.234676 10.879221 3.046973 11697996
11.153749 8.879301 2.603707 11697996
9.903839 10.784187 3.890180 11697996
9.467155 10.402229 3.932869 11697996
9.116108 9.196531 3.188265 11697996
9.127074 10.556448 3.402802 11697996
10.946112 11.063053 2.837838 11697996
9.601624 10.446956 2.071513 11697996
9.406148 9.981213 3.733441 11697996
10.957217 9.730921 3.794631 11697996
9.614837 9.057298 0.436796 11697996
9.088832 9.183676 0.580988 11697996
9.464032 9.046926 1.371791 11697996
9.744596 10.367984 3.272535 11697996
10.819921 9.321625 0.737825 11697996
9.046863 10.164477 1.983006 11697996
9.535778 10.537527 1.114444 11697996
10.119208 9.242290 2.752702 11697996
9.462915 10.211515 -0.002478 11697996
9.385589 9.170370 0.232366 11697996
10.839925 9.866150 1.487331 11697996
9.859117 10.756238 0.151718 11697996
8.993688 9.708795 0.880120 11697996
10.178776 9.415613 2.067192 11697996
10.883553 9.253366 1.039146 11697996
8.865067 10.233894 1.874059 11697996
8.843475 10.967411 3.562314 11697996
10.613651 9.082746 2.369937 11697996
9.326890 10.923363 1.833822 11697996
10.594297 9.921414 0.521977 11697996
9.493765 9.144409 3.730985 11697996
10.313920 10.289415 0.036906 11697996
10.718401 9.017796 3.704852 11697996
9.137728 11.123178 3.971838 11697996
10.258530 9.279924 1.935495 11697996
8.841476 9.009409 3.698488 11697996
10.309365 9.245414 2.662552 11697996
9.761620 10.022375 3.904144 11697996
8.774878 9.804503 1.509531 11697996
9.259917 10.473416 2.121606 11697996
9.650510 10.670526 2.764622 11697996
9.295306 9.818817 2.125859 11697996
8.770264 10.249763 3.234487 11697996
9.304584 10.953486 0.123113 11697996
8.822705 9.450541 2.475351 11697996
10.859436 9.796397 1.543924 11697996
10.233081 9.787171 1.784913 11697996
10.449814 10.062457 2.340991 11697996
10.115078 9.200133 2.934577 11697996
10.114649 10.343991 3.503959 11697996
9.147145 10.086751 0.993999 11697996
9.404141 8.843344 2.611009 11697996
11.244279 11.133718 1.214589 11697996
9.059740 10.187922 2.666525 11697996
9.653151 9.705202 2.754532 11697996
9.375017 9.790760 1.693335 11697996
9.361522 10.839231 3.595299 11697996
10.677588 8.848078 2.781988 11697996
10.160423 9.328497 1.612146 11697996
10.926777 10.721780 3.830540 11697996
9.080179 9.421897 3.335593 11697996
10.063221 9.651397 0.869592 11697996
9.227925 10.955250 0.425187 11697996
9.008170 11.004746 1.986481 11697996
10.943601 10.804973 1.330021 11697996
9.881599 9.242922 3.199559 11697996
10.399803 9.838170 1.376158 11697996
10.311831 9.894157 3.886671 11697996
9.449586 9.093563 3.580116 11697996
9.784476 10.449841 3.222645 11697996
8.979176 9.785504 2.799625 11697996
10.356675 10.991651 0.416965 11697996
10.122239 10.968783 3.008657 11697996
9.022788 9.506406 0.240773 11697996
8.740443 10.148020 1.000429 11697996
9.681474 10.671282 0.573903 11697996
10.378768 10.171262 3.306252 11697996
9.130834 10.245170 3.655494 11697996
11.230432 10.319639 2.516470 11697996
10.907768 10.023349 2.849589 11697996
10.157736 10.001385 0.132938 11697996
10.507405 9.446990 1.639807 11697996
9.072759 9.141411 0.522998 11697996
8.890183 10.889420 0.513684 11697996
9.100740 10.214983 2.224338 11697996
9.798414 10.634403 2.044563 11697996
10.910303 9.381289 3.391863 11697996
8.984974 10.769077 2.026097 11697996
8.844831 10.123271 2.769255 11697996
9.747688 10.053324 0.620710 11697996
10.747896 10.695954 0.479821 11697996
9.350194 10.094443 3.194249 11697996
8.766228 8.969673 1.699574 11697996
9.628152 9.734324 1.449568 11697996
9.587873 11.118352 2.471082 11697996
11.069055 9.878226 2.821877 11697996
9.444995 9.429779 2.582857 11697996
9.315954 9.610740 1.678476 11697996
10.534264 11.181823 0.391402 11697996
9.266436 8.927363 3.408221 11697996
10.613094 9.782299 2.276194 11697996
9.972461 10.677846 1.620910 11697996
9.814018 11.137274 2.150450 11697996
10.627289 11.008221 2.290471 11697996
9.723619 11.110918 3.420789 11697996
10.136280 8.929852 0.101420 11697996
9.761242 10.479422 1.657836 11697996
8.843322 9.772637 2.777013 11697996
10.133947 9.907863 2.355753 11697996
10.952929 9.917665 1.856176 11697996
10.130873 10.690267 1.085691 11697996
9.270128 9.022265 3.211522 11697996
9.603918 9.653110 0.801950 11697996
9.794396 10.169974 1.001291 11697996
10.007179 9.910832 2.440065 11697996
11.222801 10.525897 3.338290 11697996
9.649991 9.978310 1.913803 11697996
10.649650 8.846672 0.232384 11697996
11.176790 9.344762 0.009514 11697996
11.125680 9.323209 0.849400 11697996
9.724697 10.330830 1.570045 11697996
10.407916 8.953464 0.657784 11697996
11.135577 8.884065 2.767820 11697996
11.214878 9.413809 3.264890 11697996
11.085821 9.193872 2.100930 11697996
11.186147 10.766709 3.923230 11697996
10.568823 9.686983 2.563555 11697996
10.125445 10.133169 0.343287 11697996
10.802649 10.479300 1.387565 11697996
9.526023 8.819778 1.520615 11697996
9.326709 9.935191 3.421626 11697996
10.735596 10.491889 2.114969 11697996
10.899056 8.835861 2.281277 11697996
9.050332 8.883597 3.384796 11697996
10.215387 10.765729 0.411515 11697996
11.114555 10.925712 3.486006 11697996
10.645350 10.415506 3.055423 11697996
9.330319 9.992284 3.386201 11697996
10.403542 11.091425 0.761858 11697996
10.075350 9.384966 0.879102 11697996
10.577973 10.374213 1.679044 11697996
10.027076 10.206958 3.384972 11697996
9.598815 10.022869 2.749304 11697996
10.507554 9.197737 1.167696 11697996
9.968601 9.565002 1.771772 11697996
10.768262 10.221728 1.762788 11697996
10.695932 11.025320 0.918892 11697996
11.090692 9.861450 2.080921 11697996
10.500758 10.153973 1.552489 11697996
11.042610 9.271515 3.897402 11697996
9.181248 9.734831 2.574243 11697996
10.537753 10.303185 2.297426 11697996
9.595644 10.818745 1.739848 11697996
10.527118 9.516509 3.955826 11697996
10.310682 10.323955 1.567253 11697996
9.279175 9.776141 0.334634 11697996
9.032478 10.658614 2.507056 11697996
11.070279 10.986471 2.992329 11697996
9.274270 9.522679 0.105211 11697996
9.390773 10.518031 2.606731 11697996
9.270307 10.069132 -0.005394 11697996
10.375356 9.621793 0.296228 11697996
9.926738 11.026278 1.145417 11697996
10.080360 9.878747 0.993413 11697996
9.964531 9.870944 1.774578 11697996
8.908442 9.064497 0.522947 11697996
10.189290 10.341525 3.606779 11697996
10.803875 10.435664 1.549524 11697996
9.287617 10.549100 3.021233 11697996
8.980380 9.326747 3.941311 11697996
9.283472 9.348107 3.745300 11697996
10.493878 10.329681 0.130648 11697996
11.188942 11.071933 2.789040 11697996
10.156702 10.415241 3.992665 11697996
9.016196 11.029593 2.421705 11697996
9.977459 10.596726 1.083062 11697996
10.699520 10.436370 0.963459 11697996
10.316131 9.891088 1.949811 11697996
9.232769 9.838733 3.113354 11697996
10.848696 9.972372 1.242820 11697996
11.235242 8.814245 0.152297 11697996
9.335591 9.554906 1.865942 11697996
9.480374 10.236236 3.939008 11697996
10.608388 10.933197 2.758243 11697996
9.786334 9.426332 2.241827 11697996
11.175856 10.719552 1.621373 11697996
9.092139 10.834150 0.247472 11697996
9.668729 9.730736 0.142913 11697996
9.719338 9.003076 2.276865 11697996
9.818686 11.049959 3.559448 11697996
10.649377 9.147444 3.462113 11697996
9.435469 10.143410 1.883392 11697996
9.637788 9.873096 3.402261 11697996
10.219984 9.579174 3.165496 11697996
10.870763 8.769468 0.616417 11697996
10.169301 9.778901 1.644373 11697996
9.463656 9.005257 3.379678 11697996
10.104200 10.806785 2.301901 11697996
10.145308 9.872287 3.369977 11697996
9.775658 9.054830 3.014961 11697996
11.164361 9.568303 1.225394 11697996
9.184712 9.616473 2.751238 11697996
9.131271 10.076626 1.837239 11697996
11.037210 10.283367 3.425887 11697996
9.077961 9.597792 0.216419 11697996
10.621449 9.785745 1.383665 11697996
11.006918 10.121049 0.058695 11697996
10.432599 10.185955 2.330750 11697996
10.417439 10.584517 2.598534 11697996
10.941615 9.780704 3.776924 11697996
9.447281 10.753148 3.129074 11697996
8.815459 9.804629 3.758760 11697996
10.412483 9.047661 0.412261 11697996
8.889627 9.607139 0.099125 11697996
10.960956 9.913657 1.938519 11697996
10.395988 10.319233 1.401245 11697996
9.028150 9.157789 1.533940 11697996
11.047860 8.958040 1.393731 11697996
9.226916 10.492561 1.189818 11697996
9.565946 11.032374 0.777196 11697996
10.627349 10.973988 2.849409 11697996
11.155641 10.754140 0.134614 11697996
9.146813 8.879051 0.247114 11697996
9.905227 9.980959 3.834699 11697996
10.445628 9.541368 2.696526 11697996
11.060411 10.888761 2.933079 11697996
9.997067 10.762255 0.078629 11697996
10.295809 9.047338 0.271293 11697996
10.438226 10.961172 0.999233 11697996
8.759960 9.414265 0.765643 11697996
9.323097 11.059738 1.232311 11697996
10.721251 8.987934 1.555593 11697996
10.003441 10.636491 0.404201 11697996
10.708681 9.815633 1.717558 11697996
10.231671 10.068159 3.897123 11697996
10.624456 9.391979 3.061516 11697996
10.136862 11.145299 0.299924 11697996
8.989156 9.857696 1.726396 11697996
9.579609 10.131801 3.784281 11697996
9.752533 10.796968 1.283642 11697996
11.015218 11.041754 0.408074 11697996
10.232686 9.190933 2.149222 11697996
8.769247 9.154561 1.824043 11697996
8.742365 9.201225 1.239265 11697996
8.844881 9.562649 2.098630 11697996
9.316038 10.815244 1.791553 11697996
9.045194 10.278756 2.080091 11697996
8.976572 10.643274 1.977684 11697996
9.137354 10.557431 0.332543 11697996
10.105366 11.175424 2.696570 11697996
9.294789 10.151505 3.519664 11697996
11.087612 10.573481 2.620568 11697996
10.724884 9.779286 0.684988 11697996
9.627216 8.993480 2.012977 11697996
10.355331 10.260431 3.016570 11697996
10.208055 9.191704 1.921049 11697996
11.219397 9.834660 1.962929 11697996
11.087431 9.237628 2.210362 11697996
9.985554 11.051978 1.763799 11697996
11.207892 9.501578 1.496738 11697996
9.947552 9.149123 1.393564 11697996
10.690889 10.554904 3.136396 11697996
11.106053 11.170821 3.791918 11697996
9.945610 9.204167 3.635432 11697996
11.172283 11.136194 0.622702 11697996
9.140722 9.220525 3.882539 11697996
10.837580 10.260995 2.576462 11697996
10.154494 10.188230 0.365006 11697996
9.788342 10.229048 0.616268 11697996
10.365207 8.751952 0.304459 11697996
10.438678 9.621285 2.701536 11697996
9.441162 9.173189 2.364966 11697996
8.750663 10.455701 3.918008 11697996
10.882976 10.100890 2.854474 11697996
10.563877 11.017811 3.494344 11697996
9.055278 9.727867 3.653445 11697996
8.788839 9.458079 0.856867 11697996
9.317430 10.825335 2.041913 11697996
10.164547 9.498350 2.915806 11697996
9.659949 9.793495 0.637463 11697996
11.080831 9.794643 2.112264 11697996
10.096364 10.342638 2.285298 11697996
10.776017 11.126042 1.837429 11697996
10.197210 9.676025 3.244226 11697996
8.836005 9.207131 0.257254 11697996
10.778320 9.805437 3.125710 11697996
11.174591 8.814792 1.012487 11697996
9.698227 10.487334 2.731420 11697996
10.906247 10.536423 1.840461 11697996
9.833385 10.791286 3.968661 11697996
10.687461 10.436854 0.127452 11697996
11.047458 8.984076 1.006009 11697996
10.171663 9.176269 0.960196 11697996
10.205032 11.164920 2.405407 11697996
9.522667 11.026809 0.760185 11697996
9.565256 10.620235 0.779230 11697996
9.021401 8.956625 1.453291 11697996
10.739035 9.783525 2.748157 11697996
10.457637 9.988681 2.184765 11697996
10.564716 8.845239 2.511321 11697996
9.025475 11.160562 1.056075 11697996
9.613892 10.145495 3.552053 11697996
9.652509 10.909730 2.902005 11697996
10.586625 9.166109 0.959890 11697996
8.843782 9.155835 1.154901 11697996
11.073045 10.699686 1.694458 11697996
8.905998 9.619593 3.340893 11697996
10.693363 9.118115 2.201799 11697996
10.707419 9.846832 3.846281 11697996
8.861773 9.428187 1.905459 11697996
9.966385 9.276888 1.356382 11697996
10.579361 9.952191 0.759302 11697996
9.541477 10.788616 3.174797 11697996
9.194767 9.573581 3.063822 11697996
10.170845 9.438857 2.904020 11697996
11.231393 9.877166 0.509639 11697996
10.873959 9.472231 0.516616 11697996
10.012580 11.181486 0.824854 11697996
9.591109 9.356032 0.587618 11697996
9.504326 9.575170 3.607852 11697996
9.744959 9.358530 3.506881 11697996
9.848459 9.986583 3.169435 11697996
9.244525 9.793311 2.387149 11697996
9.600422 9.335452 1.786895 11697996
8.800158 9.997994 0.816465 11697996
10.826009 10.542182 0.114983 11697996
8.871033 10.705001 0.355975 11697996
11.110045 11.225792 3.622694 11697996
10.438032 9.246226 1.182406 11697996
10.342626 8.854147 3.459762 11697996
11.166821 11.266918 3.800263 11697996
10.978129 9.779733 1.170358 11697996
11.055457 9.356585 2.860168 11697996
10.044850 10.892718 3.824590 11697996
9.990628 9.962701 2.954480 11697996
10.673395 11.048108 1.460987 11697996
9.913423 10.919931 0.960038 11697996
9.790881 9.636944 2.261251 11697996
10.760446 9.313044 3.268585 11697996
9.463773 9.695215 0.247194 11697996
10.534966 9.111261 2.426311 11697996
8.847597 9.364552 1.312518 11697996
10.558594 9.530570 3.686277 11697996
11.064754 9.074960 1.287451 11697996
10.325858 8.785021 1.702083 11697996
10.909434 10.711818 2.716135 11697996
9.582292 8.994515 1.312834 11697996
8.794752 9.686675 0.404351 11697996
8.848546 9.073221 3.159554 11697996
10.539762 10.731491 2.086604 11697996
10.411932 9.848658 1.388019 11697996
10.378750 8.956495 3.770705 11697996
10.344031 10.723746 2.356832 11697996
11.034979 8.825211 0.149319 11697996
9.038903 9.529016 2.709769 11697996
10.492290 9.754509 2.953442 11697996
10.778394 10.253393 3.120440 11697996
10.410067 8.978724 1.415601 11697996
10.113578 9.658409 2.031772 11697996
9.487675 11.064826 1.939050 11697996
9.755051 9.490215 1.381662 11697996
9.319261 10.507945 3.821389 11697996
10.907069 9.675743 0.670055 11697996
9.776496 10.567245 2.626164 11697996
8.854923 9.859426 1.584365 11697996
10.257486 10.310319 3.751688 11697996
8.786540 9.741514 1.652343 11697996
9.409854 10.189710 1.811888 11697996
9.439829 9.557628 0.046100 11697996
9.887821 10.164790 1.834400 11697996
9.458279 8.734358 2.133597 11697996
9.417325 10.108252 0.422965 11697996
9.291578 8.794754 3.945974 11697996
8.935197 10.392497 2.372368 11697996
9.627160 10.045312 1.669074 11697996
9.284426 9.873734 0.897969 11697996
10.770506 10.808435 1.406680 11697996
11.172971 9.884027 3.200077 11697996
10.538888 10.188241 1.275617 11697996
9.006338 10.617719 3.704636 11697996
10.551489 10.253105 2.709091 11697996
9.688035 9.283369 3.498401 11697996
10.989754 11.126416 0.922172 11697996
10.407581 10.632598 2.587218 11697996
10.187836 10.658349 1.208620 11697996
10.509653 9.500514 2.171254 11697996
9.869775 9.361444 0.055580 11697996
9.579383 10.704391 0.580885 11697996
10.335786 9.265717 0.277290 11697996
9.033648 10.766316 0.480899 11697996
10.389775 10.946808 1.991602 11697996
10.056573 9.061839 2.631130 11697996
10.192180 9.213578 3.759921 11697996
10.836464 9.831325 2.869564 11697996
10.362016 11.142428 1.102371 11697996
10.949352 9.062190 0.507379 11697996
11.130282 10.019583 1.420231 11697996
9.390226 10.224067 3.560925 11697996
9.057892 8.823441 1.254915 11697996
10.369483 10.545239 1.381176 11697996
8.925201 8.910460 3.254308 11697996
10.284158 9.169065 3.906312 11697996
9.101439 10.319944 2.624156 11697996
9.222924 9.812556 0.668043 11697996
9.824580 11.072012 3.321954 11697996
9.016445 10.294020 3.225761 11697996
8.818420 11.264783 2.884984 11697996
9.371489 10.313256 3.572448 11697996
11.132213 11.211641 0.498360 11697996
8.962379 9.274137 0.638486 11697996
10.247705 8.978699 3.655261 11697996
10.432265 11.085971 0.605539 11697996
8.764359 9.837262 3.631380 11697996
10.104424 10.372851 3.558915 11697996
9.585994 10.211579 1.126596 11697996
9.715738 8.775457 3.145522 11697996
10.031240 9.510880 3.113559 11697996
10.545294 9.844770 2.866087 11697996
9.335196 9.027202 1.058658 11697996
10.777105 11.065835 1.604555 11697996
9.940361 9.319094 3.107165 11697996
10.372199 9.446717 1.307465 11697996
10.393356 10.895625 3.311686 11697996
8.819839 9.655442 1.904442 11697996
9.241629 10.808219 3.061830 11697996
9.379724 10.782220 1.289318 11697996
9.292244 9.898578 2.330103 11697996
11.090165 8.993373 0.172532 11697996
10.090359 9.003613 1.877507 11697996
10.708339 9.914374 1.109681 11697996
10.333081 10.152640 0.596562 11697996
10.963283 9.674512 3.076759 11697996
8.875140 10.635299 1.571663 11697996
10.223908 9.635685 3.024244 11697996
9.026483 10.484179 3.383528 11697996
10.245032 10.464604 -0.013649 11697996
9.108625 10.376916 2.146344 11697996
9.835831 10.474122 1.649322 11697996
10.085838 9.860765 1.483522 11697996
10.880092 9.915082 1.307691 11697996
9.476127 8.999339 1.810687 11697996
10.577672 9.214484 2.165335 11697996
11.190218 10.341531 3.103492 11697996
11.199986 9.373172 3.495586 11697996
9.924284 9.051610 1.575124 11697996
10.960749 9.804491 1.090812 11697996
11.238630 10.074361 0.377238 11697996
9.863593 8.777096 2.297577 11697996
10.013897 9.497720 2.352264 11697996
9.977616 10.749387 1.753768 11697996
9.922949 9.978765 2.858699 11697996
9.980475 10.711465 3.792241 11697996
10.713647 9.319376 2.470347 11697996
9.472686 8.930723 0.268763 11697996
9.371213 8.841605 0.496417 11697996
9.062872 10.605264 3.242503 11697996
8.924836 9.526150 3.326682 11697996
10.148612 11.007888 0.104087 11697996
8.743440 10.490782 3.791176 11697996
10.294414 8.825895 3.567135 11697996
9.298416 10.566807 1.798436 11697996
9.437320 10.899517 1.864644 11697996
8.960994 9.918211 0.204370 11697996
10.434439 9.466506 2.742560 11697996
10.482679 9.608635 3.269388 11697996
10.286470 9.752577 0.824592 11697996
9.248182 10.141009 0.248806 11697996
8.803119 10.341149 0.937016 11697996
10.467160 11.252233 3.570781 11697996
9.034519 8.939216 2.868197 11697996
9.546028 10.415696 3.706115 11697996
8.775693 10.068235 2.471956 11697996
10.752623 10.608545 3.395803 11697996
11.015343 11.224644 3.626366 11697996
10.489232 8.819822 0.952371 11697996
8.918079 10.307053 0.051647 11697996
9.100480 9.417505 0.729253 11697996
9.220342 8.906367 0.328474 11697996
9.575016 9.149693 0.238316 11697996
10.879966 10.302417 1.716406 11697996
9.815855 10.243443 3.606898 11697996
9.111954 9.810905 1.798941 11697996
9.915541 9.437395 1.259394 11697996
9.373865 9.143613 1.500229 11697996
10.158915 10.477199 3.066755 11697996
10.134922 9.902834 0.748138 11697996
11.041680 9.123545 1.703351 11697996
8.742981 10.504967 0.243570 11697996
10.421791 11.122277 2.041952 11697996
9.905241 9.553136 1.724925 11697996
11.225226 10.188833 0.775731 11697996
9.823785 9.174271 1.813320 11697996
9.765151 9.646132 2.915545 11697996
10.745946 9.451463 3.014322 11697996
10.553140 8.753413 2.901465 11697996
10.627885 10.595270 2.345687 11697996
9.362196 9.868484 3.214208 11697996
10.389511 10.691085 2.618604 11697996
10.368819 10.528352 2.541400 11697996
8.750715 8.883682 0.507039 11697996
10.173352 9.027914 2.630991 11697996
