# .PCD v0.7 - Point Cloud Data file format
VERSION 0.7
FIELDS x y z rgb
SIZE 4 4 4 4
TYPE F F F U
COUNT 1 1 1 1
WIDTH 1294
HEIGHT 1
VIEWPOINT 0 0 0 1 0 0 0
POINTS 1294
DATA ascii
3.454091 5.542090 0.698898 5033036
3.612890 5.297391 1.217673 5033036
3.938249 5.652346 1.271414 5033036
4.005410 5.526297 1.520612 5033036
3.499140 5.778975 1.294765 5033036
3.689600 5.506179 0.448142 5033036
3.898336 5.900609 0.757235 5033036
3.777999 5.719306 1.212025 5033036
3.994591 5.618629 0.514348 5033036
3.600598 5.836385 0.729333 5033036
3.875328 5.687370 1.101670 5033036
4.085612 5.900867 1.144648 5033036
4.101991 5.799577 1.607668 5033036
3.756094 5.792562 0.591208 5033036
4.025798 5.822315 1.671285 5033036
4.009168 5.403686 1.720504 5033036
3.958536 5.619571 1.139993 5033036
3.928023 5.477726 1.004104 5033036
3.824426 5.283252 0.586285 5033036
3.887382 5.337594 1.316673 5033036
3.571298 5.511298 0.905300 5033036
4.130967 5.741301 0.992560 5033036
3.464289 5.744743 1.360688 5033036
4.112088 5.720684 1.692684 5033036
3.830261 5.348446 0.888419 5033036
4.183594 5.516564 1.469103 5033036
3.870046 5.447257 0.960845 5033036
3.878781 5.771650 1.364594 5033036
4.115610 5.514953 1.625754 5033036
3.597211 5.835688 1.091170 5033036
3.775632 5.369213 1.271984 5033036
3.553262 5.779246 0.270404 5033036
3.600218 5.669400 1.339670 5033036
3.785119 5.369061 0.667336 5033036
3.602068 5.681680 0.361261 5033036
4.005305 5.444441 1.118304 5033036
3.555435 5.633644 0.593411 5033036
3.828341 5.463433 0.368959 5033036
3.647063 5.675444 0.462947 5033036
4.020827 5.857709 0.946547 5033036
4.024807 5.361267 0.326567 5033036
4.099011 5.403322 1.033217 5033036
3.993863 5.891809 1.577223 5033036
3.846930 5.421129 1.249973 5033036
3.658958 5.813259 0.926534 5033036
3.904200 5.876408 1.363653 5033036
3.801154 5.589788 0.800428 5033036
3.911010 5.611001 0.955983 5033036
3.635797 5.644060 0.695446 5033036
4.000732 5.798761 0.544055 5033036
3.715993 5.460593 1.426268 5033036
3.830341 5.903363 1.516819 5033036
3.727143 6.013497 1.524855 5033036
3.863736 5.539606 1.054450 5033036
3.938450 5.973446 1.677963 5033036
4.113616 5.747166 0.640150 5033036
3.833817 5.822881 1.243229 5033036
3.614470 5.522212 0.256475 5033036
4.172043 5.758234 0.462171 5033036
10.369840 10.850286 0.629152 11697996
9.403478 10.480439 0.547311 11697996
10.376758 9.865153 3.128517 11697996
9.883450 10.772430 3.850455 11697996
10.705238 9.963061 0.409942 11697996
8.947982 8.816459 3.327054 11697996
10.567071 10.788571 3.407933 11697996
11.151329 9.751692 1.783038 11697996
10.368791 9.888576 0.656600 11697996
10.946188 10.993385 3.414075 11697996
10.835454 10.957064 3.339233 11697996
11.087337 9.844722 1.149144 11697996
10.620694 10.350960 0.229568 11697996
10.032988 9.070807 1.531288 11697996
8.869040 9.897752 0.223990 11697996
10.257181 10.575911 2.944766 11697996
9.122077 9.892533 1.639977 11697996
10.232847 9.713415 0.582854 11697996
8.823897 8.800301 3.761019 11697996
9.184876 11.093996 3.873467 11697996
9.336400 10.321213 1.016997 11697996
9.301540 9.021957 3.756602 11697996
10.756577 9.287869 2.977551 11697996
10.129893 10.316951 3.358538 11697996
9.012421 10.018233 3.550021 11697996
9.337571 10.740415 1.479417 11697996
10.993213 10.778972 1.949642 11697996
10.269453 9.800349 1.798453 11697996
9.382847 11.120670 3.202860 11697996
8.930668 10.159903 3.928332 11697996
8.820907 10.304838 1.487822 11697996
9.404558 8.804672 0.185793 11697996
9.303417 10.123140 2.613301 11697996
10.724738 9.831326 0.775968 11697996
10.183800 10.759854 0.137761 11697996
9.473714 10.830437 2.774757 11697996
10.089166 9.747762 1.853302 11697996
9.674002 11.192202 3.646991 11697996
9.979399 8.809972 1.748243 11697996
9.286064 9.877223 3.372081 11697996
10.315493 9.613322 2.865399 11697996
10.541402 10.546872 1.475596 11697996
10.702507 8.851065 1.204703 11697996
10.188933 9.677657 3.002602 11697996
9.654961 9.784709 0.853227 11697996
10.732152 10.265622 1.533493 11697996
10.927052 10.345636 2.837518 11697996
10.453024 10.919338 0.936559 11697996
10.557280 11.244685 3.401822 11697996
9.804771 9.840322 2.124604 11697996
8.911798 10.344337 3.493762 11697996
9.560781 9.877944 1.585664 11697996
9.498132 9.299152 3.706350 11697996
10.941985 9.310561 3.591503 11697996
11.209512 9.468602 0.853944 11697996
9.981874 10.182734 2.914964 11697996
10.903830 10.294118 1.031896 11697996
9.745317 10.205239 2.167605 11697996
11.046809 10.393925 2.911071 11697996
9.098135 10.916696 0.029174 11697996
9.105798 8.743236 3.483712 11697996
10.341111 9.744740 3.931346 11697996
9.178713 9.735066 1.161734 11697996
10.752472 10.850835 1.373022 11697996
10.896792 10.323009 3.584663 11697996
10.512383 9.620173 2.885735 11697996
9.150643 9.048639 1.388531 11697996
10.763215 10.061488 2.587320 11697996
10.700542 10.303295 1.635664 11697996
9.700912 11.020427 0.920811 11697996
9.425737 9.702168 3.356080 11697996
11.060922 9.623536 2.021752 11697996
8.857024 8.790906 3.036098 11697996
10.841382 9.961031 1.323593 11697996
9.083460 11.052188 2.115795 11697996
9.821666 9.886173 1.161073 11697996
9.065085 9.394431 0.590013 11697996
10.282255 10.462391 3.022792 11697996
8.931226 10.883518 1.538161 11697996
10.635379 9.414730 0.328039 11697996
9.523437 11.082479 0.948419 11697996
8.765882 10.342521 3.901372 11697996
11.173848 10.376054 2.893855 11697996
10.525820 10.493860 0.051117 11697996
10.338833 10.868377 1.791464 11697996
8.982548 11.131557 0.571887 11697996
9.460835 9.303603 0.227824 11697996
11.081005 9.369919 0.191532 11697996
9.053249 9.607842 1.760190 11697996
9.390553 9.248458 0.016960 11697996
9.711472 10.213336 2.358181 11697996
9.136971 10.039042 3.938582 11697996
9.319622 9.181509 3.927638 11697996
10.462978 11.059798 1.857799 11697996
10.443347 10.550014 2.937777 11697996
10.670026 10.997674 3.191746 11697996
9.602490 11.063777 0.527083 11697996
9.809857 9.541396 0.623466 11697996
11.039824 9.819439 1.302496 11697996
8.832116 9.761003 0.351117 11697996
10.299294 9.014329 2.346126 11697996
9.246395 11.089073 2.041201 11697996
10.723481 10.959841 1.142546 11697996
10.728804 9.838573 2.788279 11697996
10.129286 10.744864 1.636266 11697996
9.621227 11.219361 2.110863 11697996
10.474304 9.831543 0.553242 11697996
9.655543 11.034703 0.410392 11697996
11.062762 10.399568 0.203421 11697996
9.940055 8.898334 2.394954 11697996
9.605624 10.288877 3.515611 11697996
9.706917 9.401268 3.180747 11697996
10.324190 9.648008 0.934397 11697996
10.143478 9.680048 3.087483 11697996
9.033921 9.789909 1.557116 11697996
9.557811 8.920503 1.854659 11697996
10.238219 9.608321 2.373152 11697996
10.573316 10.331570 3.396644 11697996
11.036105 10.129005 0.272326 11697996
10.205491 8.765847 1.853651 11697996
10.754056 11.066553 1.139645 11697996
9.905121 9.294522 0.331016 11697996
9.139322 8.808078 0.375369 11697996
9.631423 10.107754 1.097712 11697996
11.174732 10.920930 2.079993 11697996
9.782587 10.346304 3.626743 11697996
9.824829 9.653733 3.589821 11697996
10.388034 9.543036 1.033201 11697996
8.768848 10.532446 3.561458 11697996
10.478596 10.194198 3.877425 11697996
10.095813 9.846863 0.332423 11697996
9.069853 9.498858 2.970212 11697996
9.785198 9.527995 2.333273 11697996
9.839300 10.272376 2.195382 11697996
10.228643 9.230537 1.078982 11697996
11.068352 9.177614 0.577473 11697996
10.602442 9.746840 1.616710 11697996
10.767723 11.143900 1.037264 11697996
9.923406 10.201660 3.659485 11697996
10.140512 10.870807 1.431703 11697996
9.575680 8.917389 3.383786 11697996
9.761509 10.841903 3.060449 11697996
9.360161 10.017793 3.981804 11697996
10.817825 9.718984 1.435923 11697996
10.508310 10.425835 3.627215 11697996
9.417380 10.230404 0.869441 11697996
10.014874 9.058739 3.064002 11697996
10.651299 9.070992 1.825686 11697996
9.382520 10.999998 2.330037 11697996
10.858118 11.024737 0.537819 11697996
9.450355 9.644142 3.047451 11697996
9.001157 9.360459 2.338012 11697996
10.130908 9.011933 3.709967 11697996
9.101933 10.824119 1.630970 11697996
10.891636 10.007843 1.432192 11697996
9.230099 9.149340 2.068386 11697996
11.277631 9.291368 2.079205 11697996
9.113516 11.180322 1.246741 11697996
10.147251 9.971823 1.641354 11697996
9.130248 10.507562 1.238337 11697996
8.845233 9.431266 3.018480 11697996
10.801758 11.091069 2.423207 11697996
10.493044 10.922352 1.098809 11697996
9.160679 8.972858 3.919349 11697996
11.217037 8.801960 3.027123 11697996
9.127943 9.601380 2.017282 11697996
9.173395 9.968885 1.343203 11697996
9.924925 8.920504 1.619269 11697996
10.635879 10.823736 1.206323 11697996
9.098313 10.408947 1.136543 11697996
9.258055 8.745680 2.821589 11697996
10.937499 10.231695 1.273336 11697996
9.793751 9.862076 3.092060 11697996
10.294334 8.832299 0.847597 11697996
9.628324 11.064470 0.226963 11697996
10.842195 9.609375 2.428436 11697996
8.770553 10.873908 2.800828 11697996
9.260906 10.855420 2.593199 11697996
10.169968 9.535996 0.597111 11697996
9.633015 9.738825 2.323926 11697996
8.912938 8.920209 1.683635 11697996
9.611797 9.081264 2.016912 11697996
9.114026 9.371752 2.705247 11697996
9.401780 8.923728 1.389927 11697996
9.519067 8.810015 2.787895 11697996
9.661945 9.022446 2.089911 11697996
11.021317 10.341590 3.489719 11697996
9.973516 10.141809 0.480360 11697996
10.506178 10.927039 0.740754 11697996
9.968328 10.684522 1.090068 11697996
9.124723 9.572130 3.814516 11697996
8.827189 9.106810 3.395949 11697996
8.916065 8.783263 0.569591 11697996
11.110217 10.415820 2.093323 11697996
9.327826 8.785017 3.459076 11697996
10.581480 9.650776 2.078391 11697996
8.916814 11.109433 0.802004 11697996
8.800089 9.811669 3.958210 11697996
10.325823 9.642306 2.582998 11697996
10.058015 10.388384 3.391763 11697996
10.632568 10.545510 1.067959 11697996
10.566235 11.237433 0.664179 11697996
10.681256 8.920233 1.535848 11697996
10.967757 11.069179 3.312831 11697996
11.011642 10.849123 0.245496 11697996
11.157578 8.938522 0.579002 11697996
10.119295 11.062947 1.467994 11697996
8.799988 10.464544 0.787135 11697996
9.216691 8.829567 2.522817 11697996
8.974815 9.660428 0.853773 11697996
9.157208 10.867013 2.322182 11697996
9.111122 9.100087 1.478655 11697996
9.992400 9.138035 0.386756 11697996
9.818112 10.132607 1.514014 11697996
9.399480 10.385311 1.679878 11697996
11.129853 10.061672 2.764534 11697996
10.287279 9.600003 0.219899 11697996
9.339110 9.160915 0.204716 11697996
10.839886 10.759171 0.445890 11697996
11.064254 10.975352 3.461187 11697996
10.619634 9.529177 3.538315 11697996
10.541343 9.205576 3.964627 11697996
9.660024 10.486906 2.569881 11697996
10.401931 10.787192 0.980979 11697996
10.463873 9.707171 0.780541 11697996
10.868491 10.750923 0.799299 11697996
10.784129 9.707698 1.216245 11697996
10.187474 10.096972 0.824293 11697996
10.528283 9.682892 0.266934 11697996
9.049797 8.996110 3.145296 11697996
10.179485 10.793830 0.677769 11697996
9.903389 9.911183 1.931306 11697996
9.100673 11.207825 1.765807 11697996
8.760898 10.123305 2.796614 11697996
9.014426 11.199746 1.975369 11697996
9.975599 10.627290 3.856308 11697996
10.136249 9.224048 0.956014 11697996
10.420979 9.591082 1.750690 11697996
9.707767 9.074826 2.736460 11697996
10.645193 8.815816 3.742569 11697996
9.419200 10.098547 1.857428 11697996
8.893598 8.837131 0.346405 11697996
11.053734 10.710367 3.590178 11697996
9.910797 10.284909 2.301901 11697996
9.458959 10.940238 0.706837 11697996
9.236571 9.420183 1.412383 11697996
8.772142 10.383352 2.159315 11697996
9.540765 11.062929 3.412634 11697996
9.229691 9.668534 2.718288 11697996
10.775158 9.755836 1.793316 11697996
9.546167 10.797178 1.162275 11697996
11.186966 9.037738 1.290961 11697996
10.699843 9.249125 1.478358 11697996
9.771147 10.916309 2.166525 11697996
10.914215 8.837141 1.136803 11697996
10.200037 11.186703 2.104867 11697996
10.820436 9.979199 2.931557 11697996
10.297510 10.660507 3.573935 11697996
10.052484 10.438540 2.799901 11697996
8.840050 8.982794 3.193538 11697996
10.998240 10.562797 1.154694 11697996
9.708440 10.289509 3.929148 11697996
10.104260 9.639606 0.880908 11697996
10.240023 10.055598 2.931983 11697996
8.802661 10.170374 2.954491 11697996
10.832565 9.291004 1.623969 11697996
10.423372 9.606823 1.085355 11697996
9.117393 8.930942 2.755697 11697996
9.352579 8.939990 2.769841 11697996
10.099648 8.841335 1.284002 11697996
10.779169 9.286396 -0.001822 11697996
10.075301 10.579491 3.301657 11697996
10.769200 9.996450 3.290895 11697996
9.865431 10.473482 2.035401 11697996
9.237734 9.223821 2.125257 11697996
8.983078 10.861506 3.914818 11697996
10.684907 9.610395 1.268221 11697996
9.226482 10.237568 1.261870 11697996
10.062042 10.795705 2.017688 11697996
11.089627 11.084211 1.222870 11697996
9.129539 10.384754 2.488115 11697996
9.571861 9.053781 1.769393 11697996
10.901493 9.542290 0.529979 11697996
9.590655 8.958707 2.796510 11697996
10.441567 11.245551 0.603613 11697996
11.117150 10.052524 1.904046 11697996
11.185211 9.757491 2.397083 11697996
10.582632 8.787470 1.202862 11697996
10.463264 11.010691 1.753743 11697996
11.194537 9.317248 0.425080 11697996
10.610959 10.625655 1.888379 11697996
9.708159 9.631085 1.427246 11697996
10.618141 9.756931 0.464195 11697996
10.742358 9.697439 0.237619 11697996
9.540769 11.206018 2.478737 11697996
9.552876 11.040897 2.378656 11697996
9.369756 8.751588 3.185853 11697996
10.870884 9.774405 1.101613 11697996
9.870569 10.613483 1.584676 11697996
9.947489 9.165086 3.319165 11697996
10.451712 10.962336 0.827758 11697996
8.765733 11.106710 0.063927 11697996
10.582716 8.947169 1.492548 11697996
10.562871 8.970081 2.441617 11697996
9.729986 9.282458 3.635316 11697996
11.071012 10.230261 2.057953 11697996
11.065126 11.088510 0.021476 11697996
11.124318 9.091518 2.018472 11697996
10.234205 9.760649 2.074922 11697996
10.053632 9.319378 0.186588 11697996
8.886503 9.152446 2.091634 11697996
9.654653 9.678741 0.187825 11697996
8.803473 9.517800 1.884980 11697996
10.514318 8.837434 1.743031 11697996
9.174304 9.585590 0.302798 11697996
11.012199 8.777923 3.774678 11697996
10.574810 8.985077 1.884231 11697996
10.169344 9.167043 2.548247 11697996
9.286311 8.933422 0.211022 11697996
9.840456 10.701045 2.470998 11697996
9.195646 10.572546 3.038072 11697996
9.909497 10.413110 1.854152 11697996
9.070541 9.690383 1.741834 11697996
9.704093 10.379724 0.396047 11697996
10.037911 10.880525 2.397137 11697996
10.728324 9.955569 2.197036 11697996
9.737025 10.411825 3.596829 11697996
9.547764 10.261161 3.982466 11697996
8.842632 10.697064 1.045447 11697996
10.053350 10.830290 1.496785 11697996
8.769926 9.709836 0.363407 11697996
8.908117 9.894351 1.385183 11697996
10.461007 8.976716 2.594093 11697996
10.626833 10.840041 0.088656 11697996
11.171339 10.236396 1.783664 11697996
10.711624 10.139422 0.555861 11697996
11.159283 8.774172 2.298233 11697996
10.942835 9.304921 0.421826 11697996
8.987929 10.471717 1.631157 11697996
10.552229 10.650905 1.000711 11697996
10.754463 9.998111 2.761359 11697996
10.758682 10.110945 1.662176 11697996
10.248899 10.691215 3.569705 11697996
10.223083 11.108446 3.116563 11697996
9.212216 10.727077 1.162186 11697996
11.195862 9.493030 0.033003 11697996
10.360744 8.779716 0.701109 11697996
9.913512 10.088919 3.808295 11697996
9.791004 10.006823 3.312399 11697996
10.844485 11.147197 1.403517 11697996
10.070851 8.923939 0.096316 11697996
10.138635 10.599867 1.212090 11697996
10.556670 9.322232 2.002851 11697996
10.911577 9.840406 1.297080 11697996
8.773119 10.567801 1.204477 11697996
10.662136 9.663432 1.831530 11697996
10.860240 9.681826 3.637306 11697996
9.665674 9.144817 3.480307 11697996
9.758487 8.879307 3.193778 11697996
11.239634 9.072843 3.934490 11697996
9.292057 9.185239 2.717238 11697996
10.360276 10.662457 1.030644 11697996
10.291750 10.131687 0.942622 11697996
11.142903 11.141676 3.640150 11697996
9.442746 10.997843 3.380862 11697996
10.491849 9.524671 2.844677 11697996
11.146710 9.681561 0.667203 11697996
10.006965 9.111771 2.463835 11697996
10.770772 9.835194 0.120583 11697996
10.415936 11.135590 0.731959 11697996
9.254618 9.408933 2.049594 11697996
10.730957 10.998111 0.787991 11697996
9.705480 8.913108 1.973346 11697996
11.124619 9.093233 2.911608 11697996
10.975775 9.813626 0.419760 11697996
10.679653 11.220978 2.766044 11697996
9.242156 10.985583 0.351267 11697996
9.016493 9.517911 0.708525 11697996
10.233386 9.443707 1.649360 11697996
9.927213 8.967396 -0.003618 11697996
9.710850 9.067753 0.701507 11697996
10.772718 8.940842 0.549168 11697996
9.766888 11.070624 0.936005 11697996
11.129254 10.907905 1.829285 11697996
10.025674 8.780958 3.398932 11697996
8.922812 10.700026 2.156786 11697996
10.095806 8.933628 1.539562 11697996
10.587958 10.202512 2.191008 11697996
10.575102 10.123645 2.151412 11697996
10.942210 9.614925 3.885636 11697996
10.577941 10.757687 3.887903 11697996
9.011952 9.574039 2.331927 11697996
9.887087 10.242872 2.294474 11697996
9.948615 10.873207 2.884638 11697996
10.270144 9.312548 0.038458 11697996
9.798427 8.781253 3.423526 11697996
9.901211 8.781251 1.847371 11697996
10.582582 9.454062 0.942403 11697996
10.370020 10.214108 1.387959 11697996
9.842263 10.606208 0.928852 11697996
10.770199 8.878308 2.536977 11697996
10.820257 11.258762 3.677050 11697996
11.010139 10.712677 1.354136 11697996
10.564166 11.004512 3.515312 11697996
11.195753 10.866358 3.801751 11697996
10.913091 10.170122 2.216655 11697996
9.784001 10.570047 0.112734 11697996
10.646302 9.707348 3.088458 11697996
9.113056 10.194388 3.377380 11697996
11.189208 10.475842 3.708136 11697996
10.085595 10.834964 0.172625 11697996
9.430089 9.471836 0.185114 11697996
10.446538 10.213976 0.727588 11697996
10.229756 10.749214 0.014639 11697996
8.980174 11.047377 1.817462 11697996
9.342284 9.661447 0.118450 11697996
9.475917 8.803996 3.862126 11697996
10.344259 10.233036 3.760073 11697996
9.614351 10.997694 3.375848 11697996
11.175426 9.801989 0.813520 11697996
9.521312 9.716080 0.824126 11697996
10.578504 10.540169 2.061758 11697996
10.217976 8.850530 2.221767 11697996
9.997882 10.689207 1.612054 11697996
10.370711 9.836636 0.692456 11697996
9.839266 11.206867 0.427480 11697996
10.698050 9.767124 1.137669 11697996
10.460944 9.677113 3.573915 11697996
9.872757 10.556769 2.279301 11697996
11.211210 9.898099 0.357661 11697996
9.720217 9.283134 1.421615 11697996
9.022852 10.370414 3.615246 11697996
9.960854 9.098991 2.190591 11697996
11.206120 9.550842 1.017427 11697996
9.015614 9.925687 1.557295 11697996
11.238386 9.987646 0.274770 11697996
9.198445 11.120518 2.542109 11697996
10.863461 9.620427 1.826512 11697996
10.547784 10.550487 0.263521 11697996
10.707954 10.714556 2.419096 11697996
10.488969 10.062677 1.795480 11697996
11.160251 9.044744 0.923711 11697996
9.607391 11.126392 0.156182 11697996
9.570880 10.080881 3.725396 11697996
10.117622 9.719711 2.403173 11697996
9.414604 10.816814 2.759766 11697996
11.036162 10.515924 1.305997 11697996
9.066884 9.050271 0.982703 11697996
9.026894 10.336370 2.547822 11697996
10.780722 9.300329 0.031289 11697996
10.243728 10.622233 2.689290 11697996
9.624640 8.764780 3.569687 11697996
10.655045 10.476010 0.584901 11697996
10.687692 8.887153 2.185557 11697996
9.765520 10.076725 1.050780 11697996
10.116747 9.211434 2.325536 11697996
9.547940 9.706616 1.429610 11697996
8.994253 9.295202 0.237403 11697996
10.290593 9.884629 2.280758 11697996
10.794303 10.547006 3.754894 11697996
9.553453 9.232496 0.097246 11697996
9.604490 10.275999 0.498216 11697996
10.458729 9.225780 1.156042 11697996
9.456855 9.276928 2.739812 11697996
10.065172 9.161652 3.912386 11697996
11.130577 9.988024 2.716905 11697996
10.872748 9.642276 1.428601 11697996
10.099374 10.691870 3.801177 11697996
10.268442 10.770890 1.975575 11697996
10.951850 10.458776 1.399600 11697996
11.134195 10.780822 0.676943 11697996
9.713874 10.503128 1.077069 11697996
8.974719 9.839566 3.432159 11697996
11.082718 9.490968 3.184930 11697996
9.434311 10.719566 2.758801 11697996
10.199650 9.617561 1.975004 11697996
10.432854 9.178397 2.809334 11697996
11.262805 8.780077 3.295845 11697996
11.201551 9.945957 1.427482 11697996
10.376643 11.001238 0.403355 11697996
9.700583 11.132726 3.056490 11697996
9.622951 10.618073 1.462908 11697996
10.704533 9.466270 2.476583 11697996
10.215590 10.489949 3.940959 11697996
10.160513 10.860118 3.590341 11697996
9.229394 10.238967 2.129874 11697996
11.177936 11.004009 0.427380 11697996
10.290607 9.397626 3.732813 11697996
11.226603 9.625084 1.483569 11697996
10.362265 11.246684 3.794280 11697996
9.975323 9.597661 3.563136 11697996
11.103818 9.871761 0.678323 11697996
9.386929 9.113198 1.047108 11697996
10.192422 10.756808 0.410329 11697996
11.244320 10.307819 0.718166 11697996
9.726907 9.525656 1.467948 11697996
10.671571 9.052691 0.851440 11697996
9.325816 9.897923 3.627123 11697996
11.076483 9.610485 0.742190 11697996
9.541456 8.772051 3.786915 11697996
10.491187 9.223167 0.839906 11697996
8.999885 9.935433 3.969555 11697996
8.811955 11.177780 3.350552 11697996
8.770237 11.071863 0.987367 11697996
9.846403 10.028399 3.268194 11697996
9.849290 9.827496 1.700996 11697996
11.140451 10.751192 2.541463 11697996
9.156448 9.774719 2.300800 11697996
10.570720 9.257145 0.161068 11697996
10.930916 9.424865 0.008454 11697996
9.276722 9.403277 2.520380 11697996
11.170005 10.404160 1.017980 11697996
10.897228 10.172065 3.612108 11697996
10.491971 10.211509 3.507135 11697996
10.975812 9.476530 3.222961 11697996
9.922486 9.471376 3.846389 11697996
10.370070 10.602912 1.422568 11697996
9.023816 9.217425 2.716879 11697996
10.728200 9.365991 3.042896 11697996
10.876744 9.951697 1.370420 11697996
10.443524 8.865799 1.171110 11697996
10.697914 10.075917 1.316519 11697996
9.761930 9.834540 2.766895 11697996
11.117787 9.172164 0.686060 11697996
11.007405 11.260100 0.867841 11697996
9.140508 8.762134 1.632466 11697996
9.498900 11.132949 2.132211 11697996
10.735181 9.506775 1.080794 11697996
9.029774 9.325174 2.119511 11697996
10.393058 9.012839 1.276011 11697996
9.574251 9.582771 0.129572 11697996
10.383166 10.114317 1.600033 11697996
10.510942 9.565219 2.835274 11697996
11.084853 10.867394 1.739191 11697996
10.806831 11.094601 3.571587 11697996
9.442180 9.066486 0.048469 11697996
9.572791 9.000667 2.114979 11697996
10.028679 9.803444 3.303329 11697996
9.319539 10.303810 1.483819 11697996
8.911920 11.201695 2.821259 11697996
9.701731 9.346824 1.636350 11697996
9.254665 9.569710 3.875408 11697996
9.633165 8.876204 3.179268 11697996
10.321618 10.880948 2.003552 11697996
9.807978 9.386469 0.818348 11697996
9.362121 11.182494 1.978253 11697996
10.888132 9.273293 3.348238 11697996
9.566489 9.683118 3.048316 11697996
9.337709 9.864315 1.945442 11697996
9.020124 9.390412 1.652863 11697996
8.870768 10.336420 3.478081 11697996
9.021420 9.345174 2.471420 11697996
9.350650 9.892643 3.717794 11697996
10.465831 10.904300 3.702119 11697996
10.081262 10.336703 2.943392 11697996
10.072042 10.732201 0.068032 11697996
10.575285 9.232802 2.111126 11697996
8.778871 11.202044 0.410390 11697996
9.695967 10.777490 0.039070 11697996
10.951739 9.054844 0.971214 11697996
9.315817 8.958117 1.207393 11697996
10.934342 9.047723 3.788941 11697996
10.901727 10.847531 1.199384 11697996
9.884498 9.125951 3.961757 11697996
8.771421 9.327508 3.107493 11697996
10.442599 9.276556 0.780907 11697996
10.257906 9.322578 1.155444 11697996
10.936741 9.142642 0.399607 11697996
9.106587 9.971542 1.537170 11697996
9.812096 11.151487 2.245222 11697996
10.480267 10.884137 2.281056 11697996
9.553870 10.605537 1.243428 11697996
10.243820 9.734362 3.915167 11697996
9.461043 10.179824 1.384911 11697996
9.877687 10.731897 0.384685 11697996
10.097583 9.295830 3.645284 11697996
11.036754 9.974751 1.055025 11697996
10.666603 10.130095 2.458045 11697996
9.506998 10.027230 1.720232 11697996
11.047923 9.829220 2.188374 11697996
11.243700 11.121399 1.039971 11697996
11.107198 11.092791 3.721632 11697996
11.139424 10.894831 3.076004 11697996
9.330348 9.628417 3.002996 11697996
8.839396 10.271143 2.750829 11697996
10.594989 8.970542 1.549405 11697996
11.110369 11.108225 2.244932 11697996
8.801748 10.798460 1.962689 11697996
10.432133 9.459904 1.461160 11697996
9.814316 10.193316 0.108955 11697996
8.868373 10.780516 3.847718 11697996
10.514995 9.110719 3.222101 11697996
10.945701 10.207389 3.503647 11697996
11.201959 8.860548 1.527739 11697996
10.944591 11.053215 0.790147 11697996
10.966168 9.707732 3.044111 11697996
10.553520 10.398806 3.591237 11697996
10.804617 10.294095 3.871165 11697996
9.520773 9.617394 0.627650 11697996
10.165233 10.537766 2.060608 11697996
9.997775 9.259269 0.622154 11697996
9.837218 8.928478 1.342029 11697996
8.767301 10.341626 1.044649 11697996
9.234026 11.085749 2.102267 11697996
10.454140 9.895402 1.990078 11697996
9.754827 9.836978 0.709348 11697996
9.482580 9.880507 2.340873 11697996
10.652139 9.459204 0.345294 11697996
10.560025 9.363490 1.881352 11697996
10.344589 11.115185 2.725087 11697996
10.382672 11.015651 2.447079 11697996
10.000135 10.270955 2.985738 11697996
9.668507 9.921989 1.212886 11697996
9.535123 10.628820 1.522210 11697996
9.016125 9.848593 2.701680 11697996
10.154742 9.530515 0.854372 11697996
10.846866 10.623584 1.980492 11697996
11.104888 10.603959 1.204886 11697996
10.216952 10.649726 3.666093 11697996
9.456566 9.418520 3.632565 11697996
10.446175 8.827497 2.592913 11697996
9.040306 10.178749 3.926988 11697996
10.918917 10.095310 3.908687 11697996
10.455844 10.835413 0.075004 11697996
11.050179 9.387076 3.863729 11697996
10.423052 10.277599 0.829802 11697996
11.166971 10.574372 3.709956 11697996
10.621873 9.425082 3.029834 11697996
10.732766 8.897960 3.504198 11697996
10.995549 9.783201 1.047522 11697996
9.308878 10.784153 0.582909 11697996
9.898448 9.963417 3.146704 11697996
8.981399 8.825839 3.650136 11697996
11.237247 10.344967 2.829737 11697996
9.676451 10.995652 2.396652 11697996
10.478628 9.811642 2.665889 11697996
10.259007 10.742133 2.968555 11697996
8.879234 8.824194 2.727806 11697996
10.611754 11.066459 1.904485 11697996
8.783508 9.071790 2.713761 11697996
9.318303 10.459146 2.115359 11697996
9.456003 9.009135 0.753270 11697996
9.218670 9.252238 2.210784 11697996
10.806063 9.205976 3.652750 11697996
11.189871 9.612700 0.273605 11697996
9.948641 10.401635 3.552365 11697996
9.308774 10.380736 2.220591 11697996
9.580675 9.084458 2.261273 11697996
10.623446 10.688315 0.047858 11697996
11.000144 11.140069 2.772240 11697996
10.696986 11.211089 0.021908 11697996
10.836291 9.995916 3.980379 11697996
10.167264 10.737497 3.808000 11697996
9.893570 8.794872 1.257796 11697996
10.914709 8.963664 3.146330 11697996
8.833122 9.492005 1.480321 11697996
9.965650 8.927754 1.280400 11697996
9.055272 10.278787 0.460195 11697996
10.785204 9.152487 3.346100 11697996
10.165524 9.569368 2.058312 11697996
9.717969 10.072224 3.969013 11697996
11.224317 11.231160 3.978228 11697996
9.807935 9.198116 3.469771 11697996
11.156899 9.738028 1.351203 11697996
9.056412 9.846166 2.945904 11697996
8.806299 10.476212 3.208769 11697996
10.362160 9.271088 3.385363 11697996
10.706083 9.535145 1.748723 11697996
10.424657 8.798697 1.762013 11697996
10.683592 9.885858 2.282002 11697996
8.845124 9.322274 3.001021 11697996
9.784095 10.904167 3.099409 11697996
9.547814 9.599431 3.552950 11697996
9.949918 9.762056 1.461607 11697996
8.867987 11.118767 3.028589 11697996
9.026109 10.307162 1.939995 11697996
8.728376 10.685796 0.119039 11697996
9.820631 9.321342 2.548583 11697996
11.174574 9.352770 1.262691 11697996
9.257027 9.873937 2.007075 11697996
8.975574 11.037746 0.533630 11697996
10.088962 10.003066 2.234462 11697996
9.806461 10.295567 3.040234 11697996
11.036325 10.604789 3.561520 11697996
8.798240 9.054945 1.989627 11697996
9.796555 8.919138 0.527234 11697996
10.388657 8.968277 3.349772 11697996
9.913792 10.218785 1.553083 11697996
10.255615 8.894635 1.437739 11697996
11.029227 9.225254 1.366357 11697996
10.203348 10.198533 3.163130 11697996
9.936221 9.211244 2.495306 11697996
10.460552 10.347805 1.322230 11697996
11.028246 10.901030 1.366374 11697996
9.009588 10.399778 0.710844 11697996
9.094633 10.275573 1.702272 11697996
8.999640 9.264837 0.119457 11697996
10.827402 9.131341 1.137486 11697996
10.385752 10.157808 2.214605 11697996
9.443834 10.838103 1.026454 11697996
8.928344 10.677265 1.383746 11697996
11.010450 10.755553 0.371373 11697996
10.012341 10.180207 2.631893 11697996
9.358719 10.676179 2.831018 11697996
10.859248 8.959017 3.823241 11697996
10.888782 10.033737 2.549268 11697996
9.744386 9.916948 3.930162 11697996
11.170363 11.031834 2.105655 11697996
10.474634 10.304280 1.362017 11697996
10.543330 9.269742 1.164642 11697996
10.782290 9.170898 2.763309 11697996
8.859836 10.809972 0.590266 11697996
10.408140 8.942101 2.960044 11697996
9.545671 9.932390 1.400551 11697996
9.355601 9.586849 0.417580 11697996
10.832545 10.478718 3.629550 11697996
10.607023 9.785830 3.876701 11697996
8.822987 10.896284 2.196646 11697996
9.667317 9.790235 2.996521 11697996
9.044799 8.807240 2.583093 11697996
11.047194 9.633177 1.585334 11697996
10.742292 10.880809 0.130360 11697996
9.377306 11.129567 2.735718 11697996
10.319305 10.157104 2.570170 11697996
9.536631 9.546666 2.058939 11697996
8.873573 9.983387 1.948699 11697996
9.122715 10.705375 0.891671 11697996
8.819216 10.827089 1.745001 11697996
9.782138 9.973574 2.032428 11697996
10.299825 8.953150 1.726208 11697996
9.507564 9.905702 0.541669 11697996
9.327225 9.671501 0.710721 11697996
8.814376 10.280157 3.134888 11697996
10.453458 10.269749 3.706716 11697996
10.758792 10.786469 0.038229 11697996
10.267618 10.132017 0.492923 11697996
11.025839 9.887875 1.898983 11697996
9.798684 9.274245 2.244517 11697996
10.111835 9.036881 0.085108 11697996
9.714026 10.088177 0.937170 11697996
10.575932 10.052752 1.592453 11697996
9.257074 11.117772 2.420011 11697996
9.704751 10.091264 0.776130 11697996
9.910674 10.907416 0.212390 11697996
10.381383 10.487367 2.098851 11697996
9.146893 9.988696 0.495485 11697996
8.868049 11.012906 0.866731 11697996
11.116424 9.355403 0.775583 11697996
10.130009 9.224417 2.589994 11697996
10.985901 10.843396 0.501456 11697996
10.443523 10.999394 2.149807 11697996
9.021069 10.275145 3.521315 11697996
9.423244 9.586292 0.148150 11697996
11.088561 8.999340 3.003079 11697996
11.142173 8.983232 3.894327 11697996
8.894186 10.502375 0.413445 11697996
8.887833 9.461102 0.743072 11697996
10.303760 11.141968 3.000672 11697996
8.776719 10.165158 0.889109 11697996
8.783106 8.822770 3.809325 11697996
11.208884 10.552218 2.141962 11697996
10.407498 9.033960 3.173334 11697996
9.330360 9.191488 0.545911 11697996
10.923647 9.749191 3.370877 11697996
10.609690 10.404881 0.414844 11697996
9.789709 8.944473 3.737282 11697996
9.305084 9.410020 2.421153 11697996
9.116093 9.251594 3.903559 11697996
9.787881 9.773411 2.003854 11697996
10.479233 10.538692 0.023984 11697996
9.530687 10.834808 1.253849 11697996
10.350528 10.414169 2.611318 11697996
11.014063 10.963916 0.630865 11697996
9.257414 9.475767 1.087801 11697996
9.576632 9.325979 2.862304 11697996
9.657306 10.364150 1.389818 11697996
10.094947 10.883657 3.161847 11697996
11.140693 9.764606 0.025780 11697996
9.473958 9.562179 0.978296 11697996
8.914492 10.701723 1.242601 11697996
9.099033 9.079417 3.686990 11697996
10.842399 9.798938 2.428460 11697996
11.223337 8.938873 3.994953 11697996
9.970268 10.847429 1.853662 11697996
8.885587 8.988420 0.981470 11697996
9.695583 10.198973 1.040280 11697996
10.301488 9.565690 1.537889 11697996
10.818850 10.388982 1.347459 11697996
10.255130 9.365231 3.966867 11697996
10.086222 9.568552 3.309273 11697996
9.002297 10.396629 0.925810 11697996
9.827594 9.205369 3.727371 11697996
11.115912 8.977767 2.094163 11697996
10.834148 10.805573 0.371602 11697996
9.183950 10.306237 0.904087 11697996
9.378394 11.117615 3.164722 11697996
9.831215 9.018966 0.166573 11697996
10.008297 9.609402 0.402066 11697996
8.824407 10.045042 2.484296 11697996
9.946103 11.123380 0.903424 11697996
10.442946 9.970277 0.081130 11697996
10.309420 9.615776 2.978640 11697996
10.021476 9.236472 3.322947 11697996
10.329322 9.809980 3.818686 11697996
9.324190 11.113302 1.618509 11697996
9.070256 10.535446 1.397477 11697996
8.829457 9.953325 2.237464 11697996
9.852852 10.243072 2.344199 11697996
10.846478 10.554546 1.380722 11697996
10.948319 9.884908 3.741419 11697996
10.313017 10.029137 2.675482 11697996
8.885636 9.621543 2.017642 11697996
10.950732 10.761132 1.449572 11697996
10.816241 8.846815 3.031794 11697996
9.067922 10.251451 3.190526 11697996
10.786243 8.934480 1.573498 11697996
9.199821 10.906706 0.476049 11697996
10.801847 9.919797 0.057833 11697996
10.711430 10.357885 3.557281 11697996
10.888560 10.960276 2.321015 11697996
10.055652 9.550277 3.343132 11697996
10.977614 10.256273 0.271958 11697996
8.879926 9.300569 2.636470 11697996
9.421335 8.830282 2.986298 11697996
9.386587 10.142236 1.952423 11697996
10.768473 10.869298 3.217002 11697996
8.952439 8.922849 0.459913 11697996
10.829379 10.653868 3.090265 11697996
9.957797 10.074309 3.301256 11697996
11.180685 10.633077 2.888709 11697996
11.057205 10.029670 1.984955 11697996
9.222022 10.006235 2.789858 11697996
10.609918 10.787539 3.179417 11697996
9.356765 10.730846 1.745588 11697996
11.214742 9.430543 3.563552 11697996
10.965078 9.579503 1.019392 11697996
8.924261 11.015089 0.447503 11697996
8.816190 10.932986 0.150898 11697996
10.183331 10.047887 1.341037 11697996
10.623666 10.279113 1.486887 11697996
8.968796 9.965989 3.818822 11697996
10.468225 10.597468 1.800577 11697996
9.651712 11.168840 2.697927 11697996
10.875640 9.673142 3.134517 11697996
8.853396 10.945252 3.926561 11697996
10.852818 10.452536 1.876316 11697996
10.747453 9.672504 1.099095 11697996
9.801714 9.396469 0.387424 11697996
10.092301 10.064972 2.729467 11697996
9.746165 11.152029 0.753600 11697996
8.993541 10.009084 3.991169 11697996
10.463368 9.810595 3.128853 11697996
9.367836 9.766298 0.695149 11697996
8.938051 11.156990 3.068727 11697996
9.259254 9.037520 3.737196 11697996
11.116625 9.042897 2.134820 11697996
11.244115 10.813254 0.971641 11697996
10.852224 10.599007 3.710941 11697996
9.127141 9.650994 3.958939 11697996
10.775812 10.583162 2.190773 11697996
10.666972 10.541720 0.452342 11697996
9.190748 9.019099 1.659417 11697996
9.284055 9.946234 3.803516 11697996
8.893003 9.641739 1.840199 11697996
10.681135 8.967951 1.630361 11697996
10.694603 10.515306 2.328727 11697996
10.628010 9.814564 1.862829 11697996
10.893865 10.121058 3.994957 11697996
9.029380 9.466291 2.751724 11697996
10.442876 9.732017 3.179915 11697996
10.774921 9.036622 2.152519 11697996
9.084724 10.797881 0.144674 11697996
9.287612 11.060039 3.191329 11697996
9.904288 10.942932 0.822133 11697996
10.889394 10.789274 0.872471 11697996
9.221270 9.477452 1.046706 11697996
10.416151 9.669076 3.630373 11697996
10.890305 11.240651 0.729293 11697996
9.223693 11.148147 2.205437 11697996
9.605927 10.669168 1.767303 11697996
10.091351 9.875477 3.949952 11697996
9.383119 10.940911 2.690862 11697996
10.826444 10.505825 3.180789 11697996
10.790333 10.918312 3.085808 11697996
9.756104 10.511912 1.316334 11697996
10.857085 9.287565 1.133032 11697996
9.974475 9.358295 0.555400 11697996
9.028180 9.596669 1.085821 11697996
9.183928 9.171626 0.234485 11697996
9.275655 10.323226 3.848088 11697996
9.719290 8.897358 0.450394 11697996
9.214675 8.738382 2.296175 11697996
10.874410 9.163543 2.981005 11697996
8.875149 9.669535 3.865597 11697996
9.577659 10.145844 3.678303 11697996
11.046521 9.230501 0.888000 11697996
10.723616 9.470757 1.228144 11697996
9.843887 9.609137 1.597606 11697996
8.751631 11.154771 2.172012 11697996
11.128908 10.272552 2.339478 11697996
11.216120 9.599480 1.178204 11697996
11.213077 9.771682 0.676977 11697996
9.149834 9.749432 2.534392 11697996
9.149438 10.329039 3.219865 11697996
9.528466 9.417378 2.871877 11697996
8.811675 9.572245 3.726374 11697996
10.165843 10.856855 2.558563 11697996
10.598172 10.303775 3.824638 11697996
10.016077 10.096765 3.883367 11697996
8.822151 8.931598 1.735265 11697996
10.225058 8.943726 0.287967 11697996
9.130470 10.999356 0.756216 11697996
8.799152 8.884956 3.096810 11697996
9.888082 8.924483 3.182836 11697996
11.194951 10.964198 2.206484 11697996
9.282858 8.758892 0.880724 11697996
8.950638 9.082683 1.605462 11697996
9.331210 10.234194 1.385050 11697996
10.500885 8.757399 3.300365 11697996
10.755071 9.807475 3.685841 11697996
9.625884 9.694258 0.381697 11697996
9.388400 8.773383 3.308690 11697996
10.705003 9.567662 2.405486 11697996
10.161260 9.534702 4.011024 11697996
9.574385 9.808928 1.670246 11697996
9.787339 10.148537 3.034662 11697996
10.039070 9.404584 1.848253 11697996
10.736562 10.922711 1.425819 11697996
9.940537 8.826027 1.529390 11697996
9.217150 10.405519 1.914948 11697996
9.127522 11.061268 2.073982 11697996
9.968984 9.831607 3.659105 11697996
11.019229 10.080469 0.161147 11697996
9.365644 10.974120 1.414155 11697996
9.873014 10.175291 3.397357 11697996
11.248351 10.658941 0.224503 11697996
10.043251 9.555324 1.279876 11697996
10.881756 9.365112 2.363900 11697996
10.602673 8.771646 1.646644 11697996
8.859438 10.820529 2.387707 11697996
9.079649 9.431000 1.769553 11697996
9.218039 8.853280 3.768907 11697996
9.796445 9.076296 1.096907 11697996
9.593129 8.833785 3.070847 11697996
10.606833 8.747204 2.848095 11697996
11.179799 9.443880 0.285358 11697996
11.227749 9.899485 2.882071 11697996
10.172148 11.206491 0.665983 11697996
10.051171 10.780431 2.004708 11697996
9.798079 10.513464 1.109181 11697996
10.688704 9.826874 2.505436 11697996
10.739676 8.853158 1.736874 11697996
10.678653 9.159399 0.599361 11697996
10.447151 10.745090 0.647457 11697996
8.747329 9.224603 3.468843 11697996
9.931065 10.385986 1.012851 11697996
10.035087 10.809523 1.679153 11697996
8.846520 10.299472 3.821867 11697996
9.449825 10.030105 1.596721 11697996
10.841310 9.812689 1.616711 11697996
8.807713 8.869174 1.061730 11697996
9.407280 11.091954 1.675252 11697996
10.871663 9.479191 1.642506 11697996
8.810806 11.204043 2.948876 11697996
8.869922 10.105422 0.931519 11697996
10.591133 10.734303 0.857719 11697996
9.118731 8.838088 2.670460 11697996
10.026299 9.527368 2.618121 11697996
8.840438 10.099595 3.387755 11697996
10.594633 9.488950 2.550866 11697996
8.876458 9.840838 0.511486 11697996
9.535224 10.177225 3.932853 11697996
8.806437 9.924818 1.324493 11697996
9.228635 10.323569 3.125173 11697996
11.214993 11.040261 0.896519 11697996
9.784527 9.874298 0.330180 11697996
9.649411 9.905291 0.248742 11697996
11.032639 9.952681 1.345507 11697996
9.248566 11.196241 0.646287 11697996
11.091608 11.094958 2.987809 11697996
11.039774 10.670856 1.329347 11697996
10.472785 10.504497 0.228496 11697996
10.040897 11.172690 1.491862 11697996
10.518063 10.229472 3.823233 11697996
9.383986 10.540649 0.573310 11697996
10.571554 9.425362 3.129223 11697996
10.226941 10.701750 0.764705 11697996
8.822333 10.048725 1.681979 11697996
11.160544 9.740662 1.548389 11697996
8.940866 9.274114 3.436181 11697996
10.310174 8.861254 3.582026 11697996
10.458016 8.818553 3.924268 11697996
9.254420 9.110058 2.104743 11697996
10.424086 10.826045 0.607579 11697996
10.701960 9.707269 0.449138 11697996
10.655286 9.864239 1.906998 11697996
9.429588 9.803548 3.594204 11697996
8.917657 9.139752 2.864065 11697996
10.337627 9.213468 2.873226 11697996
10.015553 11.051615 3.073839 11697996
10.335476 10.548586 3.467731 11697996
10.089062 10.100583 0.856230 11697996
9.941027 9.639771 0.402392 11697996
9.516513 11.007962 1.469952 11697996
10.131958 8.893146 1.155766 11697996
10.109214 11.158296 2.662738 11697996
10.113082 9.395041 2.242561 11697996
9.023165 8.866727 0.245887 11697996
9.261459 9.245494 2.088161 11697996
9.291671 10.885518 0.823232 11697996
11.206183 9.672898 1.972052 11697996
10.501550 11.253960 2.000110 11697996
9.207372 11.037197 0.578718 11697996
8.765236 11.251269 0.053667 11697996
9.419237 10.124151 0.727440 11697996
10.604474 10.500014 2.614830 11697996
10.766058 10.336856 1.054698 11697996
9.562454 10.996060 1.504010 11697996
9.041319 9.010885 1.548297 11697996
9.699515 11.013947 1.286147 11697996
9.766831 9.075281 0.598172 11697996
9.238890 8.974659 2.038927 11697996
10.934200 10.396834 0.052684 11697996
10.610391 9.258682 1.794769 11697996
10.007934 9.959424 1.157332 11697996
10.263023 10.482536 3.156382 11697996
9.943654 10.978135 0.388297 11697996
9.125920 10.522899 3.445458 11697996
9.638477 11.199187 3.392428 11697996
9.001235 10.542863 0.459564 11697996
10.134766 8.887042 3.253359 11697996
10.806164 10.299987 0.788400 11697996
10.086347 8.875562 2.465472 11697996
11.238286 9.067402 0.495702 11697996
9.502570 9.212081 0.608544 11697996
11.193344 9.030351 3.303426 11697996
9.179261 9.742229 0.760143 11697996
9.347747 9.246883 3.994325 11697996
10.495131 9.227293 2.558195 11697996
9.811312 9.362661 1.008200 11697996
10.045662 11.209527 2.945617 11697996
11.071454 10.388100 0.299274 11697996
10.822165 9.248139 1.002740 11697996
10.610768 10.660935 3.177135 11697996
10.577033 10.937063 1.466578 11697996
9.932302 9.058687 0.784310 11697996
10.708795 9.793914 0.215475 11697996
9.033412 9.963216 0.478404 11697996
10.812374 9.658221 1.419792 11697996
10.620240 11.229988 3.955953 11697996
10.629916 9.630652 3.789982 11697996
11.177929 9.917002 2.990973 11697996
11.072315 9.970374 3.032385 11697996
8.834772 10.875853 2.764333 11697996
11.061137 9.839040 2.763776 11697996
9.274472 9.786963 3.450706 11697996
9.315084 9.001568 3.448001 11697996
9.874710 10.687180 2.559053 11697996
10.924069 9.198722 0.172536 11697996
10.723009 10.528281 1.259630 11697996
9.889601 10.675116 2.352604 11697996
9.132958 10.421933 1.782057 11697996
10.213448 9.349933 2.225830 11697996
11.054258 10.191379 0.199342 11697996
10.037540 11.170445 2.961518 11697996
10.655346 11.015856 3.884608 11697996
9.726439 8.824566 1.510941 11697996
9.619621 9.474577 1.370816 11697996
10.680401 10.758624 1.632344 11697996
9.564880 10.495344 2.726645 11697996
10.243182 11.243725 0.289900 11697996
9.592429 8.875595 3.323356 11697996
9.541725 10.266875 3.148995 11697996
10.368343 9.120382 3.339472 11697996
9.384001 10.343954 2.966180 11697996
9.595977 10.659770 1.740317 11697996
9.101757 10.810009 2.144124 11697996
10.813507 10.497430 0.927052 11697996
10.830720 10.958300 3.735096 11697996
10.708858 10.927745 1.652317 11697996
11.194312 9.278983 3.284846 11697996
9.880678 11.237871 1.731279 11697996
8.837281 8.791684 2.489012 11697996
9.166780 10.099213 3.139868 11697996
10.580826 10.063997 0.213078 11697996
8.865525 10.196177 3.414000 11697996
10.275982 9.558465 0.835776 11697996
10.227278 8.976288 1.416806 11697996
9.664784 8.889877 3.630955 11697996
9.767424 9.803409 1.569269 11697996
10.869864 9.963251 3.067029 11697996
10.658754 10.327244 3.296104 11697996
10.801162 10.475528 0.675789 11697996
10.744214 10.246342 3.863184 11697996
11.101450 9.509722 1.695006 11697996
9.509885 10.797237 2.625707 11697996
10.197164 8.794909 3.112999 11697996
11.177776 9.472277 2.713891 11697996
10.329103 10.066378 2.060135 11697996
10.375073 10.036838 0.990050 11697996
8.869217 10.993072 3.422476 11697996
10.634179 9.916410 1.763068 11697996
9.450700 10.033514 2.160867 11697996
10.085550 10.712480 3.249403 11697996
9.282234 10.452934 1.874810 11697996
9.280687 9.729319 2.731855 11697996
9.820951 9.160203 3.542601 11697996
9.581436 11.063725 2.029680 11697996
10.592396 8.920434 1.283063 11697996
8.916131 11.134933 0.041242 11697996
11.014627 10.384702 2.089115 11697996
8.885043 11.153152 0.017828 11697996
9.273981 11.122120 1.582132 11697996
10.119317 9.164293 1.478838 11697996
9.209859 10.587657 0.497543 11697996
10.801061 10.994126 3.773341 11697996
10.162841 9.808533 2.644168 11697996
10.960209 10.484065 2.316254 11697996
11.144114 9.906548 2.112262 11697996
9.980826 10.229049 2.205939 11697996
10.001629 10.162070 2.041748 11697996
8.892748 9.525455 0.943399 11697996
10.391669 11.033704 2.184966 11697996
10.994376 10.932512 1.657261 11697996
9.987592 8.862730 0.495891 11697996
9.341372 10.373857 3.310454 11697996
11.177029 9.201819 3.220502 11697996
11.134049 10.662102 2.379759 11697996
10.892266 11.188717 1.194850 11697996
10.722721 9.588567 2.731700 11697996
9.971304 10.810214 1.088111 11697996
11.054954 10.043140 1.267146 11697996
8.990499 10.039106 2.567562 11697996
10.081155 10.397889 0.479193 11697996
10.811313 9.896138 3.423251 11697996
9.833815 10.376544 3.078273 11697996
10.095888 11.163371 1.600756 11697996
9.543211 9.951014 1.532474 11697996
10.302329 10.210442 3.243591 11697996
10.904633 10.692962 3.177844 11697996
10.700809 10.697603 0.886213 11697996
10.707666 10.067813 1.572407 11697996
9.719977 10.674399 3.994853 11697996
10.832485 9.560587 1.411039 11697996
9.070434 10.144763 3.889411 11697996
9.160069 9.578246 0.249326 11697996
10.947123 10.879782 1.634971 11697996
10.130522 10.241155 2.369717 11697996
9.536443 10.974345 1.787093 11697996
10.119238 10.674552 0.218701 11697996
10.894633 8.866505 0.783290 11697996
9.096326 10.865175 0.700395 11697996
11.004420 10.998378 0.530576 11697996
10.085294 10.183227 3.178519 11697996
10.366872 9.967561 0.214217 11697996
10.196037 8.934697 1.567310 11697996
9.286732 8.904882 1.491463 11697996
8.929846 10.294567 3.113165 11697996
10.486111 9.340778 1.538299 11697996
9.167842 9.355619 3.732133 11697996
9.483274 9.200935 0.594259 11697996
10.330036 11.081537 1.149664 11697996
10.483068 9.164084 1.499262 11697996
11.164905 10.383742 1.896281 11697996
10.653679 8.968261 3.653491 11697996
10.915807 10.816177 0.807846 11697996
10.857183 9.202688 1.499386 11697996
9.577653 11.146786 1.807990 11697996
8.953960 10.186949 1.784263 11697996
11.235540 10.152611 0.213762 11697996
9.997672 10.964388 3.644573 11697996
10.614494 10.316726 0.297653 11697996
8.841481 10.574841 0.587834 11697996
8.980602 8.851257 1.488660 11697996
10.916679 9.499068 0.166705 11697996
10.379582 9.443680 3.713144 11697996
10.234257 10.447203 0.745364 11697996
10.412606 10.751560 0.164035 11697996
10.825415 9.184974 1.241195 11697996
10.964284 9.808496 3.724986 11697996
10.470339 9.610345 1.595923 11697996
8.859716 8.962952 0.547153 11697996
10.171897 10.282813 3.697874 11697996
9.267232 11.036451 0.661818 11697996
10.794590 8.831365 0.553719 11697996
9.010262 10.682762 2.532151 11697996
10.687930 9.456090 3.117706 11697996
9.570802 9.750405 0.843799 11697996
11.000044 11.161480 2.375755 11697996
9.587896 10.529116 2.846419 11697996
9.676767 11.114755 1.278727 11697996
9.804815 11.154032 2.700347 11697996
10.346619 10.325202 3.042506 11697996
10.453779 10.658284 3.528915 11697996
10.945116 10.676695 1.454796 11697996
9.115559 10.904176 2.701265 11697996
10.831455 9.641448 0.359081 11697996
11.005574 10.543767 3.129946 11697996
8.775255 9.082678 3.972685 11697996
9.473426 9.413074 2.478094 11697996
10.718454 10.235756 2.461709 11697996
8.806608 9.463099 0.680852 11697996
10.283734 9.220877 3.724110 11697996
10.157744 9.109367 2.528751 11697996
10.350776 11.038956 2.576483 11697996
9.089351 9.477348 1.927671 11697996
10.076063 9.356329 2.235396 11697996
9.167033 9.406333 0.652409 11697996
11.039244 9.574985 3.955050 11697996
10.257753 10.710320 1.831569 11697996
11.033071 9.999355 2.399903 11697996
10.262443 10.921716 1.689806 11697996
9.669264 9.785195 3.319305 11697996
10.571211 8.849746 1.981759 11697996
9.275032 10.719984 1.541356 11697996
9.379784 9.261741 2.080739 11697996
9.123357 9.066557 3.230943 11697996
9.386644 10.479907 2.008670 11697996
11.080508 9.021577 2.314540 11697996
11.156601 9.888264 2.428133 11697996
9.322133 11.178016 2.928111 11697996
9.609756 11.197470 1.192150 11697996
9.090389 9.549108 3.173352 11697996
11.162300 8.931348 1.371201 11697996
10.202496 9.950792 1.673371 11697996
10.096471 10.471269 2.692763 11697996
9.327568 9.133094 0.704187 11697996
9.969419 9.443625 0.379329 11697996
9.091969 8.923414 1.364609 11697996
8.842143 10.330573 2.423001 11697996
9.752817 8.958334 2.958854 11697996
10.150282 10.962845 0.844699 11697996
11.051535 9.257074 3.989173 11697996
10.782951 9.004147 1.257175 11697996
9.610181 9.937867 2.811430 11697996
