# .PCD v0.7 - Point Cloud Data file format
VERSION 0.7
FIELDS x y z rgb
SIZE 4 4 4 4
TYPE F F F U
COUNT 1 1 1 1
WIDTH 1291
HEIGHT 1
VIEWPOINT 0 0 0 1 0 0 0
POINTS 1291
DATA ascii
10.036140 10.888121 2.415074 11697996
10.714076 9.938609 2.158811 11697996
9.702235 10.368312 3.651014 11697996
9.595681 10.272913 3.968752 11697996
8.860352 10.722881 1.013936 11697996
10.060719 10.841589 1.510400 11697996
8.759461 9.702772 0.365161 11697996
8.915484 9.898498 1.373073 11697996
10.419571 8.977875 2.573660 11697996
10.614878 10.844219 0.106915 11697996
11.155250 10.204500 1.780961 11697996
10.717435 10.141963 0.540726 11697996
11.177749 8.753254 2.298143 11697996
10.969504 9.324884 0.419440 11697996
8.958330 10.441540 1.608307 11697996
10.568480 10.668693 0.986139 11697996
10.749454 10.034082 2.751796 11697996
10.752561 10.136168 1.674675 11697996
10.234043 10.687709 3.565227 11697996
10.257942 11.116361 3.139282 11697996
9.218178 10.732263 1.120205 11697996
11.181280 9.525233 0.010965 11697996
10.380139 8.779744 0.652289 11697996
9.868920 10.098896 3.837106 11697996
9.798169 10.018661 3.279024 11697996
10.867639 11.133690 1.419032 11697996
10.123968 8.904124 0.140222 11697996
10.162964 10.602524 1.217903 11697996
10.560294 9.341098 2.034584 11697996
10.903781 9.809021 1.300517 11697996
8.772957 10.610911 1.152203 11697996
10.692240 9.684307 1.840235 11697996
10.885726 9.699312 3.611421 11697996
9.691862 9.143058 3.469275 11697996
9.742580 8.876550 3.213879 11697996
11.220304 9.068008 3.910466 11697996
9.281652 9.177210 2.730073 11697996
10.340267 10.655890 1.042602 11697996
10.316049 10.122890 0.913171 11697996
11.155009 11.110111 3.598567 11697996
9.476630 11.054964 3.362534 11697996
10.506966 9.516918 2.825696 11697996
11.115716 9.719651 0.660558 11697996
9.981136 9.118079 2.457866 11697996
10.781510 9.845730 0.141168 11697996
10.433969 11.122311 0.728678 11697996
9.231726 9.405478 2.068113 11697996
10.731232 11.037430 0.792708 11697996
9.725164 8.895190 1.943861 11697996
11.130622 9.096922 2.899715 11697996
10.957931 9.821368 0.436594 11697996
10.674821 11.234694 2.749321 11697996
9.277225 10.965013 0.346616 11697996
9.009890 9.498598 0.711452 11697996
10.216426 9.399660 1.682588 11697996
9.916201 8.940653 0.007543 11697996
9.725051 9.051475 0.686435 11697996
10.745507 8.980762 0.564453 11697996
9.766336 11.072374 0.921016 11697996
11.147844 10.927114 1.827632 11697996
10.018171 8.812243 3.397923 11697996
8.913021 10.691922 2.165688 11697996
10.102179 8.914193 1.550381 11697996
10.564435 10.192940 2.178963 11697996
10.575123 10.144079 2.144304 11697996
10.951361 9.607529 3.902355 11697996
10.570288 10.751422 3.869660 11697996
8.997574 9.579957 2.324311 11697996
9.867631 10.238768 2.235944 11697996
9.915902 10.862617 2.839520 11697996
10.286607 9.281630 0.024962 11697996
9.769879 8.799315 3.446257 11697996
9.925487 8.814699 1.834932 11697996
10.599275 9.438480 0.945684 11697996
10.351317 10.220106 1.398800 11697996
9.872727 10.631478 0.933278 11697996
10.796758 8.864702 2.527087 11697996
10.833584 11.206101 3.653462 11697996
11.019548 10.721587 1.344138 11697996
10.581294 11.032451 3.519704 11697996
11.205555 10.867971 3.805837 11697996
10.911565 10.193865 2.198569 11697996
9.788963 10.605752 0.116626 11697996
10.666754 9.700073 3.065874 11697996
9.137086 10.195368 3.396959 11697996
11.179338 10.467517 3.722262 11697996
10.061161 10.813690 0.178251 11697996
9.436769 9.429216 0.197620 11697996
10.466007 10.225564 0.788614 11697996
10.246222 10.688562 0.007285 11697996
8.987357 11.067297 1.820698 11697996
9.356741 9.700322 0.132485 11697996
9.477755 8.802814 3.860692 11697996
10.349254 10.255399 3.793899 11697996
9.631925 10.979780 3.385614 11697996
11.177691 9.807867 0.811671 11697996
9.546325 9.722097 0.805538 11697996
10.590347 10.532683 2.044063 11697996
10.196541 8.854232 2.211056 11697996
10.023398 10.698776 1.613153 11697996
10.318317 9.827264 0.682028 11697996
9.806932 11.208410 0.420832 11697996
10.710362 9.780170 1.100446 11697996
10.495152 9.673198 3.570063 11697996
9.856895 10.533806 2.293673 11697996
11.227765 9.875448 0.358047 11697996
9.752201 9.268920 1.382783 11697996
9.009310 10.375202 3.587023 11697996
9.925851 9.078403 2.215655 11697996
11.232940 9.562376 1.010745 11697996
9.035305 9.910667 1.562515 11697996
11.228797 9.995191 0.267474 11697996
9.219647 11.135719 2.533339 11697996
10.827320 9.657099 1.821414 11697996
10.506639 10.571322 0.275378 11697996
10.720134 10.743435 2.388327 11697996
10.496909 10.084896 1.779964 11697996
11.207457 9.053170 0.963403 11697996
9.618962 11.108070 0.198524 11697996
9.588364 10.091912 3.717872 11697996
10.130525 9.742539 2.413164 11697996
9.422399 10.808518 2.721362 11697996
11.037846 10.515830 1.292518 11697996
9.076047 9.088613 0.980998 11697996
9.003136 10.328252 2.542816 11697996
10.785524 9.276117 0.058009 11697996
10.247146 10.608302 2.708898 11697996
9.638351 8.805860 3.537217 11697996
10.640073 10.430008 0.587172 11697996
10.666671 8.919805 2.190163 11697996
9.747410 10.081358 1.042304 11697996
10.075956 9.182817 2.319374 11697996
9.504699 9.696532 1.451454 11697996
8.970953 9.272304 0.203177 11697996
10.327950 9.830090 2.263082 11697996
10.794928 10.556924 3.750506 11697996
9.539377 9.273954 0.084210 11697996
9.564060 10.282176 0.510740 11697996
10.474294 9.278179 1.182148 11697996
9.477080 9.287977 2.771442 11697996
10.044126 9.175472 3.903603 11697996
11.144728 10.005583 2.689634 11697996
10.852612 9.587153 1.472094 11697996
10.145957 10.714442 3.813573 11697996
10.296106 10.779402 1.985450 11697996
10.960023 10.493754 1.395340 11697996
11.140541 10.812255 0.686356 11697996
9.744326 10.503460 1.070696 11697996
8.969953 9.871795 3.431072 11697996
11.046907 9.493187 3.194011 11697996
9.468404 10.720551 2.752565 11697996
10.224154 9.607353 1.957369 11697996
10.447680 9.189819 2.826625 11697996
11.251586 8.784077 3.273902 11697996
11.210048 9.965372 1.421644 11697996
10.375423 10.979095 0.394388 11697996
9.689939 11.126433 3.063682 11697996
9.620151 10.622308 1.495850 11697996
10.686963 9.493328 2.498256 11697996
10.231753 10.457059 3.921109 11697996
10.145551 10.875432 3.593990 11697996
9.186488 10.214177 2.094869 11697996
11.174996 10.991977 0.409358 11697996
10.319639 9.402697 3.719691 11697996
11.254082 9.609473 1.504159 11697996
10.334932 11.230684 3.799881 11697996
9.988135 9.598293 3.583366 11697996
11.125804 9.902301 0.659459 11697996
9.397825 9.091226 1.068485 11697996
10.211573 10.747528 0.416489 11697996
11.261444 10.286878 0.755945 11697996
9.681633 9.539927 1.447651 11697996
10.673606 9.036897 0.848301 11697996
9.348819 9.878128 3.648149 11697996
11.043842 9.590694 0.747728 11697996
9.560203 8.797347 3.789742 11697996
10.509702 9.209711 0.833899 11697996
8.992224 9.947574 3.942803 11697996
8.797544 11.187290 3.371310 11697996
8.801481 11.091305 0.971837 11697996
9.833636 10.023950 3.283059 11697996
9.870710 9.775948 1.682598 11697996
11.134926 10.773103 2.527081 11697996
9.121247 9.782063 2.284721 11697996
10.591920 9.323127 0.157587 11697996
10.953054 9.474568 0.017327 11697996
9.302894 9.394692 2.552510 11697996
11.153082 10.408601 1.037512 11697996
10.900760 10.169604 3.629550 11697996
10.437366 10.250007 3.497007 11697996
10.975848 9.508746 3.235676 11697996
9.919439 9.440644 3.858021 11697996
10.339655 10.596975 1.398449 11697996
8.993846 9.213006 2.718632 11697996
10.749109 9.360681 3.021598 11697996
10.938769 9.953569 1.367730 11697996
10.431213 8.842046 1.148621 11697996
10.718003 10.055418 1.334840 11697996
9.756439 9.812200 2.734913 11697996
11.091943 9.194140 0.663560 11697996
10.978760 11.247858 0.866387 11697996
9.136713 8.800215 1.637688 11697996
9.516721 11.126855 2.127789 11697996
10.756603 9.494164 1.074431 11697996
9.003176 9.350188 2.105121 11697996
10.380530 9.000313 1.278978 11697996
9.569446 9.642531 0.087359 11697996
10.345328 10.132039 1.573337 11697996
10.497466 9.549517 2.823156 11697996
11.059583 10.852295 1.715724 11697996
10.777568 11.107383 3.547092 11697996
9.442851 9.087088 0.056511 11697996
9.561951 8.982452 2.079536 11697996
10.034355 9.814267 3.293298 11697996
9.327731 10.286509 1.510685 11697996
8.888220 11.190285 2.806187 11697996
9.721513 9.357956 1.658073 11697996
9.288436 9.543898 3.862789 11697996
9.676867 8.890692 3.189884 11697996
10.315104 10.877849 2.014463 11697996
9.806102 9.406250 0.823541 11697996
9.368331 11.132819 1.970487 11697996
10.911672 9.213396 3.374163 11697996
9.561090 9.675611 3.045801 11697996
9.327003 9.821237 1.944693 11697996
9.011305 9.376194 1.652544 11697996
8.902673 10.342949 3.503984 11697996
9.029455 9.342069 2.439188 11697996
9.309316 9.910188 3.716025 11697996
10.496518 10.919712 3.679997 11697996
10.056857 10.371524 2.895320 11697996
10.083900 10.721607 0.068978 11697996
10.584379 9.214194 2.103584 11697996
8.769460 11.214593 0.424258 11697996
9.670604 10.823602 0.047399 11697996
10.938865 9.050961 0.978028 11697996
9.346998 8.929986 1.210442 11697996
10.905479 9.036857 3.815631 11697996
10.923980 10.867346 1.225415 11697996
9.842483 9.126421 3.952235 11697996
8.770268 9.320060 3.064723 11697996
10.429580 9.259111 0.776192 11697996
10.265931 9.316701 1.152774 11697996
10.953200 9.123901 0.407251 11697996
9.124909 9.960831 1.541181 11697996
9.815433 11.137197 2.207530 11697996
10.491873 10.870901 2.293837 11697996
9.544142 10.630112 1.261453 11697996
10.230065 9.746935 3.935593 11697996
9.480553 10.155932 1.380958 11697996
9.851003 10.718649 0.393749 11697996
10.122836 9.284950 3.637319 11697996
11.037981 9.956698 1.082656 11697996
10.673974 10.117060 2.421012 11697996
9.497038 10.015954 1.725425 11697996
11.058536 9.866945 2.210488 11697996
11.241701 11.089066 1.064037 11697996
11.127277 11.134404 3.724942 11697996
11.145286 10.929106 3.086940 11697996
9.335532 9.656775 2.987870 11697996
8.856862 10.268004 2.734184 11697996
10.576911 8.955158 1.586157 11697996
11.088781 11.121648 2.270987 11697996
8.800361 10.789950 1.961359 11697996
10.414515 9.448757 1.469783 11697996
9.799609 10.154084 0.167568 11697996
8.871361 10.748451 3.839418 11697996
10.465911 9.122301 3.233895 11697996
10.979462 10.206520 3.534122 11697996
11.193121 8.869458 1.522321 11697996
10.961076 11.064349 0.747179 11697996
10.947364 9.723415 3.094234 11697996
10.559191 10.386624 3.590489 11697996
10.785868 10.240376 3.867976 11697996
9.518979 9.635911 0.668529 11697996
10.148495 10.570017 2.076100 11697996
10.041422 9.273564 0.603454 11697996
9.824142 8.904172 1.336537 11697996
8.765210 10.347003 1.045451 11697996
9.230439 11.098184 2.102186 11697996
10.441986 9.899155 2.011160 11697996
9.739487 9.823081 0.694608 11697996
9.461022 9.872593 2.373435 11697996
10.639260 9.479469 0.388723 11697996
10.547977 9.342366 1.858208 11697996
10.363132 11.141325 2.708434 11697996
10.403206 11.031775 2.441687 11697996
10.006248 10.251338 2.990625 11697996
9.699501 9.899610 1.234916 11697996
9.490304 10.660781 1.534602 11697996
9.030878 9.833670 2.687759 11697996
10.183281 9.523386 0.863954 11697996
10.843164 10.658152 1.983973 11697996
11.113656 10.609363 1.190187 11697996
10.211263 10.639256 3.703319 11697996
9.496516 9.418932 3.643299 11697996
10.447722 8.826941 2.596118 11697996
9.038587 10.150137 3.895324 11697996
10.921452 10.119636 3.925829 11697996
10.486823 10.843503 0.080444 11697996
11.058501 9.395323 3.891674 11697996
10.437810 10.279894 0.820991 11697996
11.165442 10.589983 3.725971 11697996
10.589718 9.422528 3.051770 11697996
10.749287 8.902900 3.502149 11697996
10.996200 9.800031 1.046439 11697996
9.313446 10.835796 0.589927 11697996
9.871393 9.950690 3.179721 11697996
8.996736 8.783137 3.683640 11697996
11.239281 10.284990 2.813023 11697996
9.678153 10.959399 2.395398 11697996
10.479844 9.817279 2.702222 11697996
10.289955 10.735581 2.981241 11697996
8.836386 8.834443 2.777750 11697996
10.624929 11.096160 1.917343 11697996
8.785732 9.052522 2.721504 11697996
9.285514 10.446021 2.120334 11697996
9.429980 9.026109 0.723144 11697996
9.181644 9.251250 2.175104 11697996
10.810982 9.201642 3.681621 11697996
11.160771 9.616343 0.263347 11697996
9.915769 10.411322 3.543461 11697996
9.282049 10.407451 2.218047 11697996
9.591821 9.104074 2.238054 11697996
10.626488 10.665462 0.027205 11697996
11.070240 11.153878 2.814245 11697996
10.720023 11.219148 0.075841 11697996
10.794036 9.993628 3.930049 11697996
10.172150 10.747615 3.840663 11697996
9.909030 8.776007 1.229345 11697996
10.914682 8.993735 3.187600 11697996
8.825833 9.497225 1.453232 11697996
9.982410 8.949474 1.308504 11697996
9.087422 10.308210 0.486937 11697996
10.772970 9.144340 3.312205 11697996
10.150253 9.590004 2.041288 11697996
9.702671 10.054895 3.977371 11697996
11.203926 11.194528 3.989259 11697996
9.841519 9.199534 3.467258 11697996
11.143021 9.750628 1.373532 11697996
9.053994 9.868116 2.918420 11697996
8.779910 10.477578 3.207883 11697996
10.348144 9.270816 3.413003 11697996
10.707551 9.536779 1.745208 11697996
10.421954 8.758784 1.754386 11697996
10.721236 9.868209 2.276815 11697996
8.833909 9.338623 2.947989 11697996
9.787227 10.893537 3.086880 11697996
9.508127 9.586340 3.532700 11697996
9.958631 9.774947 1.477383 11697996
8.866668 11.114524 3.024277 11697996
9.029955 10.326752 1.934507 11697996
8.769807 10.710425 0.101215 11697996
9.808179 9.323084 2.554950 11697996
11.208913 9.343244 1.281556 11697996
9.245477 9.867209 1.994351 11697996
8.936214 11.008994 0.540576 11697996
10.040780 10.015462 2.222446 11697996
9.824826 10.276047 3.055840 11697996
11.041977 10.617207 3.603465 11697996
8.821381 9.060014 1.994789 11697996
9.798566 8.911422 0.529561 11697996
10.382932 8.990540 3.351722 11697996
9.927694 10.240894 1.568476 11697996
10.259723 8.889119 1.456492 11697996
11.021511 9.253064 1.352825 11697996
10.195295 10.204489 3.178229 11697996
9.908465 9.214663 2.519709 11697996
10.465132 10.355626 1.335603 11697996
11.021074 10.926565 1.330436 11697996
8.972730 10.401746 0.705166 11697996
9.116646 10.265499 1.682688 11697996
9.012098 9.298755 0.111063 11697996
10.832598 9.155571 1.176084 11697996
10.413135 10.193877 2.245491 11697996
9.447414 10.837081 1.019251 11697996
8.923542 10.672523 1.395550 11697996
10.996030 10.739505 0.414907 11697996
10.017288 10.181171 2.644322 11697996
9.341846 10.684779 2.798325 11697996
10.838840 8.988491 3.832161 11697996
10.890293 10.054056 2.529433 11697996
9.723823 9.913017 3.956869 11697996
11.160701 11.011453 2.149027 11697996
10.483751 10.300649 1.357278 11697996
10.546388 9.316973 1.168230 11697996
10.768066 9.166368 2.782166 11697996
8.873871 10.781055 0.609450 11697996
10.379827 8.934864 2.982192 11697996
9.561368 9.866971 1.424913 11697996
9.356336 9.576823 0.399329 11697996
10.836351 10.495473 3.617676 11697996
10.599222 9.802783 3.880058 11697996
8.820124 10.865673 2.185312 11697996
9.678155 9.806099 2.987331 11697996
9.042053 8.762376 2.568418 11697996
11.064585 9.636194 1.568876 11697996
10.723206 10.836365 0.137963 11697996
9.368804 11.108985 2.727957 11697996
10.341534 10.201283 2.549843 11697996
9.564527 9.524243 2.055849 11697996
8.884247 9.969553 1.965066 11697996
9.113954 10.713448 0.867991 11697996
8.821341 10.813041 1.675345 11697996
9.776787 9.955702 2.056685 11697996
10.325583 8.960979 1.746230 11697996
9.500388 9.891546 0.571201 11697996
9.334283 9.655149 0.717936 11697996
8.815929 10.289349 3.138065 11697996
10.460719 10.273959 3.715424 11697996
10.770442 10.760609 0.036556 11697996
10.269171 10.149964 0.508321 11697996
11.015893 9.855580 1.882911 11697996
9.807284 9.276162 2.244922 11697996
10.062977 9.039292 0.091775 11697996
9.698293 10.028591 0.946506 11697996
10.558407 10.041945 1.574545 11697996
9.241733 11.107683 2.418531 11697996
9.712891 10.097866 0.763488 11697996
9.903335 10.922238 0.159961 11697996
10.391409 10.461824 2.068271 11697996
9.141503 10.025231 0.511794 11697996
8.851542 11.018708 0.861955 11697996
11.089118 9.362278 0.788928 11697996
10.160471 9.234578 2.606143 11697996
10.948541 10.876362 0.497854 11697996
10.453435 11.025705 2.162562 11697996
8.989207 10.333266 3.524719 11697996
9.420163 9.616497 0.124563 11697996
11.087696 9.024220 3.014329 11697996
11.115815 8.962430 3.882934 11697996
8.871190 10.513276 0.434775 11697996
8.878980 9.465010 0.733340 11697996
10.320619 11.159595 3.031440 11697996
8.808042 10.195454 0.870183 11697996
8.798491 8.800426 3.827248 11697996
11.242757 10.527253 2.122444 11697996
10.390997 9.032627 3.202600 11697996
9.327769 9.235906 0.545707 11697996
10.950589 9.744841 3.354142 11697996
10.604939 10.461514 0.431638 11697996
9.785538 8.957547 3.755137 11697996
9.320467 9.450570 2.405077 11697996
9.110693 9.248459 3.883930 11697996
9.814495 9.741886 2.000834 11697996
10.477009 10.542633 0.028715 11697996
9.546824 10.869246 1.253349 11697996
10.376654 10.442043 2.579256 11697996
10.988153 10.961601 0.608805 11697996
9.235033 9.477492 1.082429 11697996
9.570330 9.329700 2.843787 11697996
9.668532 10.327812 1.376063 11697996
10.086890 10.909007 3.168050 11697996
11.162279 9.784389 0.026960 11697996
9.470167 9.536819 0.943389 11697996
8.936103 10.684980 1.225706 11697996
9.119066 9.088962 3.665378 11697996
10.850537 9.814260 2.444739 11697996
11.228872 8.951293 3.995850 11697996
9.964248 10.814364 1.868838 11697996
8.936672 8.982029 0.978420 11697996
9.691380 10.186593 1.018840 11697996
10.326964 9.580279 1.544600 11697996
10.824623 10.412895 1.354215 11697996
10.252578 9.349011 3.940989 11697996
10.102401 9.552794 3.292994 11697996
8.999514 10.405312 0.931051 11697996
9.863214 9.220160 3.739065 11697996
11.140532 8.978095 2.088559 11697996
10.806067 10.778083 0.400357 11697996
9.177878 10.297148 0.845136 11697996
9.374134 11.099463 3.178965 11697996
9.818479 9.008524 0.136168 11697996
10.035110 9.636563 0.410785 11697996
8.842543 10.016641 2.480735 11697996
9.930799 11.082147 0.880452 11697996
10.441793 9.958421 0.052351 11697996
10.287377 9.621131 3.029750 11697996
10.031291 9.194164 3.343407 11697996
10.308588 9.817511 3.827270 11697996
9.333396 11.128399 1.628221 11697996
9.112843 10.504824 1.427063 11697996
8.874460 9.933883 2.255734 11697996
9.847157 10.246871 2.333622 11697996
10.867088 10.546666 1.402392 11697996
10.993515 9.903587 3.704166 11697996
10.287215 10.031968 2.659015 11697996
8.860221 9.611185 2.011125 11697996
10.939648 10.781264 1.453561 11697996
10.798296 8.874868 3.018929 11697996
9.061626 10.292385 3.207356 11697996
10.783523 8.935605 1.571537 11697996
9.244443 10.918608 0.490338 11697996
10.783553 9.947985 0.048481 11697996
10.719697 10.353785 3.569234 11697996
10.872122 10.972857 2.290637 11697996
10.064602 9.531795 3.335468 11697996
10.968582 10.257274 0.249353 11697996
8.890619 9.313883 2.602093 11697996
9.408616 8.832400 2.990637 11697996
9.393000 10.137815 1.922604 11697996
10.783284 10.801255 3.232381 11697996
8.972639 8.946286 0.471709 11697996
10.842906 10.639874 3.112313 11697996
9.946730 10.066173 3.259248 11697996
11.201801 10.658318 2.867555 11697996
11.068386 10.068344 1.983635 11697996
9.209287 9.993600 2.823576 11697996
10.604667 10.775592 3.217820 11697996
9.391138 10.740106 1.751852 11697996
11.182274 9.439657 3.525171 11697996
10.967088 9.574121 1.004033 11697996
8.910300 11.043603 0.422647 11697996
8.849238 10.916607 0.133425 11697996
10.201196 10.036260 1.351991 11697996
10.619173 10.251306 1.463820 11697996
8.934463 9.983382 3.779293 11697996
10.464751 10.555566 1.809085 11697996
9.641909 11.137086 2.700579 11697996
10.891757 9.680067 3.168162 11697996
8.842833 10.960633 3.923199 11697996
10.874269 10.424904 1.872571 11697996
10.747034 9.694701 1.122993 11697996
9.780396 9.420395 0.374553 11697996
10.046660 10.066359 2.706227 11697996
9.759584 11.151225 0.778205 11697996
8.969781 10.005025 3.963892 11697996
10.482262 9.808436 3.138515 11697996
9.402956 9.749370 0.674702 11697996
8.970782 11.134019 3.057048 11697996
9.272864 9.050201 3.718785 11697996
11.111861 9.024944 2.157557 11697996
11.233074 10.794631 0.940084 11697996
10.865316 10.608738 3.674411 11697996
9.086604 9.643334 3.945989 11697996
10.757780 10.604897 2.194952 11697996
10.654557 10.549496 0.475064 11697996
9.204443 9.017621 1.645106 11697996
9.319146 9.961290 3.747880 11697996
8.879462 9.634218 1.858611 11697996
10.666823 8.972638 1.606365 11697996
10.696808 10.519343 2.344057 11697996
10.631971 9.806903 1.838148 11697996
10.872236 10.093553 3.988997 11697996
9.037048 9.453339 2.764251 11697996
10.444925 9.713234 3.152570 11697996
10.757557 9.019105 2.204496 11697996
9.119779 10.805659 0.150537 11697996
9.271125 11.075232 3.237657 11697996
9.882898 10.941666 0.825073 11697996
10.875564 10.734205 0.868615 11697996
9.159883 9.474137 1.057528 11697996
10.432585 9.662375 3.605524 11697996
10.881762 11.192299 0.729996 11697996
9.235422 11.129978 2.159410 11697996
9.610453 10.671700 1.804255 11697996
10.081291 9.881701 3.949778 11697996
9.369247 10.919816 2.707641 11697996
10.842924 10.497104 3.167493 11697996
10.823090 10.878408 3.067464 11697996
9.745863 10.543805 1.324058 11697996
10.815425 9.336802 1.155800 11697996
9.981995 9.383115 0.562032 11697996
9.003841 9.593805 1.067006 11697996
9.145064 9.157642 0.208213 11697996
9.301678 10.298749 3.853322 11697996
9.730773 8.914558 0.440163 11697996
9.194882 8.742472 2.279120 11697996
10.860320 9.163596 2.983867 11697996
8.891488 9.675963 3.881582 11697996
9.578226 10.126153 3.676951 11697996
11.083871 9.238503 0.918215 11697996
10.728848 9.454674 1.235013 11697996
9.843893 9.609578 1.611826 11697996
8.781837 11.151389 2.171203 11697996
11.150431 10.264965 2.354618 11697996
11.190595 9.577426 1.190893 11697996
11.226227 9.794047 0.701210 11697996
9.119222 9.772337 2.507971 11697996
9.142054 10.312278 3.243853 11697996
9.541646 9.412640 2.853997 11697996
8.806940 9.555711 3.737385 11697996
10.167764 10.826854 2.608716 11697996
10.615754 10.301889 3.815628 11697996
9.959890 10.111548 3.898770 11697996
8.814983 8.916027 1.689045 11697996
10.230571 8.948065 0.253001 11697996
9.095229 10.975058 0.789368 11697996
8.794691 8.892486 3.107718 11697996
9.925296 8.927659 3.154191 11697996
11.152005 10.959361 2.188551 11697996
9.249290 8.778907 0.919588 11697996
8.978781 9.103919 1.626827 11697996
9.292817 10.208597 1.394306 11697996
10.505687 8.803042 3.266438 11697996
10.739079 9.818204 3.701298 11697996
9.601559 9.716566 0.421610 11697996
9.358475 8.801756 3.319424 11697996
10.696666 9.564000 2.413806 11697996
10.166862 9.529353 3.967149 11697996
9.579983 9.782393 1.670645 11697996
9.790191 10.117037 3.021028 11697996
10.009274 9.389665 1.879151 11697996
10.711604 10.925047 1.419113 11697996
9.959213 8.837000 1.502283 11697996
9.206323 10.419985 1.937393 11697996
9.133534 11.051204 2.077852 11697996
10.008153 9.795971 3.629184 11697996
11.037389 10.095182 0.172398 11697996
9.374318 10.938734 1.403134 11697996
9.864887 10.201847 3.397985 11697996
11.247861 10.689295 0.212408 11697996
10.019610 9.584925 1.293673 11697996
10.899383 9.399887 2.352612 11697996
10.589249 8.779537 1.627301 11697996
8.855868 10.789739 2.388709 11697996
9.061725 9.460229 1.795564 11697996
9.218569 8.871944 3.787229 11697996
9.789289 9.081102 1.113047 11697996
9.583623 8.815632 3.036639 11697996
10.583860 8.760979 2.815819 11697996
11.167609 9.447817 0.276292 11697996
11.228116 9.897166 2.905364 11697996
10.162219 11.197345 0.664863 11697996
10.013045 10.778901 2.012430 11697996
9.786578 10.468174 1.080588 11697996
10.694652 9.829391 2.501634 11697996
10.738008 8.859660 1.751720 11697996
10.663986 9.187013 0.602046 11697996
10.440467 10.721069 0.671543 11697996
8.776720 9.261135 3.403523 11697996
9.957021 10.374497 1.010843 11697996
10.038006 10.813202 1.703425 11697996
8.883422 10.252473 3.848783 11697996
9.420090 10.032470 1.566253 11697996
10.829910 9.811337 1.628913 11697996
8.817860 8.902234 1.094612 11697996
9.411549 11.106508 1.680265 11697996
10.896276 9.511619 1.643546 11697996
8.802198 11.228514 2.951040 11697996
8.884009 10.100843 0.900638 11697996
10.586518 10.746027 0.844748 11697996
9.074341 8.855290 2.637611 11697996
10.036365 9.544901 2.594772 11697996
8.816276 10.097393 3.356962 11697996
10.601359 9.485791 2.546873 11697996
8.913545 9.849599 0.533796 11697996
9.576119 10.166336 3.942375 11697996
8.791893 9.907792 1.324150 11697996
9.191405 10.325302 3.131248 11697996
11.189913 11.042187 0.869158 11697996
9.794154 9.894350 0.344559 11697996
9.648665 9.862196 0.236309 11697996
11.029536 9.938247 1.383918 11697996
9.234595 11.169812 0.618337 11697996
11.076512 11.083827 2.959822 11697996
11.097891 10.680664 1.359235 11697996
10.463640 10.491298 0.198178 11697996
10.042699 11.172787 1.512273 11697996
10.529183 10.235261 3.825882 11697996
9.410872 10.504460 0.569355 11697996
10.603394 9.440026 3.145358 11697996
10.231192 10.705090 0.753494 11697996
8.824220 10.030311 1.655794 11697996
11.152678 9.714039 1.537580 11697996
8.937942 9.302843 3.418169 11697996
10.315073 8.860544 3.589131 11697996
10.459044 8.868135 3.918118 11697996
9.287072 9.104227 2.135317 11697996
10.457761 10.827722 0.592438 11697996
10.666934 9.683248 0.397786 11697996
10.639037 9.855848 1.908689 11697996
9.425693 9.811626 3.631459 11697996
8.928431 9.162651 2.858346 11697996
10.323752 9.186355 2.836033 11697996
10.059072 11.066313 3.070951 11697996
10.312085 10.579853 3.480661 11697996
10.096539 10.095485 0.871024 11697996
9.935695 9.596780 0.436718 11697996
9.514011 11.023968 1.461205 11697996
10.138782 8.897928 1.141347 11697996
10.090743 11.174307 2.624956 11697996
10.101953 9.374230 2.256770 11697996
9.024556 8.843536 0.212686 11697996
9.274030 9.232027 2.081105 11697996
9.300897 10.878334 0.859144 11697996
11.191731 9.691085 1.974356 11697996
10.542147 11.212186 2.025775 11697996
9.163194 11.044838 0.588549 11697996
8.789085 11.219897 0.092192 11697996
9.418316 10.107815 0.766583 11697996
10.618422 10.531815 2.610450 11697996
10.739777 10.365362 1.038370 11697996
9.578501 10.990041 1.510558 11697996
9.031880 9.029034 1.545147 11697996
9.710644 11.000757 1.294314 11697996
9.753788 9.088327 0.590002 11697996
9.223430 8.969721 2.037666 11697996
10.928480 10.437244 0.064666 11697996
10.576617 9.259787 1.838830 11697996
10.003239 9.949457 1.137484 11697996
10.333312 10.513143 3.137667 11697996
9.989327 10.978487 0.348687 11697996
9.134739 10.538140 3.459980 11697996
9.651439 11.218678 3.378461 11697996
8.981257 10.578715 0.482055 11697996
10.129366 8.870215 3.269943 11697996
10.773329 10.313738 0.802833 11697996
10.099589 8.878179 2.470409 11697996
11.253493 9.075001 0.461842 11697996
9.533974 9.197884 0.620507 11697996
11.238018 8.986885 3.303714 11697996
9.180115 9.746095 0.741822 11697996
9.336536 9.232594 3.954847 11697996
10.493133 9.223895 2.523126 11697996
9.824151 9.377899 0.999667 11697996
10.029058 11.191339 2.949170 11697996
11.094399 10.352489 0.273581 11697996
10.828493 9.287978 1.016694 11697996
10.601227 10.660214 3.150573 11697996
10.565424 10.914881 1.463240 11697996
9.954751 9.030675 0.785053 11697996
10.707957 9.767804 0.210445 11697996
9.057466 9.972237 0.462166 11697996
10.803770 9.635857 1.421478 11697996
10.630939 11.226789 3.939925 11697996
10.665048 9.587769 3.763074 11697996
11.146077 9.909824 2.964333 11697996
11.100828 9.975251 3.046962 11697996
8.811702 10.857084 2.786396 11697996
11.080655 9.841286 2.795230 11697996
9.292174 9.788445 3.452273 11697996
9.331326 8.966706 3.408769 11697996
9.839869 10.724845 2.556705 11697996
10.920509 9.218912 0.168216 11697996
10.720606 10.495253 1.300849 11697996
9.915675 10.705505 2.343653 11697996
9.113941 10.429268 1.805737 11697996
10.225121 9.320600 2.203741 11697996
11.040497 10.181078 0.212054 11697996
10.049030 11.173143 2.934625 11697996
10.615600 11.011540 3.815881 11697996
9.770782 8.817596 1.556199 11697996
9.586138 9.461986 1.398415 11697996
10.674237 10.717825 1.624357 11697996
9.607042 10.473683 2.762067 11697996
10.216807 11.242019 0.279706 11697996
9.622340 8.865610 3.309149 11697996
9.490252 10.316178 3.173878 11697996
10.340017 9.089760 3.328154 11697996
9.409852 10.354298 2.970481 11697996
9.621881 10.630948 1.714303 11697996
9.084527 10.800789 2.134924 11697996
10.796025 10.513984 0.906130 11697996
10.836922 10.940995 3.703951 11697996
10.701623 10.966323 1.672146 11697996
11.181089 9.273615 3.294859 11697996
9.841973 11.241062 1.729196 11697996
8.841429 8.792156 2.477715 11697996
9.174771 10.101989 3.128473 11697996
10.565554 10.043822 0.222197 11697996
8.869119 10.198222 3.406934 11697996
10.316772 9.522300 0.833722 11697996
10.236742 8.961486 1.406107 11697996
9.617467 8.916780 3.596089 11697996
9.783398 9.791115 1.560410 11697996
10.872193 9.970498 3.082654 11697996
10.690056 10.354773 3.283373 11697996
10.788033 10.479490 0.665321 11697996
10.738894 10.217181 3.858658 11697996
11.078240 9.514371 1.668371 11697996
9.521647 10.800151 2.607110 11697996
10.228516 8.770894 3.125288 11697996
11.176849 9.498127 2.693957 11697996
10.324364 10.064497 2.061914 11697996
10.337584 10.037087 1.000476 11697996
8.901054 10.985588 3.445792 11697996
10.669130 9.903205 1.766334 11697996
9.461866 9.983781 2.168194 11697996
10.104720 10.709749 3.239837 11697996
9.262978 10.466565 1.892997 11697996
9.234665 9.719879 2.732584 11697996
9.806062 9.143598 3.548984 11697996
9.613856 11.032861 1.997276 11697996
10.602388 8.841115 1.282332 11697996
8.932479 11.157063 0.043484 11697996
11.023638 10.361762 2.064384 11697996
8.893620 11.189915 0.018776 11697996
9.280241 11.118284 1.598009 11697996
10.127034 9.151200 1.476130 11697996
9.190367 10.608422 0.537504 11697996
10.814331 10.939870 3.778960 11697996
10.164902 9.797946 2.687664 11697996
10.933682 10.440818 2.323006 11697996
11.156552 9.915471 2.117924 11697996
9.972939 10.223948 2.207909 11697996
10.006480 10.213596 2.019586 11697996
8.889615 9.508815 0.957948 11697996
10.401548 11.020094 2.200584 11697996
10.990623 10.941290 1.687242 11697996
9.946245 8.830117 0.520792 11697996
9.329247 10.371814 3.329054 11697996
11.172631 9.222404 3.205703 11697996
11.118181 10.629631 2.396876 11697996
10.877089 11.152920 1.202795 11697996
10.742799 9.579068 2.703754 11697996
9.993088 10.799911 1.059784 11697996
11.075991 10.034669 1.286066 11697996
8.993859 10.067335 2.571221 11697996
10.049635 10.391979 0.443247 11697996
10.833794 9.904355 3.411446 11697996
9.858464 10.376663 3.097895 11697996
10.118438 11.141921 1.598309 11697996
9.569375 9.947476 1.539151 11697996
10.310410 10.201888 3.242462 11697996
10.895105 10.674007 3.167056 11697996
10.743233 10.652729 0.887759 11697996
10.708066 10.113747 1.564355 11697996
9.694122 10.667132 3.968721 11697996
10.844565 9.581100 1.409815 11697996
9.097177 10.147128 3.925864 11697996
9.174540 9.557124 0.247466 11697996
10.981342 10.928644 1.623439 11697996
10.148093 10.251458 2.365790 11697996
9.555201 10.936786 1.833750 11697996
10.150587 10.713230 0.209744 11697996
10.880682 8.863582 0.808685 11697996
9.087969 10.855574 0.676476 11697996
11.001870 11.012919 0.506414 11697996
10.069986 10.142512 3.193095 11697996
10.402341 9.964842 0.211799 11697996
10.233548 8.955655 1.577926 11697996
9.319977 8.917765 1.490780 11697996
8.987593 10.327062 3.074761 11697996
10.479592 9.345431 1.529933 11697996
9.132883 9.342822 3.708665 11697996
9.500015 9.209587 0.596990 11697996
10.363204 11.067483 1.163818 11697996
10.505651 9.171007 1.462172 11697996
11.145858 10.358376 1.900759 11697996
10.633782 9.000177 3.674692 11697996
10.939679 10.814966 0.805889 11697996
10.886863 9.176047 1.488807 11697996
9.572543 11.172855 1.852727 11697996
8.932250 10.197867 1.790279 11697996
11.205795 10.144077 0.236099 11697996
10.028116 10.970361 3.608911 11697996
10.608257 10.329741 0.273801 11697996
8.829441 10.581491 0.595823 11697996
8.986997 8.844983 1.469674 11697996
10.903823 9.450864 0.163422 11697996
10.378799 9.452038 3.741626 11697996
10.235580 10.425468 0.758929 11697996
10.403747 10.769831 0.160384 11697996
10.803430 9.154492 1.223309 11697996
10.960720 9.801852 3.738322 11697996
10.428251 9.578245 1.602638 11697996
8.815054 8.941493 0.550781 11697996
10.164342 10.292206 3.700989 11697996
9.250062 11.016254 0.649597 11697996
10.774182 8.819537 0.547461 11697996
8.980959 10.717761 2.533878 11697996
10.734641 9.454616 3.117900 11697996
9.535857 9.797578 0.831791 11697996
10.956945 11.187257 2.345937 11697996
9.603392 10.558280 2.856557 11697996
9.682758 11.121960 1.270669 11697996
9.811576 11.117397 2.746384 11697996
10.338103 10.291639 3.000572 11697996
10.439382 10.648452 3.534560 11697996
10.889007 10.701294 1.451795 11697996
9.122008 10.921691 2.649632 11697996
10.869088 9.636051 0.381404 11697996
10.994852 10.528362 3.128570 11697996
8.800975 9.092124 3.981787 11697996
9.491822 9.427291 2.519820 11697996
10.743769 10.248256 2.484767 11697996
8.800451 9.491138 0.669606 11697996
10.254524 9.229318 3.733444 11697996
10.156003 9.077752 2.552556 11697996
10.367577 11.022489 2.561357 11697996
9.081232 9.501700 1.912491 11697996
10.042384 9.375985 2.248380 11697996
9.186494 9.384151 0.664310 11697996
11.047569 9.585748 3.939240 11697996
10.247242 10.727789 1.846132 11697996
11.030841 9.991985 2.409863 11697996
10.277367 10.969337 1.699754 11697996
9.655319 9.759079 3.321507 11697996
10.588559 8.878061 1.977529 11697996
9.284405 10.685607 1.506024 11697996
9.376545 9.284309 2.098242 11697996
9.139853 9.112781 3.239324 11697996
9.344469 10.484902 2.034316 11697996
11.086270 9.034079 2.320178 11697996
11.145870 9.927413 2.412559 11697996
9.305516 11.203194 2.970183 11697996
9.622705 11.243754 1.203514 11697996
9.036905 9.503319 3.199712 11697996
11.188361 8.947355 1.389674 11697996
10.216557 9.936399 1.694925 11697996
10.083416 10.478344 2.661661 11697996
9.330337 9.164846 0.749028 11697996
9.959635 9.416562 0.386333 11697996
9.066451 8.922194 1.381268 11697996
8.813595 10.339902 2.384180 11697996
9.754050 8.949610 2.955048 11697996
10.153134 10.988330 0.860578 11697996
11.039522 9.241948 3.984666 11697996
10.804936 9.000779 1.283019 11697996
9.619258 9.957511 2.835603 11697996
10.083797 9.353127 2.830452 11697996
10.074134 11.119135 3.068360 11697996
11.010293 10.864826 3.168768 11697996
9.393739 10.889678 1.009906 11697996
9.510970 10.777704 1.075372 11697996
8.751445 9.327074 0.063872 11697996
10.528619 10.773775 2.027100 11697996
10.455381 10.661274 2.473050 11697996
10.182928 9.107163 2.926574 11697996
10.331890 9.621290 3.703076 11697996
9.155988 10.700857 3.709176 11697996
9.683908 10.878794 2.550575 11697996
11.018042 9.889111 0.447000 11697996
10.606099 10.843060 3.335678 11697996
10.774172 10.258851 2.089411 11697996
10.360538 10.408895 0.320773 11697996
11.033936 10.465422 2.635564 11697996
9.694747 9.678237 2.621851 11697996
11.124390 10.943954 1.308953 11697996
9.419473 9.472451 3.134809 11697996
10.918670 8.933632 3.578747 11697996
11.226940 9.822641 1.945459 11697996
10.434025 10.319764 2.649949 11697996
9.701435 9.103373 0.436551 11697996
11.232333 10.407110 0.279123 11697996
9.989174 9.263846 0.971895 11697996
10.412696 10.346336 2.384595 11697996
10.829297 8.762050 1.190708 11697996
9.968612 9.049125 0.550610 11697996
9.704393 11.173005 0.822446 11697996
10.126595 9.152525 1.168209 11697996
8.886456 9.506407 1.576214 11697996
9.716242 8.918866 1.715827 11697996
9.824763 9.835629 1.036877 11697996
10.107316 10.840954 3.360593 11697996
10.270357 8.936479 1.139518 11697996
9.070335 10.218927 1.324861 11697996
11.087407 8.890885 2.009780 11697996
11.081462 9.348354 2.230299 11697996
11.049562 9.180347 3.968107 11697996
8.889409 10.411768 2.294333 11697996
8.887325 10.428656 0.486878 11697996
9.047523 11.115340 3.745962 11697996
9.207548 9.698698 0.780479 11697996
9.235313 10.768704 1.393314 11697996
9.330520 10.739760 1.310753 11697996
11.005753 10.256188 1.971956 11697996
10.406004 10.536362 2.560102 11697996
8.853068 10.230960 3.303190 11697996
9.486002 10.217182 3.574948 11697996
9.067785 10.920161 3.160677 11697996
11.158128 10.298073 0.730653 11697996
9.430299 9.067656 2.454300 11697996
9.124333 10.050173 1.061794 11697996
11.078543 9.473197 2.039744 11697996
10.804644 9.512617 0.294762 11697996
9.789438 10.385413 1.863347 11697996
10.255421 10.114564 1.175103 11697996
8.726118 10.433170 3.066546 11697996
10.312724 9.213120 1.367262 11697996
9.764440 9.306327 0.048478 11697996
9.268933 9.961936 2.856866 11697996
10.543143 9.519527 0.883791 11697996
10.206355 10.200010 3.571672 11697996
8.939558 11.103092 1.855096 11697996
11.034781 9.209494 1.339469 11697996
9.201240 9.790587 2.950149 11697996
8.939619 9.063643 2.149594 11697996
9.421444 10.224005 1.059109 11697996
11.070071 9.633106 3.508160 11697996
9.608741 10.088147 1.939147 11697996
10.579056 11.188092 0.071530 11697996
9.667007 9.631749 1.384528 11697996
10.781879 8.905866 3.662512 11697996
9.602866 10.411132 0.292288 11697996
10.784307 10.020746 2.904304 11697996
9.103025 10.046208 3.790338 11697996
9.018950 10.831341 3.486009 11697996
10.682773 8.934872 1.525107 11697996
9.128974 10.569451 2.718301 11697996
9.949934 10.033367 3.945228 11697996
10.117367 10.896913 2.263186 11697996
9.850786 10.134004 0.328363 11697996
8.875673 8.926276 2.159684 11697996
10.232601 9.769313 3.848434 11697996
10.626519 11.161036 2.216091 11697996
9.300578 10.089746 3.176167 11697996
9.858912 9.915689 2.614882 11697996
8.929889 10.246410 0.203385 11697996
10.797370 10.469584 1.922688 11697996
10.171082 9.682201 3.336616 11697996
10.966035 10.202151 3.411474 11697996
8.948296 9.212796 3.920624 11697996
9.312612 10.832067 3.338603 11697996
10.278994 10.759367 0.998939 11697996
10.812611 9.902491 2.255400 11697996
10.465026 8.729118 3.500287 11697996
10.835798 8.927219 0.868498 11697996
9.389739 10.218584 2.542762 11697996
9.089370 10.852340 1.164867 11697996
10.334544 8.820749 3.308464 11697996
9.677148 10.842033 2.906483 11697996
9.881403 10.543536 1.149819 11697996
11.130759 10.999708 1.432478 11697996
9.574528 8.825493 3.901375 11697996
10.777652 9.849853 2.313900 11697996
8.738633 9.320088 1.199667 11697996
10.821140 11.107046 3.741807 11697996
10.674009 10.950956 2.520216 11697996
9.488010 9.759036 1.186371 11697996
10.219109 9.276832 2.032801 11697996
9.773921 10.000961 2.757602 11697996
10.006316 9.704924 0.839432 11697996
10.326284 11.223634 1.896563 11697996
10.663355 9.166722 0.192536 11697996
9.528484 10.702262 1.222614 11697996
11.179335 11.021948 2.599812 11697996
10.519916 9.733110 2.095959 11697996
8.989408 10.365524 3.903053 11697996
9.196328 10.603018 0.144265 11697996
10.256615 10.049951 3.655841 11697996
10.762081 10.607450 3.091839 11697996
9.609653 11.238526 3.651632 11697996
9.356855 9.242202 2.997827 11697996
9.980447 9.279670 1.225789 11697996
9.147660 8.948842 0.835152 11697996
10.396120 9.653222 3.130931 11697996
10.566651 11.049299 2.238588 11697996
10.195979 8.945026 0.511759 11697996
10.736826 10.101165 3.465832 11697996
9.083468 10.967499 2.161644 11697996
11.036356 10.105645 1.563137 11697996
10.629122 10.415110 0.581258 11697996
8.837300 10.813207 2.849854 11697996
8.825096 10.486894 0.262337 11697996
9.389791 10.148143 3.525086 11697996
9.044557 9.310848 2.133510 11697996
9.674773 9.745907 2.074527 11697996
10.345780 10.042434 1.873544 11697996
9.237638 9.347871 2.349063 11697996
9.519888 10.863236 3.372070 11697996
10.024070 10.018366 3.345014 11697996
10.656204 8.799604 0.846920 11697996
9.195750 11.266537 3.924296 11697996
9.395370 9.874101 0.983022 11697996
8.859926 11.206216 2.719029 11697996
10.108105 9.590558 3.415380 11697996
11.255246 10.335570 0.197235 11697996
9.321122 9.012077 2.739050 11697996
8.921771 9.303216 1.302258 11697996
9.012316 9.750677 1.649318 11697996
8.897532 9.697029 2.186918 11697996
11.053120 11.073813 3.611088 11697996
10.417127 9.858995 3.028010 11697996
8.773947 9.707227 3.483610 11697996
10.283596 9.604239 0.352748 11697996
10.466832 10.581079 1.882256 11697996
10.751694 9.639030 0.082205 11697996
11.157849 8.950511 3.957613 11697996
10.564322 10.444410 2.021281 11697996
10.200830 10.211269 0.749822 11697996
9.999126 9.135163 1.483097 11697996
11.108755 9.278519 2.200361 11697996
9.053457 11.177588 0.941660 11697996
9.016650 9.465263 3.326968 11697996
10.499068 9.975486 2.767072 11697996
8.771171 11.197908 1.137735 11697996
10.540495 9.777515 3.065744 11697996
9.138006 10.666962 3.382194 11697996
9.093098 10.163404 4.004611 11697996
10.938569 10.253531 1.947952 11697996
10.903532 9.641526 1.023724 11697996
9.421946 8.969131 3.857334 11697996
8.757953 9.810676 2.473623 11697996
10.243294 10.450779 1.876838 11697996
11.072480 10.909491 3.572155 11697996
8.853335 9.459233 3.903618 11697996
9.897473 9.109098 3.465711 11697996
10.002654 9.612558 2.140459 11697996
8.943446 9.977990 2.435340 11697996
9.619265 9.900210 3.727821 11697996
9.944960 10.925471 2.675807 11697996
10.932119 11.126966 0.871541 11697996
9.328267 9.078081 0.087467 11697996
9.698257 10.886539 0.112047 11697996
10.160424 10.325645 3.559348 11697996
10.939009 9.043247 0.936076 11697996
9.318744 11.056603 1.768177 11697996
10.174478 9.229364 2.188123 11697996
8.767734 10.020680 0.787077 11697996
9.744552 9.857741 3.959494 11697996
9.923946 11.207910 2.362565 11697996
9.353347 10.914566 2.964322 11697996
10.671316 9.630157 2.224504 11697996
10.919895 9.062707 2.771603 11697996
10.899735 10.884101 1.829537 11697996
11.250786 9.883920 2.221659 11697996
9.642283 9.354636 2.509615 11697996
9.302155 8.846673 2.949412 11697996
11.031559 8.992502 2.678637 11697996
9.874345 8.804047 0.600468 11697996
9.796739 9.036382 3.563645 11697996
10.982038 9.811955 0.814869 11697996
11.121186 9.028525 3.683544 11697996
10.479256 9.155814 2.272258 11697996
10.749404 10.424901 1.391335 11697996
9.354538 10.594296 0.160159 11697996
9.381737 10.689477 2.738263 11697996
9.536147 9.315878 3.923909 11697996
9.026948 10.969051 2.190261 11697996
9.748780 9.928026 0.528002 11697996
10.528119 10.109429 1.798074 11697996
11.200185 11.044964 0.271715 11697996
8.929661 10.450721 2.826945 11697996
10.403925 10.011896 1.574457 11697996
10.576455 10.337033 0.787440 11697996
10.549891 9.674408 3.560024 11697996
11.059508 8.862032 0.307646 11697996
11.019777 11.206883 0.010440 11697996
10.764567 9.752607 3.559367 11697996
9.670767 10.794172 3.369873 11697996
9.524346 9.449913 2.240745 11697996
10.530848 9.555743 1.577425 11697996
11.023420 9.456132 1.955825 11697996
10.417288 9.989974 0.537133 11697996
9.786121 11.152577 2.391633 11697996
11.107526 8.899580 2.324930 11697996
10.993170 9.633088 2.540667 11697996
9.716241 10.915048 2.636269 11697996
9.154256 10.363102 0.904336 11697996
9.281812 8.825833 2.197963 11697996
11.060840 9.851644 3.003793 11697996
9.407488 10.916224 1.310663 11697996
10.268616 9.268808 1.493289 11697996
9.630114 10.436210 1.970995 11697996
9.717961 9.157380 2.261625 11697996
9.223492 9.111908 0.667709 11697996
10.515996 11.076905 3.431479 11697996
9.881124 9.774480 2.159649 11697996
10.122077 9.161725 3.311662 11697996
10.437671 10.081011 1.501228 11697996
9.231122 10.875907 1.180393 11697996
9.615522 10.249346 3.927190 11697996
9.789603 8.979856 3.532851 11697996
8.923180 9.491167 0.301743 11697996
10.623899 10.433772 0.121517 11697996
9.331532 10.469699 1.908962 11697996
10.534374 8.966382 2.440157 11697996
10.491261 10.299495 0.607082 11697996
9.947289 10.069527 3.650255 11697996
9.729304 9.707831 0.613292 11697996
11.209556 10.488986 2.795502 11697996
9.682226 10.635268 1.951208 11697996
9.166590 10.846643 3.775947 11697996
9.244184 11.066112 1.236036 11697996
11.106062 11.120515 3.822608 11697996
10.370999 10.191124 2.401484 11697996
9.895840 10.078125 3.621771 11697996
9.102468 9.120447 1.806632 11697996
9.565145 9.943048 3.309132 11697996
10.927444 9.275957 0.129929 11697996
11.080747 9.188778 0.649650 11697996
9.791697 11.096834 2.593707 11697996
10.979279 9.351620 1.435945 11697996
9.263248 9.898685 2.543147 11697996
11.188861 11.125479 0.847624 11697996
11.192238 10.569114 1.821405 11697996
10.331662 8.822541 3.743484 11697996
9.309936 9.714341 3.176890 11697996
10.324281 9.032970 0.881825 11697996
9.579339 9.435772 0.044000 11697996
10.080197 8.874790 3.146163 11697996
10.780790 10.413168 3.066192 11697996
8.770746 9.119179 3.486986 11697996
10.005132 9.564700 1.123339 11697996
10.361052 9.451029 2.304204 11697996
11.124252 9.639205 3.439450 11697996
9.891986 11.177753 3.222507 11697996
10.967978 10.519690 2.643471 11697996
10.664172 10.393098 0.619415 11697996
9.009749 9.105431 2.284638 11697996
10.174617 9.520849 3.767302 11697996
10.831080 10.738263 0.704760 11697996
11.245477 8.811332 0.923637 11697996
9.311237 9.602086 3.813406 11697996
11.238535 10.248142 1.569676 11697996
10.919419 9.422901 1.675651 11697996
11.007110 10.172039 2.407017 11697996
8.851336 10.780089 1.265429 11697996
9.590165 9.857677 0.355183 11697996
10.316441 9.033671 3.267469 11697996
9.576618 8.810576 1.284670 11697996
11.021194 9.131793 1.169788 11697996
10.352227 8.801507 0.408318 11697996
9.879819 9.666118 2.816393 11697996
10.832207 9.750097 3.939321 11697996
9.036575 9.290796 3.413158 11697996
10.052560 10.874627 0.725835 11697996
10.125573 8.791281 3.076859 11697996
10.846843 9.312253 3.595078 11697996
9.530767 9.774108 3.421450 11697996
9.497464 8.944427 3.485838 11697996
10.140506 9.189779 1.309084 11697996
10.580749 9.088940 1.768268 11697996
9.844405 10.888433 3.651462 11697996
11.078348 9.673671 3.514034 11697996
9.770263 10.923944 3.234928 11697996
10.061673 9.527451 0.533804 11697996
9.218261 9.274913 2.862082 11697996
10.449118 8.970161 3.140269 11697996
9.863918 9.587469 0.448197 11697996
8.814962 10.856433 3.308604 11697996
10.290013 9.643033 0.686750 11697996
10.484566 10.907565 1.673527 11697996
9.756919 10.728736 1.958650 11697996
9.259843 10.196285 2.031793 11697996
10.556296 10.673308 3.669171 11697996
10.091369 9.881087 3.153993 11697996
9.942744 9.694250 1.605998 11697996
9.346009 9.852750 3.452367 11697996
9.897636 11.163988 3.845315 11697996
8.991138 11.161032 0.985662 11697996
10.566751 10.115464 0.142467 11697996
10.547525 10.328161 1.792282 11697996
10.093584 9.092183 0.800989 11697996
9.383470 9.555292 2.580677 11697996
11.096489 10.964103 1.026588 11697996
10.664284 11.108372 1.075140 11697996
9.573487 10.418832 1.008088 11697996
8.845161 11.197603 1.601294 11697996
10.210500 10.072133 2.955742 11697996
8.959178 9.297160 1.943340 11697996
11.028484 9.036933 0.636302 11697996
9.808970 8.771770 0.781059 11697996
9.173166 10.436016 1.668815 11697996
10.843599 9.235325 0.541314 11697996
9.872319 9.588396 2.800837 11697996
9.772901 10.236266 0.247317 11697996
11.020526 10.460633 0.432146 11697996
9.495450 10.110276 1.505144 11697996
8.786868 11.108836 2.484321 11697996
10.312299 9.491214 0.524063 11697996
10.661626 8.881547 0.200760 11697996
11.238194 9.427145 2.631982 11697996
9.493645 10.737647 1.248887 11697996
10.211460 8.991839 1.010145 11697996
10.714170 10.845289 1.718609 11697996
9.509776 9.979626 2.340652 11697996
10.354713 9.146221 0.487692 11697996
10.604187 9.059220 2.449388 11697996
10.737305 10.150459 1.200616 11697996
9.393481 9.204078 1.739358 11697996
9.887678 10.274354 2.013470 11697996
9.160869 9.060794 1.668792 11697996
9.646944 8.992123 2.460942 11697996
9.496818 11.222437 1.581183 11697996
11.170208 9.630600 1.524048 11697996
9.636500 8.839001 0.367805 11697996
10.326924 10.658693 2.633274 11697996
10.987574 8.779794 2.041289 11697996
9.532131 9.072564 0.049332 11697996
9.987134 10.356346 2.647930 11697996
9.429200 9.651600 1.607326 11697996
9.415226 10.701522 2.859889 11697996
9.922090 9.749718 1.015788 11697996
9.149247 10.260739 2.869547 11697996
9.417305 10.660746 0.795801 11697996
10.076013 9.752824 3.918218 11697996
9.070901 10.585030 2.223424 11697996
8.767785 8.931538 1.151830 11697996
10.603854 9.174640 1.329347 11697996
10.079845 9.677588 2.242539 11697996
11.111411 10.356968 0.215403 11697996
11.124920 10.322142 3.493665 11697996
9.067951 10.219004 1.808209 11697996
9.897470 10.871765 3.225176 11697996
10.678142 10.683569 1.179041 11697996
11.157298 10.128687 1.958610 11697996
10.935439 11.232003 1.335370 11697996
10.748906 11.053424 3.772306 11697996
