# .PCD v0.7 - Point Cloud Data file format
VERSION 0.7
FIELDS x y z rgb
SIZE 4 4 4 4
TYPE F F F U
COUNT 1 1 1 1
WIDTH 1282
HEIGHT 1
VIEWPOINT 0 0 0 1 0 0 0
POINTS 1282
DATA ascii
10.979941 10.554579 2.644259 11697996
10.697116 10.425131 0.616804 11697996
9.005421 9.114941 2.295097 11697996
10.186928 9.513736 3.768779 11697996
10.811152 10.709746 0.725288 11697996
11.221119 8.823973 0.939834 11697996
9.282516 9.586096 3.776522 11697996
11.222633 10.226708 1.567751 11697996
10.946061 9.375491 1.653706 11697996
10.978449 10.174772 2.400563 11697996
8.872265 10.771552 1.253148 11697996
9.637348 9.847693 0.370507 11697996
10.335661 8.978707 3.229754 11697996
9.547042 8.819669 1.268872 11697996
11.011377 9.131718 1.154148 11697996
10.364653 8.811328 0.408542 11697996
9.884973 9.672590 2.828886 11697996
10.835546 9.783704 3.939810 11697996
9.067858 9.305523 3.397328 11697996
10.013913 10.878461 0.755320 11697996
10.140552 8.793999 3.075592 11697996
10.802999 9.241081 3.677291 11697996
9.514764 9.762339 3.438946 11697996
9.480538 8.961677 3.481172 11697996
10.134453 9.207669 1.263870 11697996
10.557041 9.051123 1.778511 11697996
9.828680 10.893023 3.641134 11697996
11.048891 9.653302 3.523968 11697996
9.772657 10.909184 3.285089 11697996
10.070525 9.505610 0.529398 11697996
9.184314 9.267861 2.865966 11697996
10.468398 8.978613 3.185590 11697996
9.812966 9.558994 0.396046 11697996
8.756483 10.851609 3.309548 11697996
10.320567 9.644218 0.704212 11697996
10.503288 10.886808 1.654555 11697996
9.751167 10.720127 1.940609 11697996
9.248640 10.198881 2.079916 11697996
10.532959 10.668567 3.662190 11697996
10.118851 9.884169 3.149167 11697996
9.935270 9.624586 1.602315 11697996
9.336675 9.838357 3.454809 11697996
9.893873 11.145301 3.833237 11697996
8.992858 11.188198 0.962705 11697996
10.583208 10.091578 0.127920 11697996
10.525333 10.306636 1.764634 11697996
10.074026 9.094314 0.774937 11697996
9.378224 9.549087 2.558558 11697996
11.100236 10.985233 1.004692 11697996
10.623192 11.133300 1.052057 11697996
9.615829 10.413935 0.993640 11697996
8.884452 11.201225 1.641127 11697996
10.199740 10.053867 2.949379 11697996
8.948702 9.279122 1.989387 11697996
11.056786 9.016615 0.661273 11697996
9.796767 8.761993 0.772786 11697996
9.157877 10.442516 1.678480 11697996
10.825332 9.236649 0.560215 11697996
9.839911 9.581725 2.823115 11697996
9.769951 10.212548 0.235626 11697996
11.000122 10.502344 0.409505 11697996
9.477911 10.107212 1.542935 11697996
8.728384 11.068915 2.487007 11697996
10.311490 9.456576 0.498056 11697996
10.673535 8.871376 0.209726 11697996
11.220834 9.425632 2.649342 11697996
9.524054 10.749328 1.248281 11697996
10.213785 9.023040 0.988041 11697996
10.728826 10.833436 1.696456 11697996
9.485304 10.000059 2.343669 11697996
10.386996 9.151843 0.504060 11697996
10.639702 9.023391 2.443811 11697996
10.707474 10.166704 1.174024 11697996
9.387879 9.236285 1.761960 11697996
9.865520 10.266901 2.014456 11697996
9.158132 9.055535 1.644445 11697996
9.633078 8.990434 2.462430 11697996
9.492506 11.231006 1.607504 11697996
11.181517 9.624822 1.509678 11697996
9.649371 8.858977 0.364111 11697996
10.312105 10.644015 2.656372 11697996
10.996169 8.754799 2.025477 11697996
9.532130 9.059824 0.081411 11697996
10.005226 10.328456 2.676518 11697996
9.442174 9.655575 1.602286 11697996
9.387102 10.691230 2.847148 11697996
9.926812 9.778008 1.016865 11697996
9.158934 10.274661 2.878509 11697996
9.418324 10.651369 0.808722 11697996
10.098023 9.755169 3.900026 11697996
9.106039 10.604061 2.229507 11697996
8.768264 8.946178 1.124164 11697996
10.626493 9.200146 1.331860 11697996
10.043841 9.731137 2.223330 11697996
11.102767 10.340675 0.232439 11697996
11.099703 10.313272 3.545495 11697996
9.088918 10.215255 1.810756 11697996
9.890575 10.844435 3.211561 11697996
10.698084 10.658101 1.197729 11697996
11.189402 10.126876 1.945192 11697996
10.926209 11.243234 1.303689 11697996
10.724456 11.078047 3.810174 11697996
9.894909 10.255625 1.958317 11697996
11.258192 10.361647 0.473336 11697996
10.524083 10.048707 2.061566 11697996
10.111094 9.805445 3.667264 11697996
9.392464 10.717399 2.049689 11697996
9.564914 10.330848 2.661340 11697996
9.820364 9.654249 0.940868 11697996
9.103246 8.886318 3.335683 11697996
9.532328 8.919387 0.033577 11697996
10.749107 10.062585 2.265508 11697996
9.494391 9.188304 3.805892 11697996
9.976014 9.871283 2.153272 11697996
9.373736 10.516980 0.418865 11697996
9.712474 10.195170 2.050438 11697996
9.362829 11.102070 3.863621 11697996
9.916560 9.936269 2.234783 11697996
8.995991 10.297836 0.937717 11697996
9.605486 9.602242 2.341900 11697996
11.121780 10.432758 1.174261 11697996
10.875234 10.404082 1.597437 11697996
9.339313 9.367802 0.089022 11697996
9.939285 10.021548 1.257984 11697996
11.172015 9.857646 1.145399 11697996
9.761180 9.317209 0.017511 11697996
9.000719 9.517632 1.805510 11697996
10.864298 9.458498 0.628984 11697996
9.639801 10.035620 1.471364 11697996
9.680813 10.806759 0.256812 11697996
11.235808 10.296889 3.972306 11697996
8.781581 9.718258 2.597780 11697996
9.978485 10.776463 3.171808 11697996
10.099334 9.967360 2.296270 11697996
11.127155 9.866650 2.102453 11697996
9.799601 10.214539 3.485209 11697996
8.938988 9.181365 2.390459 11697996
9.649422 10.397894 2.829106 11697996
10.558476 9.868330 3.794856 11697996
10.560439 9.586934 2.817240 11697996
9.021201 9.494767 2.930319 11697996
10.822323 11.243476 2.795303 11697996
11.204292 10.710577 0.433888 11697996
11.269701 8.768692 1.791385 11697996
9.821512 9.942939 2.495561 11697996
10.469816 8.904409 3.621406 11697996
10.675942 9.611308 1.727784 11697996
10.327963 8.917337 1.265003 11697996
9.738393 10.445922 3.788871 11697996
10.570726 10.457450 1.312272 11697996
10.145294 10.319056 3.667318 11697996
10.158922 9.223946 0.605655 11697996
9.882928 9.066044 1.040009 11697996
10.612230 10.664282 1.756249 11697996
9.936118 10.149455 0.436805 11697996
10.081705 10.383686 3.725183 11697996
10.206551 9.637100 1.577470 11697996
11.088315 9.455647 3.297975 11697996
9.762865 8.765522 3.490475 11697996
9.385475 9.794258 1.282972 11697996
8.954690 8.964034 3.423693 11697996
10.491756 10.505780 1.269616 11697996
10.223318 10.110937 0.196361 11697996
8.994884 10.448317 2.977104 11697996
10.743552 8.812635 1.093162 11697996
8.994280 9.023599 3.292336 11697996
9.747069 11.107673 2.922856 11697996
9.764138 10.950409 0.208461 11697996
11.054960 9.480900 2.031564 11697996
10.532461 10.116267 3.053767 11697996
9.233659 10.590114 2.750758 11697996
11.147032 10.890938 0.190559 11697996
10.082954 9.174105 1.896037 11697996
10.654665 10.273465 2.253187 11697996
11.227164 9.846646 3.106791 11697996
9.051112 10.070891 2.477836 11697996
10.933876 9.110705 1.219257 11697996
11.118479 10.775035 0.163191 11697996
10.374963 10.952847 3.259555 11697996
10.678926 10.818679 3.045961 11697996
9.499058 9.319454 1.071109 11697996
8.890863 9.856578 2.704657 11697996
10.024769 10.580711 3.678565 11697996
10.296293 10.460369 0.931426 11697996
10.307410 9.398210 2.787573 11697996
11.150372 11.021618 2.700270 11697996
9.593747 8.829366 1.100483 11697996
9.469143 9.586803 1.506589 11697996
10.172643 11.114728 2.556196 11697996
9.109028 9.230648 1.688985 11697996
9.355268 8.961195 2.952444 11697996
9.677812 9.705834 2.015359 11697996
10.703548 11.061652 3.657957 11697996
11.083432 10.395205 3.794618 11697996
10.966128 9.181062 0.001766 11697996
11.103141 10.417186 3.194196 11697996
8.983848 8.997513 1.235422 11697996
8.920049 10.244123 3.080861 11697996
9.022350 9.517725 1.000820 11697996
9.313676 9.558173 2.678970 11697996
10.064116 9.156487 3.168615 11697996
8.783315 8.943460 0.450211 11697996
10.162292 10.337334 1.284429 11697996
8.820202 10.237581 0.908389 11697996
9.486317 10.129969 0.410799 11697996
9.604648 9.877315 1.759980 11697996
9.343558 9.111868 1.355732 11697996
9.970356 9.039446 0.940505 11697996
9.376209 9.536771 0.364821 11697996
9.297500 9.592763 0.298934 11697996
9.528445 10.363566 1.871583 11697996
9.032894 9.834606 3.707752 11697996
9.479138 10.034565 0.526138 11697996
9.779497 10.386765 0.703751 11697996
10.765396 11.195877 1.694853 11697996
11.002523 10.261619 0.742188 11697996
9.357952 9.118699 2.499488 11697996
10.038880 9.441227 1.648415 11697996
9.517231 10.045319 2.823666 11697996
10.067616 10.529536 2.623180 11697996
10.941140 9.696095 2.170624 11697996
10.832248 9.540778 0.699155 11697996
9.450257 11.245777 3.638929 11697996
11.176547 10.312635 0.546127 11697996
10.959659 10.515127 3.506262 11697996
11.021345 10.110603 2.392895 11697996
9.436896 8.825579 1.798342 11697996
10.391447 11.076516 0.517319 11697996
9.688443 8.995866 2.004174 11697996
9.648273 9.571462 2.026866 11697996
10.292722 9.650310 1.254534 11697996
9.952350 10.531191 1.332317 11697996
10.361517 9.694698 3.528796 11697996
11.205285 8.910310 0.847145 11697996
10.165938 9.157411 2.845357 11697996
9.515859 9.262907 2.122625 11697996
8.794145 9.386669 0.403601 11697996
9.711443 9.491750 0.667046 11697996
9.022447 10.160694 1.862345 11697996
11.069715 10.262680 1.560298 11697996
9.400334 10.072684 0.693337 11697996
10.131691 8.775927 0.049841 11697996
9.993849 10.442618 3.018739 11697996
9.118423 9.220428 2.543951 11697996
9.306561 9.309894 0.453236 11697996
10.773627 11.173988 3.951240 11697996
9.219757 10.292217 1.548542 11697996
9.891027 9.501453 3.554746 11697996
8.799423 9.426432 2.247637 11697996
10.336744 9.691042 2.807962 11697996
9.762730 11.212752 3.800973 11697996
10.365401 10.574024 3.024948 11697996
10.552819 10.967922 3.991716 11697996
11.247731 9.099372 2.784851 11697996
9.836884 9.385703 2.475625 11697996
10.276171 10.708639 3.272706 11697996
9.518925 10.210346 3.509552 11697996
9.287874 9.951644 0.101828 11697996
10.212879 10.800134 1.694838 11697996
10.750417 10.252757 1.993922 11697996
10.919436 10.596848 1.064574 11697996
10.138232 8.882167 1.863000 11697996
9.987949 10.338174 1.223517 11697996
11.113273 9.613618 1.926264 11697996
10.420614 9.449862 3.660961 11697996
9.961853 10.084276 0.923994 11697996
10.837462 10.950653 1.247218 11697996
10.231018 9.817349 2.565140 11697996
9.703858 9.205684 3.351651 11697996
9.765764 10.907042 2.204836 11697996
9.462124 10.392999 0.892914 11697996
10.886099 10.640292 3.423077 11697996
9.252468 9.605040 2.346434 11697996
9.010299 10.765684 0.009561 11697996
9.415382 10.889853 1.949818 11697996
9.895426 8.839083 3.071653 11697996
8.832150 9.778971 2.020782 11697996
8.974755 10.643182 0.344347 11697996
8.824347 9.269978 1.215475 11697996
10.890804 9.346773 1.061891 11697996
10.912236 10.445250 3.039883 11697996
9.054365 10.875944 3.812740 11697996
10.946116 9.492962 2.952321 11697996
10.876133 8.771049 0.323869 11697996
8.986063 10.374252 1.045117 11697996
10.426303 8.829243 1.903786 11697996
9.342780 9.300613 0.053482 11697996
9.583918 9.940269 1.239216 11697996
10.728749 8.962351 1.099101 11697996
9.090878 10.551135 0.985906 11697996
10.550202 10.173238 0.403358 11697996
11.042815 9.328759 1.876327 11697996
9.046532 9.884644 1.998471 11697996
10.109183 11.084390 2.760150 11697996
8.840308 9.217100 0.649735 11697996
9.507847 10.825924 3.725775 11697996
9.267523 9.639153 2.205978 11697996
9.270969 10.462371 0.205951 11697996
10.700287 9.863729 2.506994 11697996
9.563621 8.831327 3.769886 11697996
10.915269 10.052811 1.497199 11697996
9.063363 10.347638 1.679597 11697996
9.318012 9.388250 2.032936 11697996
10.216549 8.812415 3.890689 11697996
10.036656 9.172551 3.274742 11697996
10.702497 10.060293 3.201281 11697996
11.223656 10.633307 3.793994 11697996
9.288274 9.281693 2.125094 11697996
9.521485 10.958991 3.293720 11697996
10.056030 9.328372 0.456080 11697996
9.524699 10.455391 2.378006 11697996
10.952709 8.910524 1.148624 11697996
9.647697 10.343569 1.548008 11697996
10.517857 10.451744 1.545351 11697996
9.890006 9.075502 2.536986 11697996
9.322305 10.538150 2.092577 11697996
9.225428 10.075754 0.623695 11697996
9.620955 10.452724 3.772713 11697996
10.319267 9.813011 3.571124 11697996
10.029078 9.315825 2.023227 11697996
10.636653 9.841197 0.415772 11697996
11.231937 10.567408 3.182142 11697996
10.688958 9.635306 3.235015 11697996
10.236312 10.379030 0.728111 11697996
9.622485 10.327497 2.656033 11697996
11.018141 11.132271 3.971039 11697996
11.105564 11.185566 1.988943 11697996
9.230251 9.020463 0.233020 11697996
9.765210 9.795859 3.594779 11697996
9.301685 11.098010 1.597382 11697996
8.947313 10.572693 0.423545 11697996
11.168797 11.014424 2.693107 11697996
8.873520 10.671957 1.570863 11697996
10.606365 9.428635 1.033686 11697996
10.829782 9.579400 3.134383 11697996
10.177388 10.235058 0.962337 11697996
9.054169 9.683790 2.352928 11697996
11.112930 9.112024 0.549142 11697996
9.362803 8.809344 2.177959 11697996
10.917856 10.862198 2.322375 11697996
10.442415 10.721777 3.780151 11697996
9.471254 10.929669 0.974959 11697996
9.275462 10.233664 3.506945 11697996
10.352720 9.460686 2.929748 11697996
10.582390 10.418614 3.620666 11697996
8.833768 11.106485 1.204609 11697996
9.549480 10.198220 1.104800 11697996
9.653404 10.011070 3.156880 11697996
10.717464 10.374257 3.204139 11697996
10.171368 9.563329 0.171670 11697996
9.051942 8.935746 0.045772 11697996
9.508382 10.235229 1.410040 11697996
10.628487 9.583487 3.533361 11697996
9.116809 11.176573 0.547350 11697996
9.524895 11.139366 0.504691 11697996
10.726048 8.863978 1.548723 11697996
10.424250 10.816540 2.155354 11697996
11.223815 10.920995 3.066073 11697996
11.143108 8.891026 2.606307 11697996
9.916723 10.790002 3.925565 11697996
9.457977 10.387335 3.918509 11697996
9.121099 9.209269 3.187857 11697996
9.180443 10.551756 3.413856 11697996
10.969952 11.062339 2.862300 11697996
9.594924 10.432103 2.036032 11697996
9.389421 9.993313 3.710902 11697996
10.916491 9.709374 3.804699 11697996
9.626385 9.070749 0.381802 11697996
9.075127 9.188859 0.569587 11697996
9.504613 9.060842 1.347582 11697996
9.738433 10.333839 3.243909 11697996
10.820997 9.319767 0.771297 11697996
9.063092 10.160002 1.987588 11697996
9.518890 10.552770 1.098863 11697996
10.099582 9.248845 2.763901 11697996
9.472872 10.223381 0.024465 11697996
9.384079 9.168149 0.238494 11697996
10.822301 9.851048 1.478732 11697996
9.831385 10.743907 0.158582 11697996
9.008859 9.706879 0.887885 11697996
10.183381 9.446049 2.051280 11697996
10.908241 9.245384 1.062644 11697996
8.847029 10.279537 1.854566 11697996
8.817512 10.996923 3.594365 11697996
10.560205 9.074254 2.355742 11697996
9.286378 10.898967 1.812634 11697996
10.585307 9.911920 0.522635 11697996
9.480583 9.141730 3.713796 11697996
10.315154 10.275970 0.046192 11697996
10.700640 9.028314 3.702235 11697996
9.128111 11.095183 3.956901 11697996
10.269956 9.278707 1.954299 11697996
8.797112 8.983556 3.686063 11697996
10.311329 9.272587 2.679085 11697996
9.725680 9.984115 3.973455 11697996
8.784406 9.787617 1.470492 11697996
9.236587 10.472833 2.104597 11697996
9.678905 10.658417 2.751894 11697996
9.277340 9.871943 2.153440 11697996
8.770066 10.251277 3.209423 11697996
9.290259 10.963976 0.118906 11697996
8.801088 9.454987 2.510292 11697996
10.867196 9.827892 1.517375 11697996
10.251110 9.830237 1.774318 11697996
10.472089 10.066780 2.366880 11697996
10.157647 9.215092 2.937897 11697996
10.133443 10.295910 3.508680 11697996
9.148646 10.075480 1.016826 11697996
9.376146 8.859038 2.593561 11697996
11.230721 11.177876 1.222218 11697996
9.096075 10.222552 2.606230 11697996
9.641544 9.703911 2.757380 11697996
9.371807 9.788892 1.706171 11697996
9.359934 10.850458 3.584272 11697996
10.710999 8.852161 2.744817 11697996
10.178302 9.351121 1.607070 11697996
10.926396 10.723844 3.836866 11697996
9.114509 9.448053 3.371517 11697996
10.094571 9.662741 0.884790 11697996
9.224782 10.948113 0.468555 11697996
9.032340 11.031995 1.951509 11697996
10.929050 10.820460 1.323303 11697996
9.896280 9.258260 3.197313 11697996
10.397759 9.837164 1.360830 11697996
10.306022 9.869871 3.910560 11697996
9.451176 9.067561 3.562856 11697996
9.787719 10.481650 3.199778 11697996
8.988932 9.799916 2.823999 11697996
10.336633 10.999670 0.440999 11697996
10.124858 10.957096 2.997160 11697996
9.009243 9.524104 0.269771 11697996
8.753705 10.173540 0.964619 11697996
9.686497 10.676266 0.546591 11697996
10.400767 10.177464 3.291110 11697996
9.094410 10.216476 3.660838 11697996
11.218073 10.320017 2.540455 11697996
10.924921 10.040057 2.830097 11697996
10.154228 10.001539 0.123061 11697996
10.537296 9.432785 1.634506 11697996
9.082709 9.128311 0.499177 11697996
8.901453 10.898140 0.524093 11697996
9.078544 10.188179 2.268081 11697996
9.782550 10.601009 2.009854 11697996
10.917036 9.382251 3.409154 11697996
9.008851 10.782410 2.044117 11697996
8.849735 10.146157 2.776215 11697996
9.752837 10.090426 0.648300 11697996
10.748577 10.699171 0.482064 11697996
9.347417 10.109107 3.239920 11697996
8.780368 8.963453 1.702143 11697996
9.627537 9.733719 1.437062 11697996
9.599150 11.143890 2.495074 11697996
11.042625 9.886068 2.844946 11697996
9.451271 9.436633 2.580025 11697996
9.336325 9.592998 1.688511 11697996
10.559206 11.192858 0.389917 11697996
9.249846 8.898251 3.407473 11697996
10.588113 9.778156 2.311304 11697996
9.950847 10.658034 1.593485 11697996
9.830416 11.164536 2.111378 11697996
10.611991 11.032634 2.300113 11697996
9.719087 11.075291 3.448539 11697996
10.123270 8.959642 0.087110 11697996
9.799086 10.482983 1.672443 11697996
8.861180 9.765252 2.777175 11697996
10.152829 9.905316 2.359523 11697996
10.967462 9.902234 1.856480 11697996
10.119850 10.697412 1.081697 11697996
9.272565 8.979400 3.211241 11697996
9.667551 9.638997 0.809547 11697996
9.765383 10.120443 0.995105 11697996
10.052644 9.917984 2.425647 11697996
11.227288 10.533407 3.345024 11697996
9.627807 9.966402 1.900876 11697996
10.666133 8.824986 0.243306 11697996
11.177385 9.338875 0.012793 11697996
11.145015 9.330400 0.833653 11697996
9.733000 10.324350 1.529860 11697996
10.381604 8.966005 0.681822 11697996
11.139148 8.885122 2.789342 11697996
11.219281 9.425066 3.259493 11697996
11.103022 9.220539 2.094460 11697996
11.156058 10.754469 3.925681 11697996
10.533787 9.736929 2.571234 11697996
10.089024 10.151648 0.333652 11697996
10.808589 10.449778 1.336316 11697996
9.509353 8.811085 1.567610 11697996
9.339669 9.952123 3.432764 11697996
10.718163 10.529430 2.107038 11697996
10.876169 8.792209 2.290648 11697996
9.013050 8.842798 3.377350 11697996
10.227277 10.772322 0.445235 11697996
11.119122 10.910148 3.486009 11697996
10.645604 10.461536 3.077389 11697996
9.344988 10.031001 3.430473 11697996
10.398753 11.109498 0.793932 11697996
10.095344 9.378633 0.871251 11697996
10.557054 10.391148 1.684588 11697996
10.008679 10.171064 3.378309 11697996
9.629536 10.047825 2.761975 11697996
10.522557 9.148393 1.173452 11697996
9.946536 9.565858 1.771783 11697996
10.763412 10.258056 1.757101 11697996
10.696405 11.057630 0.889480 11697996
11.063469 9.856400 2.070023 11697996
10.478166 10.170864 1.528670 11697996
11.060992 9.276766 3.922743 11697996
9.190214 9.702711 2.571338 11697996
10.541936 10.305890 2.303754 11697996
9.565170 10.819731 1.709285 11697996
10.501808 9.501492 3.933517 11697996
10.322048 10.317360 1.598874 11697996
9.325557 9.767683 0.317589 11697996
9.004102 10.682110 2.538504 11697996
11.016713 11.000648 2.989909 11697996
9.289377 9.500174 0.077816 11697996
9.422945 10.498873 2.609213 11697996
9.287359 10.035725 0.014082 11697996
10.364841 9.594675 0.299780 11697996
9.914387 11.037602 1.135543 11697996
10.066154 9.911649 0.940738 11697996
9.998157 9.872964 1.798637 11697996
8.958369 9.033886 0.489785 11697996
10.205340 10.340031 3.626035 11697996
10.800750 10.463723 1.515876 11697996
9.299440 10.556334 3.027820 11697996
8.961384 9.293170 3.930538 11697996
9.290580 9.353508 3.784832 11697996
10.507089 10.309203 0.148919 11697996
11.202706 11.061828 2.789794 11697996
10.145734 10.403768 3.996594 11697996
9.012655 11.017563 2.452290 11697996
9.993336 10.594173 1.090716 11697996
10.748303 10.400422 0.977989 11697996
10.270067 9.906308 1.928689 11697996
9.257092 9.873784 3.107564 11697996
10.827170 9.997395 1.318183 11697996
11.238994 8.818008 0.161515 11697996
9.309085 9.582006 1.886996 11697996
9.464182 10.234661 3.940747 11697996
10.608039 10.910103 2.725759 11697996
9.756406 9.415296 2.244090 11697996
11.187242 10.747054 1.616923 11697996
9.081510 10.796513 0.268350 11697996
9.623133 9.681547 0.180001 11697996
9.730977 9.003037 2.264284 11697996
9.864132 11.068004 3.570967 11697996
10.630984 9.123003 3.464794 11697996
9.443304 10.118417 1.848489 11697996
9.652224 9.836330 3.436231 11697996
10.195335 9.605644 3.177754 11697996
10.905561 8.802539 0.632007 11697996
10.179443 9.801513 1.649139 11697996
9.434700 9.006550 3.393183 11697996
10.097607 10.819391 2.316892 11697996
10.121964 9.887496 3.391690 11697996
9.809278 9.057055 3.041679 11697996
11.177684 9.582753 1.218275 11697996
9.201656 9.617226 2.723917 11697996
9.144407 10.034588 1.834626 11697996
11.027228 10.301507 3.420906 11697996
9.062743 9.584652 0.210498 11697996
10.647395 9.797040 1.374314 11697996
10.987032 10.152048 0.090414 11697996
10.435647 10.191015 2.273964 11697996
10.409164 10.582507 2.558661 11697996
10.942139 9.831583 3.745606 11697996
9.433230 10.768547 3.110148 11697996
8.780761 9.796804 3.738751 11697996
10.440244 9.034469 0.434606 11697996
8.882507 9.586506 0.127716 11697996
10.948852 9.917939 1.899978 11697996
10.395040 10.351430 1.394263 11697996
9.030191 9.188492 1.531560 11697996
11.032752 8.952679 1.408276 11697996
9.218022 10.464397 1.204054 11697996
9.568348 11.043509 0.797495 11697996
10.672700 11.007483 2.857696 11697996
11.116339 10.745782 0.141204 11697996
9.122460 8.880833 0.255939 11697996
9.908065 10.045718 3.872920 11697996
10.468852 9.542599 2.702208 11697996
11.070619 10.854609 2.933675 11697996
9.983989 10.769948 0.097578 11697996
10.309669 9.047524 0.291209 11697996
10.403229 10.943019 0.954465 11697996
8.768461 9.423720 0.789900 11697996
9.350080 11.033316 1.217264 11697996
10.729342 8.975617 1.553793 11697996
9.980513 10.641058 0.405558 11697996
10.724190 9.856043 1.725045 11697996
10.269964 10.087774 3.912238 11697996
10.648563 9.410806 3.074842 11697996
10.169614 11.152957 0.271428 11697996
9.025358 9.865584 1.698029 11697996
9.573680 10.109767 3.770555 11697996
9.746153 10.790398 1.240017 11697996
11.052402 11.033719 0.433594 11697996
10.258811 9.184711 2.153595 11697996
8.761392 9.119690 1.835726 11697996
8.766070 9.232625 1.227589 11697996
8.876284 9.572963 2.055399 11697996
9.345949 10.810099 1.812416 11697996
9.019499 10.307250 2.098388 11697996
8.955797 10.650376 1.968100 11697996
9.147171 10.545707 0.323644 11697996
10.068984 11.183990 2.682788 11697996
9.293385 10.163994 3.526269 11697996
11.088858 10.571892 2.648227 11697996
10.697687 9.760104 0.672434 11697996
9.615901 8.981213 2.018247 11697996
10.357671 10.308077 2.993804 11697996
10.168386 9.209398 1.910098 11697996
11.245251 9.860291 1.997150 11697996
11.071815 9.215049 2.230588 11697996
9.974667 11.021722 1.735326 11697996
11.213086 9.500592 1.469440 11697996
9.994681 9.169485 1.378419 11697996
10.655093 10.572248 3.158476 11697996
11.097593 11.148089 3.743984 11697996
9.929319 9.194821 3.615151 11697996
11.174621 11.169462 0.611517 11697996
9.185969 9.252488 3.905594 11697996
10.818730 10.275141 2.557910 11697996
10.154947 10.168915 0.337260 11697996
9.840906 10.193555 0.594804 11697996
10.396509 8.790625 0.313861 11697996
10.448604 9.602261 2.643820 11697996
9.449337 9.156680 2.374823 11697996
8.764894 10.502038 3.939517 11697996
10.865500 10.101800 2.877008 11697996
10.556849 11.022810 3.469527 11697996
9.100671 9.735734 3.619832 11697996
8.813010 9.494979 0.865581 11697996
9.309879 10.849501 2.047405 11697996
10.141039 9.490245 2.908869 11697996
9.648626 9.832863 0.648503 11697996
11.072003 9.800937 2.106246 11697996
10.074967 10.328734 2.295759 11697996
10.753481 11.137279 1.860774 11697996
10.183288 9.642622 3.227328 11697996
8.803799 9.200593 0.233135 11697996
10.769874 9.788979 3.118027 11697996
11.191730 8.814713 0.995589 11697996
9.709333 10.494225 2.712737 11697996
10.906964 10.572541 1.842029 11697996
9.801265 10.786371 3.954525 11697996
10.665168 10.443732 0.132022 11697996
11.033194 9.032126 1.055682 11697996
10.219588 9.187213 0.983558 11697996
10.221253 11.157701 2.398261 11697996
9.499417 11.031744 0.769888 11697996
9.561906 10.615002 0.742124 11697996
9.027136 8.992417 1.440484 11697996
10.731196 9.820734 2.748302 11697996
10.472146 10.002922 2.186875 11697996
10.553903 8.846836 2.494246 11697996
9.021194 11.149756 1.080219 11697996
9.635570 10.135944 3.532608 11697996
9.642732 10.922441 2.890282 11697996
10.585111 9.150030 0.956514 11697996
8.839862 9.159239 1.192999 11697996
11.107889 10.700481 1.729223 11697996
8.924342 9.685812 3.353510 11697996
10.704209 9.098727 2.234600 11697996
10.692049 9.858748 3.840878 11697996
8.864279 9.406006 1.891334 11697996
9.987822 9.291659 1.350605 11697996
10.588140 9.918515 0.783545 11697996
9.519482 10.805893 3.142361 11697996
9.229845 9.571376 3.040505 11697996
10.192072 9.407271 2.895317 11697996
11.183333 9.870720 0.508366 11697996
10.846948 9.459900 0.505268 11697996
10.007380 11.166247 0.842639 11697996
9.594356 9.357309 0.572631 11697996
9.496825 9.607014 3.627990 11697996
9.751849 9.362602 3.464970 11697996
9.862411 9.995753 3.151118 11697996
9.238238 9.752971 2.405458 11697996
9.575939 9.343090 1.781989 11697996
8.792341 10.006830 0.778391 11697996
10.857479 10.521504 0.117827 11697996
8.878854 10.698409 0.343233 11697996
11.076542 11.186743 3.633779 11697996
10.413980 9.270650 1.216833 11697996
10.341529 8.891009 3.432997 11697996
11.165315 11.216245 3.788102 11697996
10.968480 9.758182 1.192671 11697996
11.061947 9.372677 2.915283 11697996
10.029997 10.873313 3.819768 11697996
9.971035 9.971864 2.948588 11697996
10.656693 11.051347 1.453372 11697996
9.908237 10.911590 0.912281 11697996
9.776419 9.656054 2.247473 11697996
10.743294 9.294565 3.273508 11697996
9.487994 9.703901 0.247143 11697996
10.511393 9.109941 2.417763 11697996
8.834196 9.310022 1.317411 11697996
10.564921 9.527531 3.644938 11697996
11.068175 9.073156 1.224978 11697996
10.311316 8.779160 1.656023 11697996
10.897757 10.731548 2.705779 11697996
9.606634 8.977163 1.294104 11697996
8.776825 9.673630 0.396651 11697996
8.846455 9.075006 3.136256 11697996
10.564229 10.713620 2.097992 11697996
10.441555 9.840091 1.378226 11697996
10.373248 8.998805 3.772656 11697996
10.376964 10.692627 2.383347 11697996
11.024628 8.826137 0.141883 11697996
9.031527 9.520728 2.709161 11697996
10.481078 9.753601 2.936329 11697996
10.788444 10.255531 3.111066 11697996
10.393885 8.995339 1.437688 11697996
10.111408 9.626541 2.020336 11697996
9.523138 11.044915 1.899176 11697996
9.766906 9.480423 1.355221 11697996
9.323195 10.506556 3.840582 11697996
10.920722 9.623145 0.702997 11697996
9.803924 10.556455 2.616729 11697996
8.859606 9.876037 1.595420 11697996
10.276140 10.283452 3.725867 11697996
8.774158 9.769867 1.655125 11697996
9.412098 10.173390 1.792432 11697996
9.464390 9.538527 0.032621 11697996
9.896981 10.177878 1.875067 11697996
9.485374 8.727161 2.184242 11697996
9.460487 10.131445 0.419385 11697996
9.334883 8.802486 3.933577 11697996
8.939891 10.377389 2.384629 11697996
9.613139 10.042074 1.692488 11697996
9.270103 9.862489 0.914398 11697996
10.755714 10.863138 1.413326 11697996
11.180531 9.883000 3.213072 11697996
10.553927 10.236101 1.259876 11697996
8.971787 10.592734 3.723512 11697996
10.553713 10.244401 2.758152 11697996
9.719697 9.264415 3.518639 11697996
10.975384 11.136126 0.934292 11697996
10.400819 10.663936 2.601853 11697996
10.190677 10.647247 1.205548 11697996
10.492772 9.468616 2.184110 11697996
9.882930 9.345282 0.070533 11697996
9.586128 10.678894 0.558182 11697996
10.353876 9.286507 0.268776 11697996
9.015303 10.754032 0.476252 11697996
10.383366 10.929193 2.008999 11697996
10.031061 9.047365 2.677221 11697996
10.184938 9.218825 3.774980 11697996
10.838060 9.844696 2.869434 11697996
10.350366 11.154131 1.075882 11697996
10.955903 9.082221 0.507803 11697996
11.123016 10.044745 1.449103 11697996
9.381403 10.222518 3.578649 11697996
9.036823 8.810483 1.271507 11697996
10.343585 10.550193 1.359887 11697996
8.963535 8.903627 3.262012 11697996
10.258574 9.165889 3.917967 11697996
9.102862 10.324919 2.609788 11697996
9.244807 9.815679 0.690832 11697996
9.816478 11.063663 3.353803 11697996
8.999335 10.296150 3.249122 11697996
8.819843 11.260124 2.902404 11697996
9.374554 10.320346 3.565960 11697996
11.149452 11.204782 0.510540 11697996
8.952737 9.283327 0.637094 11697996
10.249562 8.969785 3.723176 11697996
10.434510 11.056352 0.590741 11697996
8.748464 9.831035 3.662138 11697996
10.107257 10.359230 3.543628 11697996
9.566343 10.208488 1.096744 11697996
9.718705 8.811984 3.122263 11697996
10.018595 9.523438 3.116684 11697996
10.515999 9.829870 2.853424 11697996
9.351291 8.982127 1.085575 11697996
10.812115 11.060808 1.592210 11697996
9.920877 9.322519 3.096483 11697996
10.324623 9.443829 1.334123 11697996
10.421206 10.907622 3.325098 11697996
8.854227 9.685087 1.916000 11697996
9.228870 10.816797 3.036772 11697996
9.378823 10.794687 1.298431 11697996
9.313449 9.899387 2.365405 11697996
11.101724 9.024467 0.187716 11697996
10.086993 8.989876 1.902736 11697996
10.678046 9.904831 1.086496 11697996
10.323071 10.184332 0.593812 11697996
10.953905 9.655812 3.078537 11697996
8.879352 10.645359 1.571911 11697996
10.219577 9.627398 3.030982 11697996
9.036785 10.484968 3.410416 11697996
10.228750 10.465757 -0.027897 11697996
9.099519 10.380320 2.125002 11697996
9.840837 10.511365 1.662854 11697996
10.069152 9.842018 1.510697 11697996
10.861148 9.955000 1.286991 11697996
9.466545 8.996436 1.807730 11697996
10.604453 9.222835 2.175435 11697996
11.201227 10.291492 3.116591 11697996
11.232171 9.372830 3.458740 11697996
9.960725 9.051034 1.597888 11697996
10.931455 9.818678 1.139007 11697996
11.249573 10.091558 0.419365 11697996
9.838061 8.763903 2.285646 11697996
10.048862 9.491755 2.338941 11697996
10.006618 10.728844 1.759280 11697996
9.937987 9.954845 2.852078 11697996
9.937428 10.692420 3.810669 11697996
10.722817 9.309186 2.494145 11697996
9.454407 8.910151 0.256878 11697996
9.376425 8.862110 0.476471 11697996
9.079790 10.580352 3.249550 11697996
8.935594 9.538527 3.316170 11697996
10.135780 11.005515 0.120655 11697996
8.753072 10.507698 3.783888 11697996
10.294045 8.869767 3.557232 11697996
9.265792 10.598323 1.819114 11697996
9.460056 10.899632 1.902946 11697996
8.939845 9.906200 0.238216 11697996
10.437833 9.446041 2.739576 11697996
10.501193 9.636331 3.253004 11697996
10.295732 9.769331 0.840211 11697996
9.261303 10.121982 0.262166 11697996
8.822474 10.314814 0.934283 11697996
10.470840 11.260693 3.584531 11697996
9.062190 8.961179 2.868669 11697996
9.500027 10.381993 3.693970 11697996
8.761059 10.038548 2.453211 11697996
10.769269 10.570263 3.418215 11697996
11.023793 11.212690 3.627290 11697996
10.478311 8.815872 0.940596 11697996
8.934552 10.322291 0.052163 11697996
9.072984 9.400615 0.741035 11697996
9.243286 8.958742 0.321416 11697996
9.586942 9.158671 0.224050 11697996
10.894733 10.334063 1.697309 11697996
9.841797 10.224570 3.635305 11697996
9.123948 9.807783 1.800690 11697996
9.907326 9.456429 1.268384 11697996
9.412231 9.193909 1.514747 11697996
10.169959 10.483497 3.089014 11697996
10.097582 9.915292 0.769031 11697996
11.033619 9.103929 1.700296 11697996
8.777902 10.489028 0.252439 11697996
10.451456 11.087420 2.002594 11697996
9.906262 9.524465 1.733887 11697996
11.214798 10.149870 0.774809 11697996
9.844553 9.169927 1.791484 11697996
9.737494 9.685032 2.916683 11697996
10.701288 9.459080 2.995472 11697996
10.569693 8.760181 2.889743 11697996
10.634448 10.580338 2.338240 11697996
9.378693 9.843045 3.204161 11697996
10.379992 10.677615 2.610057 11697996
10.370847 10.545743 2.552352 11697996
8.766451 8.876573 0.452956 11697996
10.179457 8.992023 2.625295 11697996
9.910209 10.284920 2.011203 11697996
9.808110 11.195031 2.485616 11697996
8.753667 9.449591 0.020166 11697996
10.587518 9.435429 0.352154 11697996
-9.814902 -10.482979 0.704429 6730418
-10.271340 -10.942637 1.087184 6730418
-10.567584 -9.852496 2.167569 6730418
-10.402286 -9.395535 0.318451 6730418
-9.662560 -9.559539 1.815406 6730418
-9.924447 -9.384182 2.445727 6730418
-9.988839 -10.282172 2.966495 6730418
-9.646620 -9.383742 0.192830 6730418
-9.588877 -9.695654 2.420271 6730418
-9.441975 -10.286208 0.311479 6730418
-10.763009 -9.733540 1.219475 6730418
-9.409571 -10.337163 1.998482 6730418
-9.623003 -10.864265 2.879620 6730418
-10.222222 -10.172897 1.446540 6730418
-9.493594 -10.138856 0.787901 6730418
-9.284376 -10.610066 1.750479 6730418
-10.458183 -9.781654 0.195262 6730418
-9.293428 -10.699540 1.777025 6730418
-9.572724 -10.782545 1.345366 6730418
-9.843513 -10.500537 1.611719 6730418
-9.377768 -10.539076 1.766598 6730418
-9.806540 -9.254595 1.202787 6730418
-9.840235 -9.011493 2.099994 6730418
-9.735799 -10.764086 0.100475 6730418
-10.312676 -10.044113 0.324166 6730418
-10.136232 -9.715446 0.845478 6730418
-10.303488 -10.503216 0.452536 6730418
-9.934148 -9.595797 0.871751 6730418
-10.367326 -10.494268 0.919807 6730418
-9.591498 -10.373365 2.096070 6730418
-10.202457 -10.616445 2.024695 6730418
-9.471654 -9.300199 2.835170 6730418
-9.952863 -10.871591 1.252279 6730418
-10.819333 -9.421385 1.749386 6730418
-9.590431 -9.370306 2.138381 6730418
-10.455595 -9.848876 0.327483 6730418
-9.859647 -9.774384 1.166334 6730418
-9.550742 -10.589370 1.070790 6730418
-9.763222 -10.733706 1.879221 6730418
-9.360445 -9.467958 1.124705 6730418
-9.104053 -10.297733 0.453975 6730418
-9.910446 -10.758239 0.230554 6730418
-10.024061 -9.148270 2.569838 6730418
-9.553513 -10.184686 2.725355 6730418
-9.883884 -9.402907 2.496651 6730418
-10.381906 -9.817657 1.849991 6730418
-9.819135 -10.363626 0.853701 6730418
-9.401553 -9.424556 1.193832 6730418
-10.528393 -10.473410 1.822964 6730418
-9.472745 -9.416629 2.335987 6730418
-10.811181 -10.297812 2.728835 6730418
-9.282777 -9.908064 2.691050 6730418
-10.586442 -10.014246 1.955778 6730418
-9.893309 -10.128364 1.195910 6730418
-10.374719 -10.490832 2.559862 6730418
-9.903463 -10.457010 0.713660 6730418
-9.833793 -9.826701 1.424153 6730418
-9.498833 -10.259838 2.592846 6730418
-9.753257 -9.307175 1.832160 6730418
-9.758522 -10.528665 2.891982 6730418
-10.319484 -10.209226 1.301387 6730418
-9.112681 -9.748987 1.242188 6730418
-9.380030 -9.976361 2.112680 6730418
-10.234619 -9.073638 2.114921 6730418
-9.348410 -9.740886 2.675738 6730418
-10.203825 -9.320715 1.059684 6730418
-9.689241 -9.622661 1.208438 6730418
-10.067876 -9.073544 1.161099 6730418
-9.792441 -9.908679 0.902785 6730418
-10.572081 -10.574946 0.631724 6730418
-9.187039 -10.565751 0.743073 6730418
-10.065334 -10.890279 1.804914 6730418
-9.993399 -9.579779 2.872097 6730418
-9.688669 -10.109941 0.373942 6730418
-9.969665 -10.062833 1.500476 6730418
-9.536359 -9.341265 1.892768 6730418
-9.149219 -9.559586 1.157444 6730418
-10.043499 -9.126495 0.109070 6730418
-9.576572 -9.929237 0.727029 6730418
-9.777911 -9.899911 2.355668 6730418
-9.335134 -10.709665 1.943902 6730418
-10.453025 -9.418267 1.179315 6730418
-10.344728 -9.611868 2.653506 6730418
-9.188903 -9.923029 2.782282 6730418
-9.405254 -10.361682 0.144727 6730418
-10.218733 -9.457396 1.636235 6730418
-10.776671 -9.824021 1.433230 6730418
-10.198988 -9.805004 2.208529 6730418
-10.525816 -9.426577 1.211851 6730418
-9.993898 -9.367526 0.573865 6730418
-10.871849 -10.233843 2.688414 6730418
-9.932889 -9.734113 2.293457 6730418
-10.818404 -9.897904 1.525712 6730418
-10.700377 -9.740945 0.863714 6730418
-9.682692 -10.508203 2.714337 6730418
-10.670836 -10.584693 1.422306 6730418
-10.088643 -10.335005 1.568152 6730418
-9.732627 -10.962769 0.362949 6730418
-10.037307 -10.376726 1.137212 6730418
-9.431477 -10.257802 1.133364 6730418
-9.630303 -10.220051 2.204704 6730418
-9.052436 -9.841224 0.363039 6730418
-10.602059 -10.133307 0.481811 6730418
-9.502665 -10.502509 1.566749 6730418
-9.807205 -10.377007 1.982315 6730418
-9.980660 -10.230213 2.814902 6730418
-10.012750 -10.226632 2.426866 6730418
-9.459292 -9.571480 0.724160 6730418
-9.492894 -9.876764 2.643707 6730418
-9.709806 -10.477110 2.116154 6730418
-9.457359 -10.243021 0.563762 6730418
-9.029428 -10.271013 1.067027 6730418
-9.756300 -9.075513 0.921036 6730418
-9.211228 -10.439205 2.474805 6730418
-9.704817 -9.784046 2.749683 6730418
-9.121000 -10.288898 0.151914 6730418
-9.586749 -10.394774 0.992606 6730418
-10.402476 -10.482384 2.323581 6730418
-9.643872 -9.111595 1.856688 6730418
-9.306197 -10.129741 1.557873 6730418
-9.166832 -9.576783 1.756211 6730418
-9.326399 -9.497326 2.248961 6730418
-10.352295 -10.650352 0.653724 6730418
-9.281406 -10.362215 0.993199 6730418
-9.265963 -9.484886 0.337958 6730418
-9.286130 -10.021142 1.386815 6730418
-9.174202 -10.193219 1.839825 6730418
-10.371436 -9.288061 0.726178 6730418
-10.921922 -10.113308 2.212072 6730418
-9.915876 -9.418861 2.610844 6730418
-10.836683 -9.512532 1.590673 6730418
-9.240766 -10.207601 2.006842 6730418
-9.494665 -10.842938 2.817771 6730418
-9.404800 -10.442087 2.743951 6730418
-10.514775 -10.363564 2.127566 6730418
-10.004154 -10.592697 1.584018 6730418
-9.548565 -9.185949 2.685515 6730418
-9.988446 -10.512538 2.556313 6730418
-10.884898 -10.267122 1.727498 6730418
-10.265715 -9.490907 1.468798 6730418
-9.640224 -10.647043 2.439331 6730418
-9.405083 -9.941801 1.817813 6730418
-9.872292 -10.249760 0.078978 6730418
-10.601136 -10.378733 0.255224 6730418
-9.230489 -10.020926 0.047045 6730418
-10.793628 -10.315869 0.335872 6730418
-9.493150 -9.734383 1.864031 6730418
-10.515529 -9.835088 0.894769 6730418
-9.458523 -10.027798 1.510340 6730418
-9.924833 -10.319528 0.966070 6730418
-9.795330 -10.935883 0.065552 6730418
-10.010986 -9.568172 2.256696 6730418
-9.732937 -10.075761 2.037792 6730418
-9.155480 -10.456179 2.738351 6730418
-10.164344 -9.968521 2.035762 6730418
-10.390359 -9.945532 2.523942 6730418
-9.670233 -10.187568 2.518086 6730418
-10.132360 -9.943912 2.527623 6730418
-9.218389 -10.400492 1.128965 6730418
-10.338695 -10.719083 2.789616 6730418
-10.025264 -9.627378 2.833843 6730418
-9.280242 -10.634205 0.796499 6730418
-10.235295 -9.436444 1.224573 6730418
-10.049350 -9.249954 1.024925 6730418
-10.326871 -9.202011 2.751984 6730418
-9.389211 -10.527166 0.683024 6730418
-10.788154 -10.001724 0.930784 6730418
-9.931656 -10.581668 0.059143 6730418
-9.276664 -9.918468 1.827433 6730418
-9.399631 -9.231215 1.568862 6730418
-10.870376 -9.563907 0.576274 6730418
-9.494013 -9.873396 1.131573 6730418
-10.134231 -9.954730 1.363956 6730418
-10.078497 -9.876213 1.585176 6730418
-10.233335 -10.135492 2.158591 6730418
-9.621703 -9.430160 1.121865 6730418
-10.437764 -9.715874 0.895991 6730418
-10.299975 -9.409661 1.720927 6730418
-10.418704 -10.531956 2.955925 6730418
-10.211640 -10.937929 2.876541 6730418
-9.935011 -10.828259 2.313608 6730418
-9.946474 -9.560116 1.198372 6730418
-9.886958 -9.900643 2.540552 6730418
-9.537148 -9.359804 1.177373 6730418
-10.521212 -10.269074 0.988407 6730418
-9.817899 -9.938441 1.092520 6730418
-9.854883 -10.323427 2.101644 6730418
-9.629642 -9.578705 2.278153 6730418
-9.615047 -10.624943 2.292441 6730418
-9.811004 -9.182093 2.030117 6730418
-10.464143 -10.361583 0.588956 6730418
-10.023790 -10.962510 1.985967 6730418
-9.279613 -10.111679 0.071660 6730418
-10.460518 -9.480570 2.970386 6730418
-9.224680 -9.443922 2.263643 6730418
-10.133471 -9.194442 0.129328 6730418
-9.877810 -9.181943 2.246603 6730418
-9.088862 -9.830151 1.480525 6730418
-10.245087 -10.493447 0.387472 6730418
-9.711932 -9.079094 1.456754 6730418
-9.180884 -9.687226 1.653167 6730418
-9.231146 -9.544482 0.798859 6730418
-9.489147 -10.119239 0.653892 6730418
-9.396889 -10.409945 2.585059 6730418
-10.801800 -10.018617 0.434324 6730418
-10.737430 -9.847557 1.895312 6730418
-9.053264 -9.681581 0.641101 6730418
-9.760213 -9.672173 1.574211 6730418
-10.341268 -10.454220 1.511009 6730418
-9.222972 -9.490457 1.076587 6730418
-10.228754 -9.220397 2.291064 6730418
-10.791361 -9.607318 0.950984 6730418
-9.221621 -9.658874 0.402642 6730418
-9.669298 -9.734045 2.963392 6730418
-10.778678 -10.202255 2.393790 6730418
-9.257396 -9.815307 0.063200 6730418
-9.998144 -9.189952 2.139970 6730418
-9.722522 -10.292871 2.745837 6730418
-10.223307 -10.797015 1.890738 6730418
-9.487356 -10.066603 1.036090 6730418
-10.201666 -10.288298 1.193358 6730418
-10.140439 -9.791297 2.576252 6730418
-10.893061 -9.938377 1.766731 6730418
-9.236301 -9.568908 1.946481 6730418
-9.261460 -9.496690 2.009004 6730418
-9.864788 -10.219044 2.653377 6730418
-10.782329 -10.512920 2.485682 6730418
-9.313401 -10.379052 1.740320 6730418
-10.400173 -9.713449 1.250535 6730418
-10.175364 -10.192923 2.937567 6730418
-9.590266 -9.289027 1.768396 6730418
-9.456227 -10.842596 1.410759 6730418
-9.791104 -10.351136 0.618329 6730418
-9.556461 -10.277050 1.352805 6730418
-9.344868 -10.132949 1.249298 6730418
-9.359586 -9.263113 0.280138 6730418
-10.195649 -10.648693 0.933085 6730418
-10.521029 -10.499487 1.478963 6730418
-10.441612 -10.515619 2.433999 6730418
-10.565713 -9.973088 0.887393 6730418
-9.625745 -10.900831 1.944916 6730418
-9.225753 -10.477866 1.836637 6730418
-10.432146 -9.765155 2.690719 6730418
-10.362211 -10.219846 0.480635 6730418
-9.805320 -10.654211 2.635586 6730418
-10.895096 -10.049074 2.545757 6730418
-9.525954 -9.147400 0.818613 6730418
-10.041663 -10.308064 0.619186 6730418
-10.285843 -9.862911 0.405409 6730418
-9.941333 -9.854239 0.766161 6730418
-9.362210 -10.551677 0.687232 6730418
-10.722349 -10.145321 2.566159 6730418
-9.466169 -9.248521 2.974912 6730418
-9.971106 -9.421594 2.267332 6730418
-10.822007 -9.484021 2.541745 6730418
-9.984633 -10.432461 2.553625 6730418
-10.528317 -10.512233 2.372214 6730418
-9.532101 -9.872110 2.255006 6730418
-10.785240 -10.423818 0.596388 6730418
-10.578366 -9.239550 0.267492 6730418
-9.703569 -9.215725 1.761137 6730418
-9.225430 -9.985062 0.983278 6730418
-10.171267 -10.371147 2.347265 6730418
-10.838129 -10.189405 1.719602 6730418
-9.983259 -9.449003 1.360684 6730418
-9.224628 -10.170161 1.253888 6730418
-9.786856 -10.541977 0.345340 6730418
-10.083969 -10.298283 1.557578 6730418
-10.817443 -10.056004 1.504832 6730418
-10.029844 -10.658041 0.130305 6730418
-10.707104 -9.774474 2.600113 6730418
-9.149625 -10.079137 2.675799 6730418
-9.824373 -10.323841 2.633053 6730418
-10.903823 -10.200551 2.606144 6730418
-10.529273 -9.188728 0.905161 6730418
-10.020756 -9.482459 2.410915 6730418
-9.480653 -10.480978 0.832186 6730418
-10.599485 -9.183608 2.250525 6730418
-10.114646 -10.225646 1.118953 6730418
-9.477806 -9.187728 2.050233 6730418
-9.358802 -9.628065 2.125268 6730418
-10.007626 -9.873788 2.342217 6730418
-10.297017 -9.295892 0.073303 6730418
-10.108659 -9.490820 1.589373 6730418
-10.671231 -10.594898 1.041098 6730418
-10.655404 -9.856797 1.933528 6730418
-9.099574 -9.926324 1.926250 6730418
-9.390082 -9.783380 1.219284 6730418
-9.823266 -9.191532 1.329956 6730418
-9.858438 -9.144003 0.072787 6730418
-9.054198 -9.962702 0.054607 6730418
-9.395356 -10.705146 0.530986 6730418
-10.621126 -9.845364 0.448080 6730418
-10.490566 -10.184676 2.533214 6730418
-9.672534 -10.295236 1.062275 6730418
-9.424941 -9.474174 0.607192 6730418
-9.473324 -10.805637 1.626947 6730418
-9.996022 -9.516774 0.248186 6730418
-10.737940 -9.992720 1.259456 6730418
-9.798310 -10.669187 0.640171 6730418
-9.196786 -9.568550 0.768132 6730418
-9.602901 -9.453511 2.175717 6730418
-9.843833 -10.925032 0.194952 6730418
-10.123007 -9.233634 2.424870 6730418
-10.376753 -9.524560 1.062196 6730418
-10.707623 -10.300291 1.956242 6730418
-10.906763 -10.394743 2.225260 6730418
-10.334281 -10.592714 1.122235 6730418
-10.078683 -10.706465 1.047503 6730418
-9.699335 -9.776584 1.477003 6730418
-10.595698 -10.300860 1.208508 6730418
-10.596060 -10.755280 2.122314 6730418
-10.903536 -10.209217 2.595162 6730418
-10.708651 -10.459294 2.191785 6730418
-10.089648 -9.388625 1.222306 6730418
-9.504349 -10.305639 0.559274 6730418
-10.160104 -10.669480 0.691942 6730418
-9.378490 -10.737301 0.088678 6730418
-9.477386 -9.473393 1.574435 6730418
-10.526820 -9.368563 1.580668 6730418
-10.496325 -10.584723 2.075345 6730418
-10.128842 -9.640276 2.022896 6730418
-10.790592 -9.596432 0.630861 6730418
-10.515391 -9.989165 2.854779 6730418
-10.886905 -9.899767 2.936737 6730418
-9.711638 -9.768182 1.101005 6730418
-10.917316 -9.687897 0.163014 6730418
-9.914738 -9.741429 2.590392 6730418
-9.455906 -9.252344 2.615047 6730418
-9.267926 -9.375677 0.294000 6730418
-9.901595 -9.710431 2.388323 6730418
-10.346349 -9.642118 0.346563 6730418
-10.794317 -9.986866 0.640724 6730418
-9.998698 -9.146992 1.676008 6730418
-9.760393 -9.086197 2.236989 6730418
-10.481111 -9.251301 1.224043 6730418
-10.081336 -10.050731 1.964310 6730418
-9.594183 -10.060196 0.133705 6730418
-9.402508 -9.232501 2.627748 6730418
-10.342479 -10.113791 0.997532 6730418
-10.242998 -10.216852 1.123873 6730418
-10.656437 -10.253246 0.553570 6730418
-10.445706 -10.191638 2.209107 6730418
-9.905094 -9.430310 2.245361 6730418
-9.274003 -9.381270 0.690129 6730418
-9.987169 -10.141354 1.437524 6730418
-10.398463 -9.663871 1.749884 6730418
-10.483134 -10.174213 2.460630 6730418
-9.789890 -10.392918 2.320583 6730418
-9.562078 -9.532096 2.965745 6730418
-10.722517 -9.998212 2.811174 6730418
-9.533636 -10.323542 2.322815 6730418
-9.999035 -10.047827 2.612653 6730418
-10.298033 -10.593902 1.190461 6730418
-10.073903 -9.957327 1.278872 6730418
-10.330337 -9.179444 1.352066 6730418
-9.565193 -10.203568 0.624596 6730418
-9.818986 -10.584981 0.174727 6730418
-9.790653 -10.261145 0.834406 6730418
-10.670259 -10.681092 2.912038 6730418
-9.623516 -9.368029 0.735824 6730418
-10.963300 -10.290777 1.330681 6730418
-10.322386 -9.923403 2.212311 6730418
-9.751553 -9.547548 0.933058 6730418
-9.766702 -9.167835 2.399962 6730418
-9.650370 -9.635477 1.374999 6730418
-9.267550 -9.663986 2.458033 6730418
-10.122500 -9.371545 2.599900 6730418
-10.539635 -9.712260 2.843132 6730418
-9.623867 -10.379937 2.190514 6730418
-9.474175 -10.770117 1.886235 6730418
-10.298909 -9.053275 1.833196 6730418
-10.339108 -10.348603 1.709757 6730418
-9.516294 -9.313105 1.190114 6730418
-9.877666 -10.239798 2.161121 6730418
-10.173103 -9.722007 1.816465 6730418
-10.867216 -10.305147 0.885992 6730418
-10.691750 -9.727469 0.637868 6730418
-9.324832 -9.355121 1.781887 6730418
-9.120336 -9.960179 0.075454 6730418
-10.729114 -9.523499 0.270904 6730418
-10.136610 -9.559013 1.726391 6730418
-10.457554 -9.537699 1.297147 6730418
-10.747780 -9.462890 1.149373 6730418
-10.302743 -10.061992 2.080460 6730418
-10.012113 -9.432878 2.753618 6730418
-10.803870 -9.565756 1.769121 6730418
-10.585356 -10.037477 1.113857 6730418
-10.912520 -9.734826 0.515052 6730418
-10.094591 -10.141299 0.993862 6730418
-9.427389 -9.674672 2.055100 6730418
-10.083982 -9.527093 2.782840 6730418
-10.636278 -9.430689 0.466905 6730418
-10.089437 -9.433208 0.851586 6730418
-10.725665 -10.255222 2.052404 6730418
-10.459447 -9.905460 0.667168 6730418
-9.374029 -10.530928 1.182147 6730418
-9.674347 -10.656999 1.758665 6730418
-9.952435 -10.338671 2.975378 6730418
-10.733865 -10.614052 0.352595 6730418
-10.077300 -10.064996 1.029180 6730418
-10.389516 -9.094580 0.739525 6730418
-10.116631 -10.496634 0.277474 6730418
-10.472835 -10.179829 1.760615 6730418
-9.264491 -9.383641 0.028235 6730418
-10.364965 -9.965804 0.753843 6730418
-10.444248 -9.513389 2.591520 6730418
-9.220646 -10.045837 2.878659 6730418
-10.549972 -9.787056 2.198539 6730418
-9.811906 -10.091708 0.948408 6730418
-10.304771 -10.529103 0.266057 6730418
-10.888694 -9.937634 1.624493 6730418
-9.223989 -9.847888 2.326979 6730418
-9.755523 -9.134770 0.234796 6730418
-10.566988 -10.018022 2.362301 6730418
-10.132807 -10.722018 1.969196 6730418
-10.910214 -9.784089 0.020046 6730418
-10.660897 -9.867268 0.813484 6730418
-10.189762 -10.306228 2.529335 6730418
-10.418155 -10.620194 1.212130 6730418
