# .PCD v0.7 - Point Cloud Data file format
VERSION 0.7
FIELDS x y z rgb
SIZE 4 4 4 4
TYPE F F F U
COUNT 1 1 1 1
WIDTH 1291
HEIGHT 1
VIEWPOINT 0 0 0 1 0 0 0
POINTS 1291
DATA ascii
9.820478 10.590750 0.147158 11697996
10.677299 9.646399 3.077053 11697996
9.129939 10.218212 3.387642 11697996
11.171500 10.464931 3.708851 11697996
10.066712 10.827847 0.141720 11697996
9.435041 9.452415 0.203331 11697996
10.450255 10.214704 0.771167 11697996
10.250022 10.684093 0.009426 11697996
8.997892 11.033999 1.854803 11697996
9.340075 9.696954 0.147065 11697996
9.500298 8.814747 3.870845 11697996
10.325361 10.238926 3.760133 11697996
9.609862 10.991456 3.412999 11697996
11.160092 9.777838 0.834491 11697996
9.513470 9.737412 0.810512 11697996
10.580690 10.532885 2.060952 11697996
10.160453 8.868388 2.206015 11697996
10.005267 10.670862 1.644560 11697996
10.360923 9.811913 0.700409 11697996
9.812402 11.201369 0.438943 11697996
10.700760 9.789995 1.148073 11697996
10.477925 9.685114 3.563693 11697996
9.866735 10.561239 2.269158 11697996
11.257704 9.884128 0.338859 11697996
9.744533 9.278273 1.373323 11697996
8.989109 10.388956 3.625781 11697996
9.907253 9.077235 2.207330 11697996
11.216437 9.526282 1.042278 11697996
9.018660 9.910616 1.592960 11697996
11.225158 9.992057 0.264856 11697996
9.210851 11.129267 2.525517 11697996
10.842051 9.628996 1.827082 11697996
10.499475 10.559702 0.273932 11697996
10.721570 10.730526 2.388414 11697996
10.515273 10.084360 1.785837 11697996
11.182507 9.014914 0.957041 11697996
9.622832 11.120134 0.166329 11697996
9.581611 10.079213 3.736951 11697996
10.119899 9.717382 2.427449 11697996
9.449555 10.799284 2.717272 11697996
11.053027 10.494241 1.309179 11697996
9.057234 9.053603 0.975782 11697996
9.008373 10.349341 2.574086 11697996
10.802752 9.298074 0.023071 11697996
10.236901 10.647906 2.707948 11697996
9.630941 8.797189 3.539492 11697996
10.667680 10.462801 0.597341 11697996
10.675431 8.913668 2.173317 11697996
9.754701 10.083856 1.073361 11697996
10.124700 9.210390 2.343702 11697996
9.500315 9.695850 1.456118 11697996
8.976058 9.301471 0.213106 11697996
10.299296 9.837460 2.277747 11697996
10.807452 10.569496 3.736629 11697996
9.575150 9.230150 0.098600 11697996
9.548060 10.245708 0.508915 11697996
10.484658 9.264265 1.131895 11697996
9.454058 9.280326 2.747662 11697996
10.059791 9.149049 3.867625 11697996
11.144961 10.009829 2.716068 11697996
10.858615 9.593559 1.459699 11697996
10.126090 10.693016 3.782059 11697996
10.310286 10.744923 1.981731 11697996
10.966379 10.480520 1.399677 11697996
11.175176 10.819083 0.641257 11697996
9.734813 10.513013 1.105930 11697996
8.961075 9.863119 3.439859 11697996
11.057744 9.511445 3.188008 11697996
9.440686 10.732917 2.724533 11697996
10.219733 9.617157 1.965341 11697996
10.421721 9.156672 2.847618 11697996
11.237310 8.766325 3.276681 11697996
11.217435 9.947231 1.442964 11697996
10.378335 10.951623 0.417327 11697996
9.677449 11.146124 3.041160 11697996
9.621151 10.617418 1.471170 11697996
10.731265 9.483007 2.493821 11697996
10.209787 10.481162 3.913461 11697996
10.166204 10.868214 3.588466 11697996
9.190728 10.233138 2.125135 11697996
11.175692 11.005782 0.451504 11697996
10.322885 9.377629 3.715504 11697996
11.220612 9.626689 1.495894 11697996
10.343477 11.220491 3.786756 11697996
9.977427 9.597556 3.583146 11697996
11.113749 9.866901 0.664743 11697996
9.393735 9.107167 1.074637 11697996
10.185064 10.752746 0.413895 11697996
11.231945 10.336463 0.743468 11697996
9.732720 9.532507 1.445012 11697996
10.688266 9.047435 0.827263 11697996
9.333346 9.884860 3.627035 11697996
11.045935 9.620057 0.739864 11697996
9.572509 8.799775 3.800767 11697996
10.486319 9.205341 0.844702 11697996
8.990473 9.942262 3.926590 11697996
8.798471 11.178494 3.366217 11697996
8.815335 11.075473 0.971188 11697996
9.789189 9.992809 3.258519 11697996
9.885725 9.790368 1.699076 11697996
11.134894 10.725570 2.566172 11697996
9.135883 9.772126 2.266506 11697996
10.577033 9.288631 0.184803 11697996
10.949922 9.438515 0.014898 11697996
9.328432 9.412416 2.536288 11697996
11.162373 10.395431 1.040466 11697996
10.938172 10.158343 3.653499 11697996
10.474134 10.246184 3.519222 11697996
10.979027 9.493014 3.205394 11697996
9.968450 9.474049 3.820863 11697996
10.339775 10.592402 1.398653 11697996
9.010745 9.176539 2.729541 11697996
10.734701 9.394710 3.026347 11697996
10.921647 9.923620 1.415857 11697996
10.443018 8.821919 1.157737 11697996
10.728451 10.056407 1.357659 11697996
9.778221 9.825163 2.759162 11697996
11.119972 9.195755 0.649559 11697996
11.012987 11.269120 0.832404 11697996
9.135768 8.785620 1.654688 11697996
9.503692 11.154855 2.097408 11697996
10.776713 9.474556 1.093576 11697996
9.013209 9.341725 2.141415 11697996
10.409474 9.007660 1.308779 11697996
9.619897 9.616628 0.079094 11697996
10.371204 10.110856 1.600288 11697996
10.509725 9.546995 2.823178 11697996
11.066297 10.894934 1.728108 11697996
10.783238 11.068804 3.513896 11697996
9.465244 9.053218 0.062308 11697996
9.586118 8.963852 2.088037 11697996
10.040313 9.791797 3.310956 11697996
9.318603 10.282066 1.472912 11697996
8.892835 11.175842 2.826717 11697996
9.702415 9.336002 1.656454 11697996
9.273409 9.537055 3.869850 11697996
9.679093 8.894940 3.189793 11697996
10.305817 10.864388 2.041445 11697996
9.844359 9.428335 0.830762 11697996
9.341442 11.180635 1.992195 11697996
10.945328 9.259680 3.353050 11697996
9.586183 9.706040 3.047677 11697996
9.323346 9.838040 1.933062 11697996
9.035481 9.380947 1.684921 11697996
8.905981 10.335898 3.489951 11697996
8.971932 9.331288 2.431782 11697996
9.332336 9.913091 3.717492 11697996
10.504985 10.897452 3.694586 11697996
10.060193 10.334782 2.924238 11697996
10.090497 10.736472 0.045627 11697996
10.571336 9.220922 2.090589 11697996
8.762671 11.177505 0.434884 11697996
9.698244 10.813745 0.062133 11697996
10.923956 9.068587 0.963709 11697996
9.336385 8.958370 1.228725 11697996
10.912732 9.065989 3.809097 11697996
10.921294 10.883800 1.204995 11697996
9.879657 9.127143 3.958819 11697996
8.787218 9.284611 3.098129 11697996
10.384322 9.281425 0.773845 11697996
10.243776 9.299708 1.178115 11697996
10.961109 9.144856 0.377935 11697996
9.094767 9.940982 1.522177 11697996
9.824637 11.165628 2.217500 11697996
10.509130 10.903029 2.294891 11697996
9.527708 10.616540 1.256750 11697996
10.232361 9.751548 3.934900 11697996
9.487026 10.136644 1.383096 11697996
9.841903 10.717783 0.382192 11697996
10.114145 9.276420 3.648267 11697996
11.037981 9.979661 1.065364 11697996
10.665314 10.125892 2.398149 11697996
9.511235 10.032175 1.740507 11697996
11.020671 9.821442 2.199813 11697996
11.236223 11.100707 1.082601 11697996
11.127038 11.099108 3.687210 11697996
11.141388 10.889937 3.083936 11697996
9.340175 9.653985 2.995472 11697996
8.848150 10.271853 2.758313 11697996
10.613246 9.008557 1.550150 11697996
11.116307 11.128739 2.271615 11697996
8.778968 10.802128 1.967943 11697996
10.437113 9.457992 1.442571 11697996
9.827690 10.192861 0.105634 11697996
8.873060 10.751713 3.830036 11697996
10.494539 9.137414 3.223296 11697996
10.946555 10.191758 3.537765 11697996
11.213658 8.878907 1.515628 11697996
10.953211 11.080540 0.732016 11697996
10.947560 9.743932 3.085091 11697996
10.523287 10.401580 3.616803 11697996
10.775767 10.284056 3.874296 11697996
9.531561 9.648364 0.656298 11697996
10.159914 10.566475 2.081754 11697996
10.030210 9.289051 0.618278 11697996
9.835064 8.892604 1.359517 11697996
8.740685 10.299419 1.035973 11697996
9.237837 11.093661 2.121285 11697996
10.477679 9.905231 1.977955 11697996
9.731040 9.828326 0.695257 11697996
9.472105 9.862776 2.383627 11697996
10.662238 9.482184 0.348658 11697996
10.567181 9.339421 1.890588 11697996
10.341363 11.144846 2.712990 11697996
10.360655 10.996556 2.429935 11697996
10.019466 10.264758 2.987112 11697996
9.683387 9.908998 1.250252 11697996
9.505646 10.651451 1.476502 11697996
9.013305 9.851023 2.670682 11697996
10.169829 9.538982 0.851249 11697996
10.822875 10.630605 1.991166 11697996
11.118829 10.612788 1.203321 11697996
10.183214 10.618792 3.680740 11697996
9.491377 9.407414 3.635590 11697996
10.446456 8.819230 2.583915 11697996
9.059731 10.190945 3.895188 11697996
10.898037 10.116523 3.893795 11697996
10.437371 10.827363 0.090106 11697996
11.052515 9.399977 3.875909 11697996
10.399662 10.281969 0.830711 11697996
11.201422 10.585868 3.716560 11697996
10.598619 9.415144 3.033135 11697996
10.768704 8.908467 3.506163 11697996
11.017159 9.786191 1.035952 11697996
9.338782 10.796169 0.576657 11697996
9.857764 9.944440 3.140027 11697996
8.954047 8.834180 3.678466 11697996
11.244258 10.281076 2.793324 11697996
9.668661 11.000875 2.406837 11697996
10.500310 9.842084 2.707271 11697996
10.266938 10.736908 2.971901 11697996
8.850363 8.837255 2.772990 11697996
10.644991 11.089163 1.927891 11697996
8.784748 9.064748 2.683218 11697996
9.280011 10.453750 2.118732 11697996
9.465271 9.021908 0.740124 11697996
9.173586 9.288781 2.204550 11697996
10.791322 9.204085 3.679414 11697996
11.172270 9.630027 0.274467 11697996
9.960836 10.386065 3.542135 11697996
9.274019 10.392121 2.198374 11697996
9.588543 9.072948 2.222587 11697996
10.637054 10.681107 0.037296 11697996
11.072336 11.161225 2.802845 11697996
10.687119 11.188475 0.024434 11697996
10.798750 10.004285 3.959101 11697996
10.154256 10.740170 3.842631 11697996
9.924420 8.806241 1.268941 11697996
10.898497 9.001385 3.182128 11697996
8.828002 9.496944 1.489130 11697996
9.978230 8.927501 1.291812 11697996
9.089787 10.314417 0.469180 11697996
10.791979 9.163450 3.319075 11697996
10.140611 9.542507 2.060224 11697996
9.689651 10.047459 3.950531 11697996
11.210718 11.197351 3.996079 11697996
9.814542 9.214751 3.471155 11697996
11.133056 9.769782 1.361402 11697996
9.071187 9.880585 2.938056 11697996
8.814328 10.485796 3.210366 11697996
10.371541 9.269324 3.388401 11697996
10.668571 9.501637 1.753840 11697996
10.402987 8.788985 1.748776 11697996
10.681162 9.892021 2.294482 11697996
8.844315 9.330617 2.963855 11697996
9.800058 10.869913 3.093502 11697996
9.527874 9.583123 3.531714 11697996
9.941732 9.760307 1.448947 11697996
8.871165 11.143789 3.033954 11697996
9.019933 10.301060 1.953661 11697996
8.754631 10.706015 0.090294 11697996
9.798336 9.313359 2.534637 11697996
11.189035 9.351772 1.272244 11697996
9.238783 9.868156 2.011467 11697996
8.942634 10.975743 0.542811 11697996
10.058948 10.020413 2.236513 11697996
9.821733 10.314224 3.051020 11697996
11.058152 10.592175 3.588881 11697996
8.819561 9.079647 2.007034 11697996
9.764159 8.915769 0.527271 11697996
10.380401 8.963700 3.385525 11697996
9.893391 10.232512 1.542052 11697996
10.304350 8.899930 1.443427 11697996
11.004466 9.252225 1.343471 11697996
10.212715 10.202681 3.181346 11697996
9.939840 9.233714 2.523304 11697996
10.458340 10.350449 1.343092 11697996
10.999003 10.907806 1.365522 11697996
9.004318 10.412032 0.716345 11697996
9.116576 10.229982 1.688029 11697996
9.021354 9.265944 0.096985 11697996
10.854721 9.166903 1.155131 11697996
10.401969 10.159988 2.233987 11697996
9.463425 10.843418 1.032229 11697996
8.929417 10.685712 1.384650 11697996
11.003155 10.736532 0.382902 11697996
10.004934 10.170184 2.617079 11697996
9.335550 10.678801 2.808497 11697996
10.842681 8.977663 3.826094 11697996
10.885591 10.027170 2.564952 11697996
9.746739 9.931396 3.939777 11697996
11.171477 11.040545 2.184652 11697996
10.483134 10.326612 1.335911 11697996
10.551848 9.260174 1.162011 11697996
10.811808 9.185271 2.781339 11697996
8.854520 10.790236 0.588425 11697996
10.380633 8.946115 2.994338 11697996
9.548845 9.893825 1.391742 11697996
9.376270 9.590711 0.402701 11697996
10.830091 10.487423 3.625757 11697996
10.604731 9.806194 3.881175 11697996
8.801070 10.894321 2.224920 11697996
9.688885 9.767753 3.031564 11697996
9.052183 8.801697 2.553077 11697996
11.026307 9.659784 1.579174 11697996
10.760581 10.808092 0.168111 11697996
9.376714 11.113976 2.717684 11697996
10.328622 10.157136 2.573908 11697996
9.537897 9.538412 2.028435 11697996
8.875614 9.985704 1.965916 11697996
9.135813 10.739456 0.868919 11697996
8.815530 10.792585 1.722065 11697996
9.784293 9.965502 2.060028 11697996
10.333871 8.968278 1.723253 11697996
9.519021 9.877038 0.558829 11697996
9.299178 9.649658 0.725214 11697996
8.794406 10.256691 3.139025 11697996
10.433652 10.269435 3.715312 11697996
10.797893 10.775812 0.049093 11697996
10.263888 10.139062 0.458399 11697996
11.029807 9.847498 1.896078 11697996
9.834928 9.235220 2.246847 11697996
10.095773 9.059147 0.107653 11697996
9.672072 10.026409 0.945207 11697996
10.585013 10.078036 1.594990 11697996
9.260344 11.113222 2.424415 11697996
9.690672 10.137732 0.742884 11697996
9.886632 10.897078 0.174710 11697996
10.408756 10.484839 2.052414 11697996
9.137411 10.025615 0.486264 11697996
8.864140 11.021072 0.876950 11697996
11.093364 9.378540 0.801832 11697996
10.125446 9.223317 2.600509 11697996
10.988546 10.837557 0.516245 11697996
10.452963 11.017498 2.150637 11697996
9.020181 10.284404 3.539310 11697996
9.433851 9.636303 0.153359 11697996
11.107512 8.985616 3.004783 11697996
11.113600 8.952702 3.897007 11697996
8.849538 10.503512 0.423988 11697996
8.890719 9.497558 0.763803 11697996
10.290046 11.126602 2.993547 11697996
8.808507 10.181640 0.860601 11697996
8.785860 8.799442 3.808187 11697996
11.200707 10.576012 2.118828 11697996
10.425235 9.021554 3.215341 11697996
9.328392 9.187864 0.539129 11697996
10.936449 9.723918 3.355671 11697996
10.647178 10.422445 0.440130 11697996
9.777906 8.945509 3.757613 11697996
9.301347 9.438528 2.387898 11697996
9.111573 9.233732 3.893260 11697996
9.785061 9.751350 1.977906 11697996
10.474813 10.562779 0.025913 11697996
9.542598 10.856939 1.272112 11697996
10.364726 10.423608 2.584359 11697996
11.000449 10.984416 0.631298 11697996
9.249902 9.490735 1.076990 11697996
9.584960 9.302979 2.822211 11697996
9.657795 10.362477 1.390231 11697996
10.053912 10.899406 3.165079 11697996
11.180856 9.792531 0.010728 11697996
9.474754 9.532091 0.955070 11697996
8.917592 10.676789 1.270835 11697996
9.096598 9.094647 3.651788 11697996
10.811692 9.819068 2.440237 11697996
11.211574 8.892748 4.002475 11697996
9.961076 10.859885 1.828902 11697996
8.903768 8.988402 0.993100 11697996
9.679513 10.178305 1.031424 11697996
10.320023 9.591331 1.560036 11697996
10.828605 10.385465 1.345438 11697996
10.260726 9.389591 3.970216 11697996
10.097075 9.588248 3.256563 11697996
9.002280 10.389933 0.923335 11697996
9.869735 9.218904 3.719049 11697996
11.149647 8.988823 2.116807 11697996
10.827580 10.806270 0.391811 11697996
9.201372 10.321786 0.887337 11697996
9.350281 11.103927 3.194031 11697996
9.795722 8.975973 0.156982 11697996
9.999511 9.642825 0.419745 11697996
8.843693 10.060305 2.471107 11697996
9.980852 11.116007 0.849469 11697996
10.413929 9.964720 0.045481 11697996
10.314885 9.643382 3.005289 11697996
10.047728 9.225628 3.322310 11697996
10.321022 9.802484 3.828315 11697996
9.306525 11.129858 1.610210 11697996
9.052669 10.521406 1.420019 11697996
8.840649 9.947150 2.253244 11697996
9.841193 10.231750 2.340483 11697996
10.823473 10.561479 1.404747 11697996
10.955721 9.906824 3.723479 11697996
10.285174 10.046563 2.679284 11697996
8.889471 9.627512 2.035051 11697996
10.925309 10.766147 1.448239 11697996
10.802403 8.840307 3.019127 11697996
9.061275 10.244555 3.186898 11697996
10.829419 8.949075 1.569680 11697996
9.230869 10.934030 0.474822 11697996
10.789468 9.933065 0.010878 11697996
10.709101 10.333979 3.580376 11697996
10.890079 10.965599 2.306623 11697996
10.038880 9.531384 3.355930 11697996
10.970110 10.280018 0.231449 11697996
8.915015 9.318416 2.634194 11697996
9.395318 8.843513 2.989194 11697996
9.408381 10.112814 1.944851 11697996
10.761711 10.808366 3.203455 11697996
8.974670 8.947074 0.466208 11697996
10.838414 10.677299 3.101133 11697996
9.930315 10.061632 3.270177 11697996
11.175150 10.655787 2.879331 11697996
11.070788 10.067836 1.968048 11697996
9.217210 10.007083 2.811470 11697996
10.609453 10.770045 3.190641 11697996
9.364031 10.771708 1.757310 11697996
11.198079 9.471089 3.558340 11697996
10.945069 9.608220 0.996621 11697996
8.907686 11.006989 0.435442 11697996
8.845778 10.947443 0.126809 11697996
10.217875 10.015257 1.320675 11697996
10.620498 10.277858 1.447521 11697996
8.922149 9.987299 3.804403 11697996
10.465038 10.602283 1.835546 11697996
9.623948 11.158088 2.743136 11697996
10.898068 9.656661 3.152002 11697996
8.865900 10.904367 3.941521 11697996
10.850249 10.435638 1.864660 11697996
10.736546 9.693114 1.092970 11697996
9.788150 9.428105 0.382793 11697996
10.091097 10.054247 2.761074 11697996
9.768829 11.149754 0.750377 11697996
8.981349 10.003057 3.963480 11697996
10.456917 9.803350 3.153820 11697996
9.392106 9.770442 0.683431 11697996
8.934153 11.181455 3.057087 11697996
9.256052 9.040154 3.730615 11697996
11.102940 9.007833 2.152655 11697996
11.216217 10.786620 0.931356 11697996
10.835690 10.595569 3.715332 11697996
9.090756 9.671746 3.951922 11697996
10.794131 10.597310 2.187952 11697996
10.649398 10.561927 0.430839 11697996
9.221299 9.000908 1.651477 11697996
9.295121 9.947392 3.776767 11697996
8.885878 9.648763 1.827236 11697996
10.670066 8.930511 1.597207 11697996
10.708983 10.466272 2.334106 11697996
10.651582 9.819619 1.843064 11697996
10.887285 10.089909 4.005519 11697996
9.064248 9.443905 2.783273 11697996
10.440627 9.718843 3.184112 11697996
10.764189 9.007161 2.160058 11697996
9.110696 10.790245 0.134561 11697996
9.262636 11.094963 3.208512 11697996
9.893623 10.946905 0.820198 11697996
10.881750 10.774257 0.861213 11697996
9.199840 9.476963 1.061254 11697996
10.426046 9.649635 3.617006 11697996
10.890629 11.206161 0.735677 11697996
9.213762 11.128005 2.186878 11697996
9.622102 10.670155 1.780877 11697996
10.075202 9.891378 3.951199 11697996
9.385388 10.931393 2.688912 11697996
10.853529 10.483485 3.184423 11697996
10.811571 10.901308 3.061492 11697996
9.706624 10.511587 1.335384 11697996
10.831010 9.301799 1.122147 11697996
9.962508 9.361238 0.560418 11697996
9.020236 9.556567 1.047920 11697996
9.166317 9.166643 0.226935 11697996
9.275267 10.306831 3.845418 11697996
9.712431 8.913428 0.432853 11697996
9.210066 8.757132 2.290335 11697996
10.848828 9.192241 2.956189 11697996
8.898680 9.661500 3.896093 11697996
9.561640 10.126308 3.659721 11697996
11.066280 9.221236 0.932711 11697996
10.703945 9.473037 1.232964 11697996
9.838236 9.585128 1.569124 11697996
8.789653 11.155821 2.175600 11697996
11.095036 10.246586 2.339784 11697996
11.201987 9.596144 1.206566 11697996
11.197493 9.791615 0.676762 11697996
9.124359 9.779275 2.527983 11697996
9.129782 10.301702 3.216980 11697996
9.547562 9.425642 2.860168 11697996
8.809185 9.552411 3.759614 11697996
10.173060 10.862123 2.578468 11697996
10.596641 10.266297 3.811083 11697996
9.993578 10.117692 3.889439 11697996
8.825466 8.894418 1.705898 11697996
10.251709 8.951591 0.269386 11697996
9.134294 10.953216 0.825551 11697996
8.780109 8.915131 3.116120 11697996
9.890430 8.922236 3.173715 11697996
11.154125 10.939876 2.202879 11697996
9.259962 8.792075 0.923002 11697996
8.967238 9.097143 1.606376 11697996
9.322780 10.243189 1.380654 11697996
10.483991 8.752946 3.299791 11697996
10.730714 9.825578 3.693377 11697996
9.576364 9.717422 0.378570 11697996
9.392405 8.790232 3.308508 11697996
10.709080 9.541867 2.381719 11697996
10.150118 9.516222 3.975121 11697996
9.559535 9.816758 1.636995 11697996
9.819263 10.113101 3.028147 11697996
9.988507 9.388998 1.839751 11697996
10.733322 10.908760 1.444298 11697996
9.933495 8.829018 1.465106 11697996
9.202347 10.403343 1.920129 11697996
9.126204 11.061167 2.019888 11697996
9.991623 9.794752 3.662199 11697996
11.007428 10.089417 0.173156 11697996
9.347470 10.995956 1.400966 11697996
9.858024 10.179948 3.399234 11697996
11.242971 10.686634 0.229534 11697996
10.027767 9.590310 1.278579 11697996
10.878138 9.417706 2.347354 11697996
10.596590 8.769954 1.647272 11697996
8.895431 10.810689 2.384470 11697996
9.083354 9.466489 1.767207 11697996
9.202277 8.846169 3.770842 11697996
9.808784 9.095372 1.104507 11697996
9.584019 8.816560 3.047009 11697996
10.615020 8.782800 2.809988 11697996
11.189435 9.459811 0.271474 11697996
11.218147 9.899553 2.869873 11697996
10.178779 11.235782 0.645567 11697996
10.017542 10.771482 1.981352 11697996
9.812510 10.522164 1.099687 11697996
10.711976 9.824361 2.496835 11697996
10.733787 8.842007 1.748497 11697996
10.684254 9.179134 0.573135 11697996
10.418781 10.741670 0.672609 11697996
8.752789 9.261580 3.436961 11697996
9.923175 10.408868 1.018425 11697996
10.035497 10.817529 1.680109 11697996
8.869762 10.252072 3.849954 11697996
9.456074 10.032955 1.588097 11697996
10.828526 9.827383 1.596088 11697996
8.783374 8.929033 1.042714 11697996
9.389503 11.109364 1.666542 11697996
10.886937 9.445342 1.638930 11697996
8.819332 11.214708 2.965507 11697996
8.874522 10.083791 0.864733 11697996
10.570163 10.733296 0.844741 11697996
9.075696 8.803125 2.647768 11697996
10.060805 9.538451 2.588631 11697996
8.829038 10.099114 3.346412 11697996
10.601735 9.472471 2.518016 11697996
8.898176 9.848138 0.488894 11697996
9.563262 10.164427 3.977924 11697996
8.806201 9.906290 1.323432 11697996
9.208823 10.328651 3.140414 11697996
11.217654 11.057091 0.872113 11697996
9.801291 9.894419 0.338220 11697996
9.681639 9.868106 0.272521 11697996
11.007451 9.921797 1.357063 11697996
9.243493 11.177020 0.621630 11697996
11.085526 11.104557 2.973068 11697996
11.081676 10.680320 1.343857 11697996
10.485640 10.514000 0.251205 11697996
10.026399 11.207252 1.503660 11697996
10.524335 10.245847 3.813357 11697996
9.401907 10.527105 0.561726 11697996
10.575275 9.397034 3.119172 11697996
10.253548 10.693748 0.768741 11697996
8.844390 10.032127 1.637356 11697996
11.150995 9.720993 1.517244 11697996
8.959495 9.298305 3.413944 11697996
10.303905 8.842980 3.571918 11697996
10.467463 8.824578 3.916229 11697996
9.288725 9.104263 2.100637 11697996
10.431986 10.811043 0.599228 11697996
10.675933 9.680906 0.425475 11697996
10.639627 9.873983 1.900489 11697996
9.433745 9.840661 3.602329 11697996
8.926459 9.133633 2.863690 11697996
10.325318 9.193007 2.874412 11697996
10.043993 11.042851 3.046106 11697996
10.360079 10.571767 3.487261 11697996
10.101479 10.109941 0.852107 11697996
9.927516 9.603920 0.392799 11697996
9.487997 11.015536 1.465379 11697996
10.137610 8.892243 1.154560 11697996
10.100073 11.163962 2.649689 11697996
10.073854 9.367042 2.253757 11697996
9.012163 8.859317 0.214833 11697996
9.256065 9.237810 2.041629 11697996
9.312285 10.856773 0.825102 11697996
11.170431 9.699965 1.969742 11697996
10.529014 11.234303 2.002099 11697996
9.199685 11.062773 0.604652 11697996
8.793400 11.274213 0.064162 11697996
9.455495 10.132634 0.725573 11697996
10.651704 10.543056 2.622324 11697996
10.795565 10.361486 1.027656 11697996
9.577906 11.004106 1.490330 11697996
9.013412 9.031945 1.552383 11697996
9.716425 11.011077 1.278677 11697996
9.747829 9.085896 0.613889 11697996
9.224337 8.964926 2.027179 11697996
10.918789 10.401044 0.027255 11697996
10.633835 9.264544 1.795544 11697996
9.988054 9.940923 1.112184 11697996
10.282253 10.511444 3.135321 11697996
9.980177 10.976900 0.365642 11697996
9.093626 10.550709 3.470286 11697996
9.624143 11.216271 3.406019 11697996
8.989183 10.555305 0.472232 11697996
10.159822 8.854504 3.263401 11697996
10.771544 10.318603 0.767681 11697996
10.095208 8.848195 2.464657 11697996
11.273627 9.060296 0.470080 11697996
9.505691 9.203473 0.630504 11697996
11.199036 9.026696 3.310681 11697996
9.187930 9.753879 0.750556 11697996
9.331355 9.254123 3.980743 11697996
10.473953 9.264528 2.541410 11697996
9.816541 9.397644 1.013237 11697996
10.040142 11.253053 2.906198 11697996
11.100648 10.364809 0.284681 11697996
10.813021 9.257308 0.998454 11697996
10.594331 10.681005 3.154119 11697996
10.548055 10.913254 1.466857 11697996
9.945615 9.045134 0.786166 11697996
10.743212 9.757275 0.178070 11697996
9.039026 9.959795 0.494789 11697996
10.828096 9.648687 1.398028 11697996
10.592100 11.223974 3.947797 11697996
10.624705 9.603269 3.759270 11697996
11.180062 9.929922 2.970120 11697996
11.079259 9.982395 3.083327 11697996
8.839211 10.855610 2.781567 11697996
11.078249 9.844455 2.749201 11697996
9.283852 9.769375 3.432847 11697996
9.295128 8.974972 3.461927 11697996
9.858641 10.740552 2.567053 11697996
10.927896 9.204039 0.158935 11697996
10.731470 10.510890 1.293386 11697996
9.900244 10.675110 2.354921 11697996
9.141975 10.429074 1.775074 11697996
10.215057 9.322376 2.223875 11697996
11.046516 10.176004 0.179943 11697996
10.064376 11.156893 2.969433 11697996
10.590189 11.015091 3.824474 11697996
9.788727 8.810013 1.523216 11697996
9.594808 9.489695 1.388859 11697996
10.675638 10.725659 1.628981 11697996
9.599155 10.499855 2.721137 11697996
10.209772 11.246366 0.277702 11697996
9.616210 8.868227 3.282813 11697996
9.541178 10.277312 3.174877 11697996
10.356317 9.096464 3.338315 11697996
9.391255 10.327398 2.959161 11697996
9.631021 10.641455 1.727136 11697996
9.103869 10.810347 2.137647 11697996
10.791159 10.537081 0.898437 11697996
10.805285 10.931370 3.706822 11697996
10.722709 10.956461 1.680638 11697996
11.197432 9.279672 3.258189 11697996
9.867380 11.241052 1.741390 11697996
8.847105 8.783747 2.474739 11697996
9.177975 10.089666 3.109597 11697996
10.565849 10.045932 0.210781 11697996
8.854187 10.212946 3.388797 11697996
10.316089 9.548213 0.842005 11697996
10.267930 8.996579 1.397581 11697996
9.615580 8.891070 3.629860 11697996
9.761271 9.813622 1.585612 11697996
10.879442 9.973511 3.077979 11697996
10.671189 10.339401 3.282152 11697996
10.800975 10.465254 0.655939 11697996
10.741192 10.237042 3.857846 11697996
11.079068 9.496583 1.662219 11697996
9.523806 10.784195 2.592669 11697996
10.242574 8.785472 3.147393 11697996
11.150299 9.510124 2.706817 11697996
10.332913 10.058771 2.055556 11697996
10.338361 10.045810 1.019754 11697996
8.887347 10.974997 3.435506 11697996
10.634506 9.917336 1.767981 11697996
9.466220 9.993163 2.139552 11697996
10.116983 10.701683 3.234960 11697996
9.262091 10.464518 1.895218 11697996
9.249128 9.739339 2.721735 11697996
9.791701 9.134014 3.528636 11697996
9.615656 11.024018 2.016438 11697996
10.611305 8.859203 1.296993 11697996
8.909980 11.133642 0.049395 11697996
11.015574 10.379768 2.084126 11697996
8.867517 11.201234 0.012774 11697996
9.277234 11.101614 1.568928 11697996
10.161270 9.165985 1.461320 11697996
9.209110 10.607362 0.536824 11697996
10.810095 10.946866 3.755110 11697996
10.171968 9.779740 2.651429 11697996
10.962831 10.453539 2.316821 11697996
11.154202 9.920052 2.108638 11697996
9.975904 10.244787 2.215774 11697996
10.015192 10.185251 2.036067 11697996
8.881124 9.528847 0.960158 11697996
10.375995 11.008832 2.178146 11697996
10.998198 10.920743 1.660793 11697996
9.936529 8.874358 0.538415 11697996
9.300392 10.381222 3.275214 11697996
11.164959 9.195484 3.180823 11697996
11.089521 10.635937 2.371663 11697996
10.858811 11.202003 1.189970 11697996
10.726750 9.564383 2.701771 11697996
9.993241 10.801904 1.077791 11697996
11.064851 10.052266 1.249688 11697996
8.999063 10.083916 2.572551 11697996
10.067773 10.403338 0.453741 11697996
10.816761 9.927050 3.400193 11697996
9.830284 10.405448 3.074945 11697996
10.074197 11.163246 1.581873 11697996
9.564807 9.942378 1.545598 11697996
10.307899 10.218522 3.235790 11697996
10.918631 10.685897 3.154378 11697996
10.714894 10.696694 0.879762 11697996
10.739305 10.085925 1.579637 11697996
9.737073 10.679235 3.991186 11697996
10.846244 9.561583 1.390288 11697996
9.093450 10.146240 3.891845 11697996
9.140787 9.570978 0.229559 11697996
10.967780 10.898981 1.647416 11697996
10.116234 10.271167 2.365448 11697996
9.546545 10.978979 1.793407 11697996
10.157393 10.720576 0.216579 11697996
10.856165 8.882991 0.772988 11697996
9.113150 10.880556 0.680248 11697996
11.021778 10.982957 0.526369 11697996
10.072785 10.163898 3.209615 11697996
10.402913 9.950700 0.219460 11697996
10.239160 8.947837 1.587146 11697996
9.286691 8.887974 1.495437 11697996
8.946262 10.329784 3.076216 11697996
10.484887 9.343315 1.538365 11697996
9.151336 9.337502 3.718907 11697996
9.480971 9.230139 0.627140 11697996
10.371449 11.039902 1.165631 11697996
10.517430 9.155497 1.469763 11697996
11.142666 10.373096 1.866826 11697996
10.614480 9.001105 3.665691 11697996
10.936174 10.835878 0.814134 11697996
10.860771 9.191658 1.484251 11697996
9.595012 11.159687 1.843745 11697996
8.936705 10.190243 1.822336 11697996
11.223626 10.149566 0.221380 11697996
10.022301 10.991846 3.631462 11697996
10.601156 10.305349 0.268224 11697996
8.833776 10.575664 0.572549 11697996
8.987743 8.852536 1.495886 11697996
10.882538 9.471197 0.192655 11697996
10.405787 9.470539 3.724750 11697996
10.239035 10.434022 0.734210 11697996
10.397590 10.780309 0.157447 11697996
10.794652 9.174970 1.233187 11697996
10.954268 9.805435 3.754739 11697996
10.453038 9.582262 1.587360 11697996
8.850954 8.956060 0.556832 11697996
10.198497 10.276561 3.695804 11697996
9.240647 10.982359 0.665344 11697996
10.775051 8.807802 0.550746 11697996
8.991511 10.676985 2.528080 11697996
10.724159 9.475904 3.115304 11697996
9.564839 9.754870 0.846339 11697996
10.986082 11.178788 2.365063 11697996
9.615952 10.556484 2.840539 11697996
9.681132 11.120258 1.268842 11697996
9.805164 11.135779 2.729277 11697996
10.324945 10.283418 3.021745 11697996
10.444961 10.677339 3.522851 11697996
10.927783 10.694407 1.436998 11697996
9.126399 10.864684 2.653233 11697996
10.851758 9.658091 0.396531 11697996
11.010842 10.548295 3.124790 11697996
8.792300 9.113054 3.982251 11697996
9.498441 9.435293 2.525303 11697996
10.728953 10.246639 2.465650 11697996
8.802135 9.459944 0.700783 11697996
10.271691 9.274164 3.708925 11697996
10.142795 9.125875 2.571578 11697996
10.384014 11.046107 2.569326 11697996
9.099825 9.489899 1.912563 11697996
10.087905 9.366624 2.240858 11697996
9.177926 9.413033 0.652042 11697996
11.017680 9.559846 3.937282 11697996
10.253951 10.728199 1.843669 11697996
11.007206 9.994767 2.410161 11697996
10.229530 10.939372 1.684982 11697996
9.631450 9.762485 3.291210 11697996
10.603641 8.868761 1.967496 11697996
9.246968 10.729413 1.521840 11697996
9.374345 9.268732 2.079985 11697996
9.128424 9.084150 3.257403 11697996
9.389069 10.521487 2.008659 11697996
11.107960 9.043439 2.288590 11697996
11.148440 9.873003 2.443458 11697996
9.312706 11.159969 2.955272 11697996
9.593952 11.209342 1.210683 11697996
9.061264 9.535332 3.181408 11697996
11.195954 8.925568 1.367638 11697996
10.201108 9.977103 1.736006 11697996
10.071051 10.455139 2.639063 11697996
9.351521 9.162037 0.702374 11697996
9.952604 9.409065 0.380314 11697996
9.086231 8.920918 1.387040 11697996
8.820014 10.341763 2.411518 11697996
9.725780 8.937824 2.958703 11697996
10.104519 10.994901 0.851829 11697996
11.060452 9.260870 3.998668 11697996
10.741522 8.982845 1.232305 11697996
9.651892 9.941118 2.821839 11697996
10.100574 9.372587 2.804132 11697996
10.059307 11.127028 3.081715 11697996
11.026978 10.850657 3.192030 11697996
9.422961 10.907489 1.027064 11697996
9.548834 10.746014 1.077754 11697996
8.757112 9.312843 0.090487 11697996
10.515706 10.784672 2.065619 11697996
10.457365 10.657405 2.456399 11697996
10.187942 9.099015 2.934955 11697996
10.327497 9.622701 3.734283 11697996
9.186747 10.721478 3.699351 11697996
9.699014 10.852511 2.571832 11697996
10.967287 9.907243 0.462583 11697996
10.612605 10.856746 3.353178 11697996
10.787389 10.268925 2.105885 11697996
10.338953 10.454107 0.323802 11697996
11.020929 10.460639 2.638090 11697996
9.696006 9.670609 2.634822 11697996
11.141860 10.924265 1.275221 11697996
9.407069 9.488913 3.136521 11697996
10.949228 8.920692 3.575105 11697996
11.240310 9.828533 1.946284 11697996
10.436549 10.310486 2.617630 11697996
9.691360 9.113604 0.447897 11697996
11.222140 10.387589 0.301258 11697996
9.975510 9.269339 0.987288 11697996
10.400328 10.359230 2.405080 11697996
10.812125 8.750350 1.197988 11697996
9.987267 9.013939 0.545497 11697996
9.690355 11.192084 0.819291 11697996
10.137506 9.184002 1.183464 11697996
8.870667 9.503446 1.538332 11697996
9.694865 8.869606 1.709558 11697996
9.802178 9.863437 1.052219 11697996
10.108523 10.843578 3.358688 11697996
10.247163 8.913124 1.109254 11697996
9.096148 10.194649 1.334868 11697996
11.110834 8.858656 1.986339 11697996
11.037946 9.343646 2.211491 11697996
11.066435 9.183408 3.975455 11697996
8.916495 10.412000 2.303640 11697996
8.899439 10.422737 0.535354 11697996
9.057401 11.083257 3.743762 11697996
9.198771 9.669067 0.826970 11697996
9.218832 10.784005 1.410567 11697996
9.370590 10.723288 1.367015 11697996
11.007026 10.242672 1.984407 11697996
10.356022 10.521065 2.559143 11697996
8.877841 10.218137 3.307140 11697996
9.470902 10.188581 3.581458 11697996
9.092804 10.922115 3.186339 11697996
11.149065 10.273385 0.748453 11697996
9.432824 9.074365 2.472888 11697996
9.132063 10.077346 1.048300 11697996
11.048358 9.480142 2.047420 11697996
10.819930 9.504057 0.266280 11697996
9.779268 10.372731 1.853388 11697996
10.251315 10.081676 1.211301 11697996
8.746161 10.440201 3.076713 11697996
10.360539 9.223173 1.387790 11697996
9.753108 9.290565 0.001506 11697996
9.237928 9.976845 2.868454 11697996
10.555218 9.520720 0.876568 11697996
10.196608 10.161811 3.559598 11697996
8.945194 11.080486 1.888420 11697996
11.048262 9.199619 1.315326 11697996
9.222543 9.753371 2.974318 11697996
8.934943 9.073421 2.181089 11697996
9.423764 10.247062 1.080875 11697996
11.078429 9.659092 3.479883 11697996
9.633972 10.089572 1.935651 11697996
10.608279 11.201313 0.042992 11697996
9.676605 9.658887 1.374404 11697996
10.794353 8.920919 3.647276 11697996
9.583965 10.434983 0.266682 11697996
10.777251 10.009542 2.876053 11697996
9.102713 10.042888 3.799947 11697996
8.995956 10.815019 3.464967 11697996
10.685309 8.941167 1.542233 11697996
9.145067 10.570800 2.746696 11697996
9.940943 10.052257 3.974102 11697996
10.129683 10.911010 2.291352 11697996
9.862123 10.132586 0.343534 11697996
8.846370 8.895378 2.147270 11697996
10.238599 9.781795 3.830961 11697996
10.625259 11.182866 2.209806 11697996
9.291159 10.106237 3.185405 11697996
9.857059 9.910001 2.621794 11697996
8.921503 10.263487 0.196044 11697996
10.787617 10.474170 1.906405 11697996
10.130832 9.674980 3.358785 11697996
10.953798 10.158378 3.405435 11697996
8.959857 9.222778 3.938121 11697996
9.284694 10.860147 3.334937 11697996
10.287348 10.727055 0.996730 11697996
10.770951 9.850818 2.257627 11697996
10.499310 8.742076 3.489306 11697996
10.793286 8.915921 0.879417 11697996
9.365304 10.246531 2.569082 11697996
9.093474 10.825748 1.151534 11697996
10.351834 8.826706 3.275914 11697996
9.691751 10.810820 2.920361 11697996
9.894516 10.534008 1.165385 11697996
11.103899 10.993252 1.447906 11697996
9.589157 8.848595 3.912982 11697996
10.743802 9.832760 2.279931 11697996
8.775308 9.313098 1.156089 11697996
10.843179 11.147004 3.739879 11697996
10.687914 10.941970 2.525030 11697996
9.502096 9.748802 1.198372 11697996
10.194665 9.223491 1.975227 11697996
9.741536 10.013537 2.739015 11697996
10.021449 9.679696 0.818485 11697996
10.348185 11.225731 1.888704 11697996
10.662169 9.193712 0.214375 11697996
9.506423 10.670023 1.194746 11697996
11.179642 11.008304 2.560439 11697996
10.486589 9.771602 2.107140 11697996
9.009524 10.343523 3.882893 11697996
9.206258 10.609056 0.158229 11697996
10.277808 10.041805 3.672352 11697996
10.769634 10.634179 3.113896 11697996
9.617373 11.227492 3.666070 11697996
9.393478 9.203227 2.971584 11697996
10.027986 9.269696 1.231990 11697996
9.139312 8.928362 0.823082 11697996
10.386166 9.629608 3.093732 11697996
10.556778 11.097136 2.261234 11697996
10.172393 8.933398 0.526998 11697996
10.713799 10.084111 3.464421 11697996
9.086166 10.972134 2.170440 11697996
10.996262 10.109981 1.555737 11697996
10.610411 10.408016 0.566793 11697996
8.829470 10.823315 2.823400 11697996
8.803477 10.499942 0.256391 11697996
9.353010 10.128047 3.550645 11697996
9.053381 9.298989 2.102719 11697996
9.641657 9.742497 2.086303 11697996
10.334867 10.025534 1.878592 11697996
9.215211 9.333883 2.329278 11697996
9.510400 10.853947 3.354213 11697996
10.050568 9.987137 3.351188 11697996
10.657275 8.799833 0.840912 11697996
9.212595 11.246546 3.910480 11697996
9.401513 9.862339 0.972955 11697996
8.844287 11.203126 2.730250 11697996
10.162341 9.573532 3.412582 11697996
11.219588 10.347592 0.179095 11697996
9.336033 9.014245 2.700997 11697996
8.951430 9.289647 1.293319 11697996
9.009212 9.756489 1.622730 11697996
8.861809 9.674758 2.178697 11697996
11.056508 11.085091 3.581885 11697996
10.386408 9.839401 3.036273 11697996
8.765841 9.680332 3.491838 11697996
10.266775 9.606813 0.334085 11697996
10.452813 10.593866 1.896943 11697996
10.770057 9.623920 0.090084 11697996
11.160232 8.916268 3.994717 11697996
10.546665 10.416352 2.051772 11697996
10.225389 10.234184 0.726422 11697996
10.020151 9.143936 1.464414 11697996
11.125197 9.285021 2.200530 11697996
9.035750 11.177272 0.931672 11697996
9.018446 9.449280 3.350053 11697996
10.504216 9.994692 2.747684 11697996
8.784779 11.218136 1.153658 11697996
10.536725 9.805227 3.056961 11697996
9.167866 10.646040 3.384833 11697996
9.125789 10.186211 4.010403 11697996
10.955516 10.274993 1.959775 11697996
10.929802 9.668411 1.038171 11697996
9.387163 8.935502 3.881210 11697996
8.755453 9.821457 2.455381 11697996
10.257276 10.450221 1.909040 11697996
11.087906 10.895527 3.550449 11697996
8.868863 9.440914 3.904119 11697996
9.883918 9.118842 3.473087 11697996
9.965322 9.609282 2.143337 11697996
8.909640 9.976342 2.434293 11697996
9.629931 9.921365 3.726284 11697996
9.952196 10.925498 2.641842 11697996
10.919414 11.104554 0.868712 11697996
9.330412 9.089132 0.074026 11697996
9.670953 10.875775 0.132593 11697996
10.204004 10.351493 3.556194 11697996
10.911325 9.042930 0.940338 11697996
9.305458 11.055470 1.793622 11697996
10.142377 9.248723 2.186277 11697996
8.772109 10.020840 0.726710 11697996
9.747906 9.916368 3.940571 11697996
9.938385 11.190198 2.378030 11697996
9.342198 10.890742 2.975474 11697996
10.682185 9.629174 2.210057 11697996
10.927445 9.057526 2.756033 11697996
10.881823 10.848848 1.800136 11697996
11.219490 9.871430 2.206656 11697996
9.657887 9.339229 2.476530 11697996
9.337388 8.862196 2.955109 11697996
11.022498 8.986323 2.685722 11697996
9.854702 8.798429 0.578193 11697996
9.829010 9.028488 3.587987 11697996
10.975726 9.800676 0.863166 11697996
11.096409 9.004131 3.683177 11697996
10.446548 9.153222 2.255978 11697996
10.752882 10.441005 1.360556 11697996
9.363639 10.571085 0.158389 11697996
9.380366 10.739799 2.757685 11697996
9.545694 9.333090 3.926581 11697996
9.028736 10.960276 2.180831 11697996
9.783133 9.923258 0.556419 11697996
10.515906 10.105252 1.786648 11697996
11.194328 11.029880 0.263237 11697996
8.894659 10.474653 2.825949 11697996
10.396394 10.074812 1.557772 11697996
10.625073 10.357131 0.778072 11697996
10.590036 9.663377 3.581946 11697996
11.062064 8.850226 0.296201 11697996
11.012757 11.177324 -0.013636 11697996
10.767845 9.739522 3.567170 11697996
9.655420 10.799001 3.357912 11697996
9.508672 9.418197 2.220901 11697996
10.529562 9.565237 1.580436 11697996
11.043384 9.445312 1.936916 11697996
10.403275 9.996544 0.550592 11697996
9.802244 11.180178 2.385381 11697996
11.108873 8.899171 2.320015 11697996
10.959722 9.633702 2.527429 11697996
9.751907 10.909769 2.634895 11697996
9.168651 10.282443 0.924579 11697996
9.288744 8.826763 2.207768 11697996
11.054003 9.884404 3.023405 11697996
9.411962 10.898558 1.242353 11697996
10.283134 9.281741 1.497494 11697996
9.619284 10.439542 1.997976 11697996
9.719582 9.156684 2.278784 11697996
9.223554 9.110046 0.619540 11697996
10.509377 11.100164 3.461535 11697996
9.871827 9.795979 2.147811 11697996
10.146926 9.168077 3.330963 11697996
10.426500 10.108047 1.517589 11697996
9.245067 10.871294 1.185140 11697996
9.657278 10.238778 3.935842 11697996
9.764089 8.944124 3.520861 11697996
8.924918 9.522878 0.265702 11697996
10.642590 10.441841 0.109356 11697996
9.323997 10.457086 1.895257 11697996
10.519858 8.984939 2.431417 11697996
10.491707 10.295564 0.641897 11697996
9.963658 10.097412 3.664645 11697996
9.740658 9.714288 0.633653 11697996
11.206978 10.478524 2.816920 11697996
9.690436 10.620475 1.964589 11697996
9.173779 10.868407 3.770106 11697996
9.238786 11.058597 1.266748 11697996
11.125407 11.118483 3.833333 11697996
10.392482 10.218522 2.423700 11697996
9.887138 10.100896 3.619081 11697996
9.106847 9.112390 1.802114 11697996
9.555771 9.926570 3.279388 11697996
10.921649 9.258635 0.124968 11697996
11.056851 9.191436 0.656265 11697996
9.786572 11.098108 2.590130 11697996
10.987679 9.329623 1.467233 11697996
9.267046 9.871594 2.528006 11697996
11.223797 11.136359 0.860621 11697996
11.193130 10.590804 1.838330 11697996
10.362008 8.847997 3.689557 11697996
9.330896 9.727718 3.147150 11697996
10.332303 9.025421 0.867490 11697996
9.563581 9.472419 0.044962 11697996
10.068741 8.871460 3.142006 11697996
10.781549 10.409154 3.037489 11697996
8.770172 9.096784 3.499767 11697996
9.995989 9.578631 1.104129 11697996
10.322231 9.423465 2.350152 11697996
11.125012 9.592029 3.439043 11697996
9.861303 11.172238 3.229573 11697996
11.000944 10.551417 2.632018 11697996
10.690165 10.377355 0.640948 11697996
9.019192 9.100622 2.287690 11697996
10.185647 9.502233 3.799042 11697996
10.835105 10.694361 0.725893 11697996
11.204155 8.795973 0.944094 11697996
9.278253 9.558077 3.800425 11697996
11.236427 10.228161 1.579583 11697996
10.951426 9.402847 1.671757 11697996
11.001873 10.190828 2.416664 11697996
8.890285 10.791467 1.254330 11697996
9.616104 9.829501 0.350698 11697996
10.350591 9.011346 3.252857 11697996
9.578287 8.831483 1.287758 11697996
11.003243 9.106099 1.152307 11697996
10.326419 8.809094 0.417639 11697996
9.847295 9.693064 2.844458 11697996
10.832034 9.761124 3.920484 11697996
9.052597 9.300052 3.389197 11697996
10.044937 10.863713 0.748919 11697996
10.143709 8.782164 3.077787 11697996
10.868334 9.279949 3.605750 11697996
9.476504 9.737508 3.434081 11697996
9.480017 8.970217 3.445318 11697996
10.154704 9.208316 1.289421 11697996
10.564240 9.096894 1.758506 11697996
9.831100 10.891175 3.649899 11697996
11.074074 9.681217 3.515334 11697996
9.781006 10.918192 3.259658 11697996
10.049382 9.536283 0.559002 11697996
9.221912 9.326029 2.882165 11697996
10.460332 8.980512 3.130769 11697996
9.877109 9.546828 0.438212 11697996
8.796468 10.855122 3.310096 11697996
10.338897 9.657072 0.691636 11697996
10.491748 10.925808 1.671560 11697996
9.778287 10.710960 1.951773 11697996
9.257084 10.191816 2.040308 11697996
10.559680 10.693496 3.644771 11697996
10.115305 9.908880 3.169797 11697996
9.967100 9.657090 1.584055 11697996
9.329795 9.858994 3.481318 11697996
9.935726 11.144883 3.862864 11697996
8.990225 11.201562 0.984830 11697996
10.575220 10.088193 0.157290 11697996
10.508034 10.305145 1.787671 11697996
10.100782 9.116761 0.803054 11697996
9.397561 9.576118 2.579862 11697996
11.109355 10.944868 1.007225 11697996
10.633862 11.124936 1.048849 11697996
9.582300 10.403520 0.980339 11697996
8.873421 11.188961 1.631516 11697996
10.180404 10.084064 2.930751 11697996
8.974972 9.273323 1.978466 11697996
11.016549 9.009300 0.614140 11697996
9.790319 8.769992 0.786416 11697996
9.158107 10.400399 1.692811 11697996
10.869898 9.240428 0.583913 11697996
9.836372 9.611053 2.801008 11697996
9.765819 10.218351 0.222530 11697996
11.000018 10.439445 0.422592 11697996
9.505794 10.127354 1.520994 11697996
8.753919 11.116449 2.516268 11697996
10.324854 9.457978 0.520933 11697996
10.647620 8.867105 0.196672 11697996
11.205865 9.416243 2.620490 11697996
9.503202 10.720731 1.225334 11697996
10.199820 9.036447 1.027812 11697996
10.704930 10.829229 1.715277 11697996
9.534592 10.011876 2.353962 11697996
10.372448 9.149598 0.500542 11697996
10.622307 9.029990 2.431095 11697996
10.727836 10.174015 1.148557 11697996
9.384441 9.189145 1.769515 11697996
9.854608 10.273789 2.003050 11697996
9.161996 9.048464 1.664531 11697996
9.618449 8.976242 2.484954 11697996
9.478165 11.196639 1.614037 11697996
11.194116 9.626640 1.548602 11697996
9.667510 8.862465 0.392463 11697996
10.313330 10.636725 2.680663 11697996
11.017361 8.786774 2.008601 11697996
9.534988 9.058054 0.089759 11697996
10.004879 10.327465 2.631383 11697996
9.431211 9.619981 1.630510 11697996
9.399045 10.711127 2.900903 11697996
9.917792 9.793725 0.996359 11697996
9.153370 10.261877 2.870152 11697996
9.412238 10.650026 0.811466 11697996
10.076118 9.774516 3.966155 11697996
9.110023 10.584769 2.230277 11697996
8.804162 8.951975 1.165124 11697996
10.577721 9.176972 1.303459 11697996
10.064543 9.695522 2.254561 11697996
11.102005 10.351095 0.247303 11697996
11.102124 10.342570 3.521908 11697996
9.071510 10.230614 1.799635 11697996
9.912691 10.852617 3.210788 11697996
10.698922 10.698986 1.188049 11697996
11.175391 10.113224 1.944356 11697996
10.934154 11.211162 1.357944 11697996
10.724651 11.055381 3.792077 11697996
9.889072 10.260159 1.947475 11697996
11.205484 10.356403 0.466380 11697996
10.524422 10.028050 2.060984 11697996
10.075022 9.809706 3.664423 11697996
9.371320 10.667274 2.057458 11697996
9.587605 10.302837 2.652987 11697996
9.792479 9.640485 0.944414 11697996
9.110460 8.862247 3.342914 11697996
9.514035 8.947582 0.044302 11697996
10.741662 10.033613 2.254789 11697996
9.495555 9.193060 3.814238 11697996
9.952992 9.909407 2.116018 11697996
9.370745 10.509711 0.368566 11697996
9.688901 10.229844 2.104151 11697996
9.342752 11.102000 3.838813 11697996
9.932866 9.982239 2.231728 11697996
8.969900 10.286590 0.949957 11697996
9.608723 9.626828 2.346409 11697996
11.128851 10.466725 1.180228 11697996
10.842422 10.413256 1.600324 11697996
9.354074 9.377690 0.097124 11697996
9.939265 10.056539 1.280950 11697996
11.192130 9.856737 1.118289 11697996
9.743546 9.321679 0.015492 11697996
9.028753 9.529593 1.797627 11697996
10.885091 9.477034 0.655843 11697996
9.652081 10.022421 1.446223 11697996
9.711690 10.825141 0.256681 11697996
11.229034 10.277277 3.988619 11697996
8.768677 9.737594 2.591508 11697996
9.993738 10.773200 3.174150 11697996
10.073971 9.972919 2.318703 11697996
11.105936 9.848049 2.101579 11697996
9.811905 10.179725 3.521110 11697996
8.951741 9.184710 2.402094 11697996
9.697029 10.410137 2.844701 11697996
10.501737 9.859962 3.812880 11697996
10.571095 9.554420 2.825912 11697996
9.026268 9.533669 2.912921 11697996
10.831102 11.249405 2.815910 11697996
11.208628 10.724786 0.431835 11697996
11.231194 8.761671 1.762243 11697996
9.792061 9.931451 2.488599 11697996
10.466043 8.908358 3.611634 11697996
10.679121 9.617663 1.695540 11697996
10.298357 8.955939 1.273716 11697996
9.724664 10.465812 3.801103 11697996
10.618789 10.466904 1.308818 11697996
10.137925 10.336487 3.674065 11697996
10.163768 9.213714 0.617315 11697996
9.843484 9.123251 1.051606 11697996
10.576924 10.684181 1.759848 11697996
9.933271 10.166080 0.444240 11697996
10.096264 10.388436 3.705003 11697996
10.199652 9.640643 1.573087 11697996
11.070498 9.471706 3.310998 11697996
9.781602 8.754810 3.513998 11697996
9.408319 9.804585 1.288425 11697996
8.922983 8.963710 3.438397 11697996
10.478791 10.520905 1.249477 11697996
10.211556 10.093801 0.192781 11697996
9.022070 10.458199 2.978913 11697996
10.721934 8.791840 1.104658 11697996
8.986501 9.030813 3.274685 11697996
9.731833 11.114571 2.915372 11697996
9.770612 10.954283 0.189703 11697996
11.041526 9.488815 2.026000 11697996
10.503324 10.136333 3.043016 11697996
9.213094 10.620602 2.746591 11697996
11.128850 10.863857 0.202220 11697996
10.098799 9.141055 1.880523 11697996
10.640123 10.278227 2.260924 11697996
11.177590 9.875534 3.124269 11697996
9.023319 10.083348 2.478150 11697996
10.916838 9.073471 1.223597 11697996
11.128868 10.799395 0.149245 11697996
10.401398 10.976483 3.239033 11697996
10.697569 10.822985 3.015968 11697996
9.485314 9.315148 1.066333 11697996
8.904709 9.875224 2.684824 11697996
10.001797 10.565338 3.707388 11697996
10.281044 10.469276 0.911752 11697996
