# .PCD v0.7 - Point Cloud Data file format
VERSION 0.7
FIELDS x y z rgb
SIZE 4 4 4 4
TYPE F F F U
COUNT 1 1 1 1
WIDTH 1292
HEIGHT 1
VIEWPOINT 0 0 0 1 0 0 0
POINTS 1292
DATA ascii
10.810561 10.870017 3.075845 11697996
9.721892 10.530179 1.311815 11697996
10.825164 9.319212 1.119175 11697996
9.978372 9.343333 0.556558 11697996
9.003150 9.573158 1.064752 11697996
9.165811 9.177071 0.232391 11697996
9.272929 10.314979 3.835001 11697996
9.719574 8.936333 0.442018 11697996
9.211310 8.733296 2.252355 11697996
10.880229 9.135706 2.984081 11697996
8.928328 9.647750 3.885846 11697996
9.559182 10.131787 3.701274 11697996
11.084633 9.257635 0.932565 11697996
10.692057 9.440738 1.221322 11697996
9.866334 9.601523 1.581438 11697996
8.778864 11.156539 2.174712 11697996
11.148346 10.258138 2.368567 11697996
11.188167 9.566094 1.190409 11697996
11.182025 9.779386 0.706022 11697996
9.146268 9.808982 2.528602 11697996
9.132421 10.316237 3.257424 11697996
9.539478 9.414263 2.861633 11697996
8.819176 9.558679 3.745687 11697996
10.192337 10.830138 2.612770 11697996
10.570122 10.292411 3.834518 11697996
9.994082 10.124108 3.900801 11697996
8.843615 8.887132 1.718327 11697996
10.225493 8.951627 0.242880 11697996
9.140545 10.967180 0.781220 11697996
8.797000 8.903154 3.113680 11697996
9.913824 8.944397 3.153355 11697996
11.156276 10.960520 2.204204 11697996
9.265105 8.775075 0.889482 11697996
8.981484 9.096668 1.595300 11697996
9.329717 10.229796 1.350428 11697996
10.495325 8.767360 3.281759 11697996
10.765201 9.809212 3.710387 11697996
9.589262 9.722230 0.407696 11697996
9.383629 8.785935 3.312699 11697996
10.706718 9.534909 2.428020 11697996
10.151715 9.493899 3.988260 11697996
9.578555 9.768425 1.673101 11697996
9.800160 10.145561 3.042763 11697996
10.005721 9.403238 1.867704 11697996
10.706799 10.901690 1.431704 11697996
9.951759 8.792539 1.489124 11697996
9.202330 10.413240 1.915067 11697996
9.127682 11.044386 2.071752 11697996
9.995201 9.777349 3.659465 11697996
11.017436 10.087355 0.176320 11697996
9.319213 10.969010 1.356090 11697996
9.880473 10.185186 3.397853 11697996
11.234258 10.682790 0.245772 11697996
10.011441 9.568302 1.233358 11697996
10.911140 9.378790 2.351306 11697996
10.565280 8.759956 1.627399 11697996
8.904262 10.840634 2.383656 11697996
9.036279 9.444557 1.782713 11697996
9.211452 8.834841 3.769457 11697996
9.777934 9.085313 1.103983 11697996
9.612768 8.822772 3.020317 11697996
10.602068 8.782690 2.815744 11697996
11.179227 9.440999 0.278294 11697996
11.241084 9.880440 2.902173 11697996
10.172907 11.212151 0.633780 11697996
10.013842 10.766313 1.989009 11697996
9.759570 10.514793 1.085282 11697996
10.711700 9.825476 2.535425 11697996
10.732135 8.830105 1.753837 11697996
10.655349 9.181483 0.609859 11697996
10.424224 10.746857 0.674590 11697996
8.768394 9.253191 3.466576 11697996
9.935880 10.374946 1.010881 11697996
10.010501 10.815106 1.701365 11697996
8.873215 10.273490 3.855249 11697996
9.414264 10.043766 1.580080 11697996
10.861177 9.817022 1.608660 11697996
8.794156 8.886255 1.080191 11697996
9.414144 11.072667 1.672447 11697996
10.890359 9.475289 1.633965 11697996
8.783255 11.231109 2.931959 11697996
8.899678 10.099190 0.895264 11697996
10.596517 10.764167 0.834893 11697996
9.100650 8.814903 2.643894 11697996
10.031191 9.522549 2.598154 11697996
8.816669 10.086558 3.367010 11697996
10.577172 9.498643 2.532731 11697996
8.882465 9.856821 0.521399 11697996
9.552473 10.206138 3.928780 11697996
8.806735 9.902914 1.304381 11697996
9.223347 10.321794 3.112132 11697996
11.223120 11.036047 0.848147 11697996
9.807897 9.909376 0.351735 11697996
9.658243 9.893414 0.251681 11697996
11.029408 9.957939 1.361570 11697996
9.238894 11.188663 0.634061 11697996
11.087878 11.111214 2.981430 11697996
11.077980 10.665908 1.335926 11697996
10.473622 10.494810 0.242152 11697996
10.042696 11.174731 1.528544 11697996
10.555745 10.236641 3.817069 11697996
9.394314 10.498893 0.601767 11697996
10.598836 9.422487 3.120395 11697996
10.265167 10.701052 0.765653 11697996
8.802546 10.057383 1.660267 11697996
11.147817 9.721802 1.515342 11697996
8.960047 9.291583 3.466483 11697996
10.327322 8.849335 3.587245 11697996
10.464628 8.832028 3.935837 11697996
9.289287 9.088291 2.116094 11697996
10.463727 10.828613 0.612119 11697996
10.676618 9.713894 0.445369 11697996
10.650341 9.860308 1.927300 11697996
9.401140 9.841504 3.633521 11697996
8.919359 9.169770 2.872768 11697996
10.313279 9.173390 2.864424 11697996
10.052048 11.064202 3.083012 11697996
10.337896 10.568784 3.499891 11697996
10.109796 10.080612 0.882574 11697996
9.931704 9.597058 0.440542 11697996
9.489941 10.994799 1.471344 11697996
10.134236 8.908416 1.188153 11697996
10.100501 11.179866 2.628403 11697996
10.084812 9.366670 2.236333 11697996
9.002012 8.838569 0.240909 11697996
9.253410 9.252232 2.054248 11697996
9.321399 10.917459 0.818629 11697996
11.197822 9.683125 1.953142 11697996
10.532821 11.231444 1.969126 11697996
9.205082 11.031137 0.611414 11697996
8.830724 11.234334 0.091052 11697996
9.438505 10.124961 0.723146 11697996
10.633107 10.530617 2.651579 11697996
10.762802 10.331901 1.054923 11697996
9.584519 11.005547 1.506956 11697996
9.057773 9.026097 1.573263 11697996
9.736349 10.961679 1.288639 11697996
9.786201 9.084578 0.603125 11697996
9.228673 8.988300 2.039022 11697996
10.929482 10.386919 0.062550 11697996
10.595746 9.242182 1.822051 11697996
10.010912 9.925098 1.123927 11697996
10.285200 10.488761 3.142491 11697996
9.936978 10.985951 0.349908 11697996
9.104935 10.534556 3.428275 11697996
9.630079 11.199561 3.376401 11697996
8.997628 10.554737 0.492560 11697996
10.111433 8.901011 3.264501 11697996
10.779560 10.286611 0.768597 11697996
10.105927 8.863273 2.462262 11697996
11.262723 9.070919 0.468558 11697996
9.497039 9.208137 0.623763 11697996
11.203256 9.012954 3.285450 11697996
9.184285 9.748837 0.763801 11697996
9.333670 9.220849 3.974895 11697996
10.496203 9.248979 2.583427 11697996
9.834672 9.408227 1.047737 11697996
10.046440 11.233216 2.943676 11697996
11.135488 10.376876 0.262917 11697996
10.785616 9.262007 0.993607 11697996
10.590651 10.676531 3.137429 11697996
10.582134 10.914170 1.440987 11697996
9.916304 9.082555 0.744568 11697996
10.692950 9.765517 0.186302 11697996
9.015584 9.978183 0.435971 11697996
10.798926 9.637809 1.408736 11697996
10.639903 11.246212 3.923945 11697996
10.636054 9.590966 3.764354 11697996
11.153414 9.889569 2.957176 11697996
11.092440 9.981112 3.062351 11697996
8.824643 10.896232 2.779471 11697996
11.054728 9.829145 2.783516 11697996
9.262138 9.764913 3.417949 11697996
9.318083 8.985474 3.431685 11697996
9.840562 10.693506 2.511090 11697996
10.898505 9.210092 0.193101 11697996
10.732357 10.510575 1.265345 11697996
9.913072 10.682996 2.350321 11697996
9.124587 10.438412 1.747459 11697996
10.204922 9.310266 2.214546 11697996
11.060971 10.185848 0.204414 11697996
10.059412 11.151408 2.963367 11697996
10.649004 11.004509 3.821437 11697996
9.761716 8.811129 1.527012 11697996
9.593299 9.448571 1.402337 11697996
10.694876 10.730906 1.626574 11697996
9.588716 10.476543 2.724028 11697996
10.231297 11.225885 0.317059 11697996
9.608644 8.858295 3.324718 11697996
9.542633 10.292747 3.178335 11697996
10.340111 9.116741 3.326517 11697996
9.396680 10.352424 2.971334 11697996
9.600621 10.639734 1.720121 11697996
9.098120 10.810196 2.122598 11697996
10.788389 10.537008 0.932699 11697996
10.824704 10.957802 3.709320 11697996
10.725800 10.946960 1.669949 11697996
11.215837 9.311093 3.288059 11697996
9.851820 11.233265 1.754210 11697996
8.819400 8.755239 2.458868 11697996
9.186228 10.125640 3.123314 11697996
10.598945 10.057584 0.229311 11697996
8.831748 10.218258 3.415427 11697996
10.297370 9.538830 0.856233 11697996
10.240103 8.994104 1.431570 11697996
9.629952 8.926683 3.633541 11697996
9.770477 9.794456 1.581678 11697996
10.857084 9.981331 3.044145 11697996
10.669830 10.349730 3.259789 11697996
10.827003 10.489550 0.658181 11697996
10.738228 10.231069 3.863301 11697996
11.070847 9.496726 1.691523 11697996
9.535877 10.797237 2.621237 11697996
10.230001 8.767987 3.103167 11697996
11.143719 9.486842 2.716701 11697996
10.314539 10.057552 2.044975 11697996
10.321800 10.037645 0.992588 11697996
8.891584 10.994201 3.421722 11697996
10.646882 9.909782 1.778003 11697996
9.468106 10.003488 2.145897 11697996
10.109335 10.688039 3.251788 11697996
9.276935 10.473715 1.885500 11697996
9.275007 9.751005 2.725919 11697996
9.785205 9.145233 3.543337 11697996
9.592237 11.041370 2.018499 11697996
10.607409 8.903033 1.303473 11697996
8.908332 11.100812 0.033054 11697996
11.029786 10.372189 2.078954 11697996
8.873818 11.169192 0.043482 11697996
9.262739 11.095942 1.606270 11697996
10.130245 9.198819 1.475173 11697996
9.198964 10.591755 0.541110 11697996
10.805309 10.979852 3.782354 11697996
10.167003 9.800880 2.691648 11697996
10.973961 10.434646 2.331502 11697996
11.167414 9.918265 2.095971 11697996
10.002482 10.219885 2.172836 11697996
10.014161 10.202755 2.064914 11697996
8.877595 9.539618 0.954811 11697996
10.396629 11.022431 2.197892 11697996
10.982741 10.931188 1.690755 11697996
9.981307 8.878149 0.516383 11697996
9.321673 10.380924 3.337014 11697996
11.165692 9.214116 3.189997 11697996
11.105507 10.645042 2.360033 11697996
10.853723 11.166967 1.182353 11697996
10.725743 9.577871 2.693274 11697996
10.002277 10.797969 1.094476 11697996
11.090187 10.043797 1.256434 11697996
8.985566 10.033967 2.580520 11697996
10.093054 10.387410 0.461808 11697996
10.821526 9.861839 3.401113 11697996
9.829618 10.403403 3.076536 11697996
10.099569 11.171175 1.594519 11697996
9.569158 9.974282 1.533767 11697996
10.310675 10.231366 3.266752 11697996
10.866501 10.682496 3.205596 11697996
10.705352 10.691522 0.859585 11697996
10.687799 10.066988 1.580144 11697996
9.700075 10.691957 3.971379 11697996
10.839603 9.551278 1.411044 11697996
9.108789 10.127898 3.879658 11697996
9.161358 9.576157 0.267617 11697996
10.945648 10.896907 1.611770 11697996
10.119339 10.259350 2.370004 11697996
9.541168 10.954489 1.816748 11697996
10.147120 10.704330 0.160869 11697996
10.869787 8.875484 0.782445 11697996
9.124866 10.850366 0.689357 11697996
11.013198 11.013330 0.546385 11697996
10.066630 10.156993 3.196536 11697996
10.401943 9.960600 0.180919 11697996
10.226033 8.936550 1.615663 11697996
9.317100 8.916968 1.497149 11697996
8.953938 10.349914 3.115136 11697996
10.510546 9.347962 1.554197 11697996
9.157857 9.352938 3.717506 11697996
9.490889 9.194281 0.584830 11697996
10.315140 11.054576 1.168609 11697996
10.496981 9.169615 1.486917 11697996
11.143528 10.329597 1.897909 11697996
10.622854 8.993652 3.676026 11697996
10.941866 10.792498 0.841238 11697996
10.867198 9.173844 1.478906 11697996
9.566045 11.182606 1.828764 11697996
8.964328 10.198949 1.816471 11697996
11.222938 10.140192 0.219480 11697996
10.046288 10.974672 3.600338 11697996
10.623808 10.322226 0.264345 11697996
8.874702 10.535557 0.594671 11697996
9.002023 8.866003 1.501261 11697996
10.901837 9.471769 0.175046 11697996
10.390742 9.457645 3.727888 11697996
10.221157 10.446253 0.751087 11697996
10.362556 10.758856 0.159224 11697996
10.781796 9.175508 1.200754 11697996
10.995146 9.802061 3.742679 11697996
10.469481 9.592605 1.582647 11697996
8.864246 8.960797 0.551692 11697996
10.190089 10.274611 3.708303 11697996
9.245132 11.030957 0.674203 11697996
10.771176 8.837019 0.544335 11697996
8.986623 10.717309 2.539802 11697996
10.718846 9.479422 3.114615 11697996
9.558609 9.755763 0.860042 11697996
10.968316 11.185033 2.342834 11697996
9.612707 10.549579 2.858052 11697996
9.682246 11.108988 1.289314 11697996
9.810608 11.150441 2.726247 11697996
10.331054 10.304442 3.003153 11697996
10.415284 10.675367 3.518648 11697996
10.931729 10.660874 1.441593 11697996
9.089373 10.879396 2.663698 11697996
10.845907 9.646432 0.370729 11697996
10.995536 10.537149 3.087604 11697996
8.812603 9.089942 3.963434 11697996
9.483091 9.425605 2.506010 11697996
10.739159 10.239267 2.463653 11697996
8.816951 9.481260 0.685177 11697996
10.259551 9.245103 3.717784 11697996
10.144553 9.116457 2.548818 11697996
10.349375 11.055696 2.565108 11697996
9.072951 9.498109 1.941679 11697996
10.057733 9.343154 2.227185 11697996
9.131700 9.375391 0.649175 11697996
11.024948 9.593137 3.953976 11697996
10.269488 10.732713 1.841766 11697996
11.017677 9.995873 2.415626 11697996
10.298190 10.957559 1.673556 11697996
9.642658 9.770665 3.304463 11697996
10.576845 8.900719 1.943336 11697996
9.254966 10.722853 1.525927 11697996
9.402422 9.260885 2.097467 11697996
9.111566 9.069347 3.225295 11697996
9.389302 10.481001 2.011307 11697996
11.124077 9.037306 2.311639 11697996
11.113907 9.887306 2.432966 11697996
9.300408 11.142291 2.927693 11697996
9.617267 11.207979 1.200097 11697996
9.080386 9.555286 3.207812 11697996
11.172657 8.974373 1.387797 11697996
10.248209 9.950051 1.717656 11697996
10.078176 10.475334 2.657518 11697996
9.348618 9.169058 0.739839 11697996
9.956938 9.412184 0.366640 11697996
9.082409 8.917310 1.403416 11697996
8.833864 10.317662 2.409957 11697996
9.756758 8.965783 2.965889 11697996
10.156283 10.962251 0.872201 11697996
11.077681 9.241453 3.979346 11697996
10.758443 8.974687 1.252587 11697996
9.658963 9.934177 2.852366 11697996
10.090119 9.362329 2.820390 11697996
10.068722 11.140510 3.084696 11697996
11.022674 10.872986 3.211231 11697996
9.397406 10.921521 1.036468 11697996
9.533168 10.781518 1.052009 11697996
8.753718 9.323563 0.089103 11697996
10.516973 10.796795 2.032844 11697996
10.435953 10.684535 2.443643 11697996
10.197227 9.100455 2.951487 11697996
10.317720 9.608378 3.710122 11697996
9.145468 10.723388 3.709923 11697996
9.695901 10.840407 2.551487 11697996
10.969986 9.886045 0.440639 11697996
10.626541 10.842007 3.373200 11697996
10.724397 10.256020 2.089395 11697996
10.355913 10.435065 0.346323 11697996
10.986750 10.442440 2.636006 11697996
9.682276 9.679286 2.631426 11697996
11.125446 10.931122 1.301139 11697996
9.382014 9.482207 3.147277 11697996
10.930523 8.969365 3.586942 11697996
11.229357 9.837153 1.959863 11697996
10.425763 10.327153 2.644488 11697996
9.664676 9.115840 0.423098 11697996
11.221419 10.408621 0.255273 11697996
9.951643 9.248996 0.999240 11697996
10.380740 10.353760 2.388450 11697996
10.795516 8.786957 1.178332 11697996
9.960262 9.086503 0.519094 11697996
9.678969 11.174381 0.848514 11697996
10.145543 9.186853 1.162788 11697996
8.841274 9.485647 1.558221 11697996
9.720206 8.912695 1.716837 11697996
9.831742 9.861557 1.041458 11697996
10.084478 10.855814 3.376681 11697996
10.251395 8.957269 1.134425 11697996
9.097377 10.196953 1.322870 11697996
11.108236 8.852345 2.005403 11697996
11.089867 9.323123 2.199105 11697996
11.057361 9.186668 3.975318 11697996
8.889999 10.409066 2.299932 11697996
8.869176 10.413588 0.511939 11697996
9.048432 11.089022 3.747049 11697996
9.191015 9.694338 0.840991 11697996
9.189823 10.787382 1.395067 11697996
9.327326 10.714280 1.328753 11697996
11.002394 10.255959 1.945041 11697996
10.367887 10.544080 2.559059 11697996
8.879055 10.231132 3.309825 11697996
9.503156 10.203564 3.596068 11697996
9.045587 10.893146 3.188416 11697996
11.164634 10.285189 0.730964 11697996
9.426654 9.048112 2.445635 11697996
9.139356 10.059080 1.063685 11697996
11.102555 9.473849 2.051103 11697996
10.806159 9.523602 0.289815 11697996
9.791615 10.378076 1.845305 11697996
10.253057 10.090835 1.188683 11697996
8.739770 10.434223 3.095793 11697996
10.295135 9.239429 1.386185 11697996
9.757367 9.312194 -0.017695 11697996
9.258208 9.959773 2.860771 11697996
10.568838 9.545023 0.897552 11697996
10.212587 10.197495 3.535171 11697996
8.908626 11.099631 1.883582 11697996
11.026819 9.233275 1.313667 11697996
9.197975 9.813404 2.972509 11697996
8.932729 9.089419 2.163880 11697996
9.428362 10.247910 1.064283 11697996
11.047726 9.612851 3.482310 11697996
9.636033 10.068820 1.963132 11697996
10.594318 11.201951 0.073370 11697996
9.696939 9.664706 1.366543 11697996
10.788609 8.944972 3.668077 11697996
9.598113 10.418794 0.287824 11697996
10.768735 10.008064 2.890210 11697996
9.109018 10.079262 3.797840 11697996
8.991839 10.803854 3.481467 11697996
10.677696 8.927793 1.515412 11697996
9.124886 10.561420 2.762601 11697996
9.971566 10.066658 3.987069 11697996
10.149518 10.909690 2.311595 11697996
9.867828 10.121638 0.305303 11697996
8.877976 8.918022 2.152406 11697996
10.200948 9.797217 3.829617 11697996
10.602211 11.154026 2.249308 11697996
9.293768 10.115369 3.160057 11697996
9.841023 9.935513 2.617209 11697996
8.966051 10.239607 0.191987 11697996
10.785749 10.482363 1.931172 11697996
10.140246 9.678573 3.347540 11697996
10.973109 10.202601 3.393836 11697996
8.953460 9.213596 3.930881 11697996
9.318862 10.831573 3.308604 11697996
10.302616 10.741002 0.970735 11697996
10.820556 9.886081 2.283846 11697996
10.484865 8.761588 3.494944 11697996
10.842624 8.917827 0.881894 11697996
9.391191 10.232104 2.559540 11697996
9.104975 10.834425 1.143047 11697996
10.346994 8.814989 3.298940 11697996
9.671336 10.831343 2.913155 11697996
9.886791 10.537787 1.155775 11697996
11.173318 10.979651 1.447467 11697996
9.601700 8.832883 3.906826 11697996
10.765174 9.849774 2.287457 11697996
8.762528 9.339438 1.174566 11697996
10.849155 11.122731 3.757622 11697996
10.647267 10.920504 2.505768 11697996
9.557084 9.785656 1.208221 11697996
10.214203 9.241204 2.009679 11697996
9.739694 10.031942 2.714952 11697996
10.017443 9.722718 0.813502 11697996
10.313302 11.219869 1.898251 11697996
10.668521 9.219505 0.221906 11697996
9.522552 10.679799 1.216731 11697996
11.165127 11.009269 2.558403 11697996
10.513495 9.757021 2.089433 11697996
8.985197 10.366679 3.901931 11697996
9.205746 10.608359 0.144810 11697996
10.258361 10.026144 3.645130 11697996
10.760427 10.643007 3.077351 11697996
9.609296 11.270395 3.654230 11697996
9.374551 9.209491 3.021151 11697996
10.011002 9.264865 1.222408 11697996
9.145885 8.944972 0.822737 11697996
10.362568 9.631968 3.091434 11697996
10.560014 11.100202 2.249087 11697996
10.232214 8.925635 0.537833 11697996
10.720091 10.088502 3.473902 11697996
9.111659 10.978749 2.167071 11697996
11.017177 10.118978 1.567031 11697996
10.630123 10.407254 0.579123 11697996
8.845204 10.822818 2.866823 11697996
8.797632 10.478267 0.252163 11697996
9.379318 10.160985 3.554216 11697996
9.068562 9.316233 2.119941 11697996
9.636165 9.738981 2.090366 11697996
10.336721 10.008325 1.869744 11697996
9.221350 9.333339 2.316391 11697996
9.500713 10.869770 3.375445 11697996
10.027097 10.011662 3.332715 11697996
10.677641 8.796346 0.852234 11697996
9.217405 11.222897 3.914925 11697996
9.440007 9.874828 0.959076 11697996
8.859366 11.172971 2.716237 11697996
10.155464 9.585053 3.411059 11697996
11.225693 10.363749 0.201863 11697996
9.322348 9.025090 2.746628 11697996
8.948136 9.335857 1.301696 11697996
9.012772 9.795506 1.626189 11697996
8.922861 9.690722 2.161476 11697996
11.060040 11.084558 3.625351 11697996
10.389765 9.868587 3.027685 11697996
8.778647 9.721820 3.490600 11697996
10.285049 9.614404 0.353339 11697996
10.438989 10.579563 1.901772 11697996
10.745154 9.619794 0.086886 11697996
11.181722 8.946460 3.983805 11697996
10.582988 10.469733 2.013330 11697996
10.213727 10.210225 0.718575 11697996
10.014854 9.154567 1.485588 11697996
11.118348 9.226708 2.194218 11697996
9.054019 11.170751 0.948170 11697996
9.041676 9.465385 3.336393 11697996
10.487753 9.962975 2.765898 11697996
8.773615 11.211452 1.168844 11697996
10.567384 9.800027 3.048681 11697996
9.168006 10.679675 3.402220 11697996
9.104836 10.175661 3.985205 11697996
10.984817 10.254479 1.950305 11697996
10.921434 9.668782 1.052883 11697996
9.366455 8.946337 3.874074 11697996
8.771642 9.821427 2.448087 11697996
10.267491 10.418398 1.879316 11697996
11.064915 10.908159 3.553340 11697996
8.865024 9.453501 3.879671 11697996
9.899039 9.123785 3.460660 11697996
9.974528 9.622017 2.141463 11697996
8.951160 9.989731 2.440170 11697996
9.638668 9.927320 3.714089 11697996
9.939645 10.934881 2.619045 11697996
10.943626 11.117854 0.854226 11697996
9.358568 9.070183 0.094401 11697996
9.675440 10.878679 0.155495 11697996
10.172772 10.328828 3.542477 11697996
10.928049 9.047606 0.949339 11697996
9.312272 10.999569 1.736600 11697996
10.175214 9.241502 2.213974 11697996
8.804029 10.031904 0.762816 11697996
9.751476 9.886005 3.953760 11697996
9.946686 11.199460 2.367233 11697996
9.357522 10.882490 2.952305 11697996
10.666802 9.615338 2.203329 11697996
10.903896 9.057128 2.749405 11697996
10.899948 10.878525 1.790428 11697996
11.261487 9.885967 2.217772 11697996
9.702608 9.345398 2.479392 11697996
9.328634 8.849710 2.925553 11697996
11.024381 8.990986 2.682026 11697996
9.841896 8.828743 0.595337 11697996
9.820383 9.058967 3.583896 11697996
11.006220 9.801863 0.860411 11697996
11.124751 9.046907 3.680172 11697996
10.455205 9.170391 2.282023 11697996
10.772610 10.427537 1.373434 11697996
9.395086 10.564859 0.164621 11697996
9.392775 10.691930 2.753451 11697996
9.546897 9.308519 3.936540 11697996
9.058021 10.942387 2.208893 11697996
9.741459 9.916395 0.549921 11697996
10.531144 10.098055 1.778006 11697996
11.205331 11.058789 0.316424 11697996
8.942845 10.440114 2.814785 11697996
10.402640 10.059255 1.559217 11697996
10.596817 10.340356 0.788627 11697996
10.579606 9.670604 3.543407 11697996
11.078252 8.862429 0.322435 11697996
11.022403 11.225346 0.017465 11697996
10.753733 9.711493 3.562625 11697996
9.674125 10.840278 3.351077 11697996
9.537790 9.408156 2.236790 11697996
10.542617 9.553509 1.583642 11697996
11.020476 9.462975 1.953301 11697996
10.434245 9.985175 0.526932 11697996
9.774948 11.192566 2.401684 11697996
11.127030 8.869354 2.304476 11697996
10.968164 9.652966 2.541023 11697996
9.693856 10.900490 2.656083 11697996
9.188686 10.357918 0.894995 11697996
9.301590 8.832650 2.204677 11697996
11.047153 9.865600 3.007236 11697996
9.465813 10.898438 1.275207 11697996
10.276382 9.277721 1.477771 11697996
9.585653 10.438839 2.017422 11697996
9.735459 9.143211 2.234916 11697996
9.190974 9.119912 0.657706 11697996
10.524671 11.080682 3.440344 11697996
9.881273 9.809014 2.146767 11697996
10.142570 9.154729 3.347916 11697996
10.409435 10.108440 1.516593 11697996
9.245128 10.854897 1.173648 11697996
9.628939 10.207865 3.922306 11697996
9.787797 8.988896 3.521491 11697996
8.946655 9.503304 0.298385 11697996
10.617742 10.433932 0.135864 11697996
9.340767 10.488048 1.862096 11697996
10.539915 8.962222 2.405511 11697996
10.491346 10.315904 0.635497 11697996
9.973139 10.056106 3.653961 11697996
9.778247 9.737654 0.612672 11697996
11.190835 10.503200 2.816647 11697996
9.697680 10.627525 1.946518 11697996
9.146645 10.862236 3.758653 11697996
9.239050 11.067582 1.249132 11697996
11.101425 11.109902 3.827242 11697996
10.376244 10.209812 2.398372 11697996
9.874158 10.100069 3.628045 11697996
9.099278 9.107203 1.797687 11697996
9.569370 9.924690 3.272984 11697996
10.944313 9.267610 0.145508 11697996
11.049234 9.198056 0.644253 11697996
9.808554 11.113277 2.573969 11697996
10.989180 9.314905 1.452360 11697996
9.262477 9.898555 2.567796 11697996
11.210608 11.106609 0.875069 11697996
11.182121 10.565899 1.837402 11697996
10.361722 8.820266 3.733531 11697996
9.301573 9.724985 3.150496 11697996
10.328597 9.031654 0.897587 11697996
9.596591 9.449199 0.033278 11697996
10.053881 8.881307 3.168713 11697996
10.803477 10.397367 3.051361 11697996
8.770354 9.109783 3.498978 11697996
10.018198 9.574381 1.121738 11697996
10.323876 9.420250 2.338998 11697996
11.118831 9.605085 3.469472 11697996
9.850559 11.169538 3.220030 11697996
10.991442 10.576133 2.645342 11697996
10.687058 10.388000 0.624277 11697996
9.003651 9.118789 2.277128 11697996
10.171690 9.510872 3.778997 11697996
10.802228 10.725106 0.706659 11697996
11.199408 8.821973 0.937941 11697996
9.291113 9.542603 3.794531 11697996
11.246765 10.240453 1.571312 11697996
10.921615 9.405999 1.682537 11697996
11.022946 10.182603 2.439384 11697996
8.869244 10.773929 1.234999 11697996
9.614837 9.866405 0.352751 11697996
10.332887 9.026450 3.219958 11697996
9.582089 8.838968 1.265564 11697996
11.014277 9.127098 1.141144 11697996
10.319352 8.837234 0.421440 11697996
9.885979 9.644449 2.808206 11697996
10.867696 9.781508 3.946591 11697996
9.037846 9.286864 3.380793 11697996
10.016631 10.871323 0.758962 11697996
10.149691 8.781195 3.065324 11697996
10.861845 9.268347 3.617164 11697996
9.520080 9.775084 3.407747 11697996
9.485061 8.956436 3.460653 11697996
10.139121 9.199326 1.277451 11697996
10.538316 9.101094 1.756135 11697996
9.823211 10.886332 3.642775 11697996
11.108192 9.665775 3.536211 11697996
9.756686 10.897589 3.267413 11697996
10.073309 9.520660 0.541418 11697996
9.193813 9.307142 2.902977 11697996
10.437995 8.970527 3.156689 11697996
9.875451 9.563220 0.414196 11697996
8.794178 10.871565 3.319068 11697996
10.326754 9.633246 0.688424 11697996
10.510309 10.897630 1.672197 11697996
9.771228 10.720244 1.912461 11697996
9.262561 10.186666 2.057779 11697996
10.533689 10.679945 3.630087 11697996
10.125401 9.883207 3.130011 11697996
9.927180 9.659472 1.586080 11697996
9.323630 9.888764 3.444383 11697996
9.926970 11.161379 3.832583 11697996
9.026264 11.157062 1.006131 11697996
10.566727 10.104906 0.119897 11697996
10.519686 10.293807 1.780514 11697996
10.096459 9.098054 0.823113 11697996
9.410240 9.556593 2.568730 11697996
11.095565 10.955619 0.988655 11697996
10.621366 11.123692 1.089267 11697996
9.579797 10.408356 0.993929 11697996
8.840118 11.185815 1.641439 11697996
10.214813 10.028982 2.954173 11697996
8.957400 9.289042 1.994366 11697996
11.011003 9.012443 0.651119 11697996
9.819584 8.733615 0.753558 11697996
9.170444 10.409176 1.666249 11697996
10.820601 9.225843 0.561035 11697996
9.833986 9.594000 2.790372 11697996
9.761464 10.191545 0.251875 11697996
11.011461 10.441495 0.399776 11697996
9.467358 10.093876 1.532859 11697996
8.792743 11.091733 2.481854 11697996
10.343556 9.479452 0.523309 11697996
10.651175 8.871960 0.200866 11697996
11.232829 9.406363 2.628804 11697996
9.516761 10.737769 1.212581 11697996
10.224333 9.006271 1.008094 11697996
10.711835 10.846158 1.720333 11697996
9.530025 9.982150 2.369015 11697996
10.350388 9.141845 0.492427 11697996
10.615020 9.030730 2.436785 11697996
10.706281 10.141830 1.185544 11697996
9.349346 9.221286 1.747597 11697996
9.866544 10.266217 2.049214 11697996
9.182597 9.028386 1.673128 11697996
9.618558 8.972232 2.465028 11697996
9.494522 11.212199 1.596152 11697996
11.195671 9.638864 1.547369 11697996
9.644503 8.865727 0.392771 11697996
10.277942 10.650310 2.646226 11697996
11.003514 8.758299 2.002463 11697996
9.545934 9.040401 0.060903 11697996
9.989677 10.329906 2.661484 11697996
9.442291 9.639627 1.607434 11697996
9.405181 10.723709 2.845253 11697996
9.945301 9.754342 1.047719 11697996
9.134611 10.249664 2.867736 11697996
9.434167 10.673462 0.820222 11697996
10.062166 9.747563 3.940591 11697996
9.080214 10.590995 2.215578 11697996
8.763033 8.967506 1.166804 11697996
10.600501 9.194378 1.305483 11697996
10.091583 9.737495 2.236135 11697996
11.115235 10.371990 0.218152 11697996
11.085501 10.310513 3.516356 11697996
9.096390 10.241007 1.848372 11697996
9.905443 10.842912 3.217049 11697996
10.706182 10.671433 1.188195 11697996
11.196172 10.125579 1.919254 11697996
10.913159 11.213639 1.331691 11697996
10.732673 11.072117 3.792862 11697996
9.857864 10.249318 1.965000 11697996
11.259270 10.362735 0.457240 11697996
10.526489 10.054155 2.089593 11697996
10.107643 9.782696 3.652050 11697996
9.393002 10.695232 2.084511 11697996
9.576024 10.346327 2.705515 11697996
9.792743 9.649992 0.948065 11697996
9.098329 8.828861 3.348877 11697996
9.533820 8.986334 0.056727 11697996
10.744104 10.047883 2.288906 11697996
9.492344 9.171785 3.775488 11697996
9.964647 9.912385 2.121918 11697996
9.384964 10.500777 0.406045 11697996
9.679249 10.182665 2.064668 11697996
9.392998 11.103333 3.852583 11697996
9.916434 9.938795 2.233313 11697996
8.975269 10.292365 0.924780 11697996
9.608210 9.633091 2.339984 11697996
11.126132 10.443504 1.171752 11697996
10.885416 10.420813 1.606437 11697996
9.379990 9.390486 0.065832 11697996
9.919423 10.044984 1.238335 11697996
11.172516 9.872997 1.123802 11697996
9.743501 9.338676 -0.019343 11697996
9.030420 9.539042 1.820953 11697996
10.852431 9.450010 0.642467 11697996
9.636690 10.034150 1.424970 11697996
9.705667 10.816020 0.244280 11697996
11.196660 10.280896 3.989513 11697996
8.740705 9.714003 2.602196 11697996
9.948947 10.810408 3.183453 11697996
10.116839 9.989546 2.281205 11697996
11.155007 9.863114 2.109399 11697996
9.818357 10.172584 3.517064 11697996
8.976544 9.195827 2.377627 11697996
9.689350 10.407678 2.836917 11697996
10.534711 9.873785 3.781090 11697996
10.551111 9.590797 2.835763 11697996
9.035053 9.516617 2.932451 11697996
10.822033 11.239241 2.802937 11697996
11.204860 10.704235 0.463570 11697996
11.218047 8.754906 1.765525 11697996
9.819604 9.922210 2.500138 11697996
10.425841 8.916862 3.640588 11697996
10.648265 9.635189 1.704941 11697996
10.317737 8.918402 1.256748 11697996
9.709452 10.461176 3.793300 11697996
10.609958 10.498394 1.302106 11697996
10.152324 10.305804 3.667963 11697996
10.178192 9.221912 0.579871 11697996
9.821058 9.079914 1.011089 11697996
10.574581 10.633952 1.749208 11697996
9.949553 10.167944 0.463729 11697996
10.076530 10.401044 3.704363 11697996
10.259293 9.623308 1.603114 11697996
11.057849 9.429250 3.295997 11697996
9.777040 8.797171 3.538270 11697996
9.429708 9.792336 1.286729 11697996
8.957062 8.920177 3.414059 11697996
10.510056 10.524103 1.258981 11697996
10.185524 10.095945 0.189872 11697996
9.003322 10.470660 2.974980 11697996
10.724643 8.826030 1.081652 11697996
8.980604 9.074888 3.317441 11697996
9.747248 11.144917 2.935512 11697996
9.764821 10.941360 0.194710 11697996
11.024244 9.480865 2.018040 11697996
10.507158 10.142981 3.041680 11697996
9.210921 10.603847 2.737893 11697996
11.150088 10.887945 0.179113 11697996
10.100608 9.149307 1.881856 11697996
10.649518 10.257681 2.287224 11697996
11.191929 9.882545 3.122108 11697996
9.022597 10.066140 2.477747 11697996
10.930610 9.111382 1.207247 11697996
11.132082 10.816602 0.188158 11697996
10.396464 10.934860 3.275133 11697996
10.684498 10.835151 3.047510 11697996
9.482817 9.298860 1.078261 11697996
8.878468 9.916542 2.683948 11697996
10.015195 10.553793 3.674876 11697996
10.286089 10.446223 0.937880 11697996
10.290802 9.403659 2.772120 11697996
11.147291 11.004313 2.738680 11697996
9.551624 8.802842 1.120453 11697996
9.454974 9.583262 1.518635 11697996
10.166470 11.106170 2.556250 11697996
9.101330 9.227939 1.729484 11697996
9.376208 8.965917 2.913515 11697996
9.682196 9.723590 2.022266 11697996
10.708097 11.090640 3.682727 11697996
11.106318 10.352760 3.782989 11697996
10.972525 9.192127 0.019238 11697996
11.122369 10.414496 3.187025 11697996
8.980975 9.018916 1.230056 11697996
8.922444 10.269328 3.057412 11697996
8.972824 9.510905 0.998502 11697996
9.296057 9.544459 2.655836 11697996
10.062067 9.132950 3.164330 11697996
8.771095 8.958622 0.449636 11697996
10.130518 10.302785 1.261773 11697996
8.791937 10.257948 0.910844 11697996
9.473796 10.157580 0.405251 11697996
9.597178 9.886950 1.771740 11697996
9.297656 9.134378 1.369533 11697996
9.984168 9.029308 0.979577 11697996
9.386851 9.529752 0.383561 11697996
9.307701 9.606701 0.311715 11697996
9.564647 10.377350 1.855362 11697996
9.061304 9.863003 3.703062 11697996
9.503583 10.011436 0.576237 11697996
9.795757 10.371104 0.686486 11697996
10.779439 11.185543 1.681269 11697996
11.035532 10.228029 0.757043 11697996
9.337990 9.094578 2.462295 11697996
10.046283 9.450884 1.648125 11697996
9.501694 10.062779 2.826874 11697996
10.061634 10.523076 2.669014 11697996
10.924239 9.700624 2.167116 11697996
10.840452 9.544189 0.713359 11697996
9.436249 11.220120 3.623907 11697996
11.192991 10.311741 0.562571 11697996
10.959212 10.515433 3.539996 11697996
11.022598 10.126774 2.407749 11697996
9.428173 8.794526 1.735001 11697996
10.451021 11.095179 0.504696 11697996
9.676762 9.013805 2.038908 11697996
9.658526 9.568192 2.044585 11697996
10.281843 9.599499 1.257338 11697996
9.995337 10.505649 1.328274 11697996
10.360253 9.690791 3.517932 11697996
11.207121 8.906425 0.833209 11697996
10.182490 9.142815 2.845001 11697996
9.522552 9.280444 2.108827 11697996
8.756559 9.392196 0.373917 11697996
9.695038 9.485061 0.665184 11697996
9.036086 10.141502 1.896817 11697996
11.072353 10.258930 1.518205 11697996
9.377910 10.113613 0.714465 11697996
10.129820 8.779065 0.025061 11697996
9.992876 10.479751 3.037944 11697996
9.140171 9.265062 2.552707 11697996
9.306183 9.295188 0.513504 11697996
10.783072 11.153663 3.990014 11697996
9.196677 10.291493 1.501695 11697996
9.895838 9.492375 3.539922 11697996
8.786894 9.430598 2.223032 11697996
10.321915 9.636960 2.790863 11697996
9.739979 11.206515 3.807903 11697996
10.332787 10.572240 3.046335 11697996
10.554629 10.985862 3.971802 11697996
11.199939 9.089189 2.778527 11697996
9.834210 9.383175 2.488371 11697996
10.312057 10.694464 3.262658 11697996
9.523046 10.221092 3.498925 11697996
9.287917 9.982620 0.068804 11697996
10.228966 10.814754 1.695998 11697996
10.748228 10.272489 2.016107 11697996
10.921245 10.602719 1.046678 11697996
10.108794 8.898293 1.875469 11697996
9.990382 10.316373 1.232117 11697996
11.133738 9.654617 1.915329 11697996
10.464048 9.463255 3.606697 11697996
9.977244 10.130256 0.888240 11697996
10.849931 10.957143 1.251608 11697996
10.234379 9.807384 2.560301 11697996
9.690560 9.182848 3.311220 11697996
9.728699 10.915162 2.242805 11697996
9.490048 10.389773 0.863348 11697996
10.896250 10.633396 3.433431 11697996
9.232224 9.615610 2.312288 11697996
9.022161 10.758626 0.047450 11697996
9.386216 10.904992 1.952506 11697996
9.885383 8.842143 3.068688 11697996
8.832887 9.806209 2.054676 11697996
8.962088 10.647112 0.321148 11697996
8.814252 9.279256 1.225239 11697996
10.896542 9.336820 1.003211 11697996
10.891854 10.441270 3.050765 11697996
9.059599 10.884524 3.821957 11697996
10.938029 9.494670 2.989055 11697996
10.877770 8.760924 0.324160 11697996
8.993967 10.337143 1.029790 11697996
10.411193 8.839918 1.929751 11697996
9.378008 9.290819 0.074545 11697996
9.617503 9.932201 1.250648 11697996
10.728061 8.942675 1.090893 11697996
9.072062 10.560460 1.014810 11697996
10.568318 10.183640 0.393191 11697996
11.005060 9.337262 1.899614 11697996
9.071331 9.862247 2.013671 11697996
10.118812 11.084764 2.779396 11697996
8.847148 9.216835 0.639667 11697996
9.549036 10.804687 3.754362 11697996
9.238030 9.647168 2.237048 11697996
9.265711 10.474968 0.213757 11697996
10.717682 9.855756 2.509831 11697996
9.552748 8.829568 3.762357 11697996
10.945891 10.023231 1.491911 11697996
9.106147 10.359862 1.687503 11697996
9.319709 9.372698 2.065143 11697996
10.254300 8.840622 3.904583 11697996
10.040932 9.181083 3.286610 11697996
10.717030 10.072467 3.194878 11697996
11.233013 10.611135 3.830210 11697996
9.284070 9.281046 2.112464 11697996
9.521355 10.955595 3.258779 11697996
10.067825 9.336793 0.459679 11697996
9.489303 10.467476 2.389755 11697996
10.946677 8.893195 1.160830 11697996
9.643465 10.355650 1.545190 11697996
10.512221 10.449588 1.533449 11697996
9.870945 9.081298 2.528490 11697996
9.268735 10.526415 2.057294 11697996
9.261427 10.043211 0.669596 11697996
9.658765 10.432673 3.756533 11697996
10.310693 9.827812 3.597275 11697996
10.020576 9.303250 2.016517 11697996
10.621400 9.823640 0.421200 11697996
11.227602 10.562251 3.193213 11697996
10.707243 9.617585 3.248138 11697996
10.222680 10.366897 0.726159 11697996
9.596844 10.337486 2.676058 11697996
10.998919 11.115144 3.972464 11697996
11.116923 11.166775 2.021039 11697996
9.213037 9.021867 0.234593 11697996
9.777950 9.802635 3.545851 11697996
9.314989 11.100945 1.604729 11697996
8.922187 10.596728 0.433803 11697996
11.180492 11.017918 2.706811 11697996
8.857225 10.691541 1.577769 11697996
10.611109 9.424142 1.028191 11697996
10.848385 9.592304 3.166802 11697996
10.135829 10.231346 0.952194 11697996
9.080752 9.652508 2.408096 11697996
11.084605 9.128730 0.538131 11697996
9.347935 8.862767 2.187992 11697996
10.909929 10.866851 2.337631 11697996
10.451401 10.741845 3.768023 11697996
9.445566 10.924438 0.976223 11697996
9.258077 10.247801 3.507612 11697996
10.361452 9.477833 2.918344 11697996
10.577152 10.430858 3.620288 11697996
8.856612 11.160464 1.216774 11697996
9.554500 10.204545 1.120275 11697996
9.639014 10.033684 3.178273 11697996
10.715223 10.335149 3.207889 11697996
10.159739 9.576459 0.175876 11697996
9.059768 8.888119 0.061073 11697996
9.488283 10.240271 1.402728 11697996
10.627590 9.567641 3.552070 11697996
9.100410 11.180718 0.563887 11697996
9.565213 11.145702 0.481731 11697996
10.701835 8.872534 1.556833 11697996
10.400594 10.804536 2.128711 11697996
11.224511 10.906657 3.050934 11697996
11.132880 8.913442 2.605956 11697996
9.895342 10.789639 3.911802 11697996
9.450980 10.394129 3.954262 11697996
9.135760 9.185226 3.156411 11697996
9.131632 10.541836 3.420992 11697996
10.971130 11.045506 2.857307 11697996
9.604104 10.447620 2.078860 11697996
9.377603 9.994076 3.723620 11697996
10.931901 9.743093 3.803545 11697996
9.630382 9.072777 0.402431 11697996
9.075408 9.206280 0.556576 11697996
9.513841 9.081248 1.382332 11697996
9.719398 10.369645 3.285348 11697996
10.832644 9.296198 0.738438 11697996
9.056712 10.164472 2.015722 11697996
9.517600 10.546885 1.088955 11697996
10.138014 9.249187 2.792409 11697996
9.463580 10.208652 0.026369 11697996
9.387887 9.185116 0.255034 11697996
10.817449 9.889962 1.503742 11697996
9.808059 10.755298 0.183120 11697996
8.992474 9.728414 0.889209 11697996
10.204484 9.453803 2.057539 11697996
10.895794 9.231296 1.038369 11697996
8.867553 10.259338 1.843953 11697996
8.806570 11.012803 3.606640 11697996
10.585810 9.107045 2.365330 11697996
9.294960 10.927863 1.827718 11697996
10.593693 9.930335 0.537038 11697996
9.458342 9.148161 3.751834 11697996
10.320462 10.297613 0.051102 11697996
10.687868 9.004907 3.710996 11697996
9.114636 11.120019 3.936033 11697996
10.271151 9.295369 1.931776 11697996
8.819588 8.996257 3.694199 11697996
10.318968 9.203045 2.650250 11697996
9.742157 9.994397 3.940103 11697996
8.763968 9.807769 1.487849 11697996
9.256230 10.498470 2.153024 11697996
9.659117 10.713472 2.778175 11697996
9.268735 9.849145 2.144307 11697996
8.755917 10.264649 3.175407 11697996
9.318864 10.964893 0.095585 11697996
8.789997 9.469650 2.481409 11697996
10.850689 9.799814 1.549401 11697996
10.248394 9.809835 1.790545 11697996
10.419059 10.051919 2.326029 11697996
10.157149 9.198097 2.969896 11697996
10.089670 10.322600 3.459966 11697996
9.144100 10.111629 0.980503 11697996
9.361804 8.831120 2.617216 11697996
11.261611 11.133505 1.242600 11697996
9.072457 10.157591 2.609732 11697996
9.625979 9.738377 2.736953 11697996
9.388229 9.759650 1.700805 11697996
9.396006 10.846998 3.574406 11697996
10.720809 8.847909 2.786941 11697996
10.141808 9.357787 1.603386 11697996
10.928219 10.738335 3.817591 11697996
9.128070 9.436400 3.351172 11697996
10.050914 9.675779 0.870161 11697996
9.222244 10.976509 0.439224 11697996
9.031545 11.010273 1.948508 11697996
10.931671 10.825724 1.348337 11697996
9.890882 9.264606 3.197434 11697996
10.379738 9.818351 1.360599 11697996
10.290069 9.866818 3.892838 11697996
9.456918 9.083587 3.598586 11697996
9.780184 10.459137 3.191981 11697996
8.984320 9.821726 2.803655 11697996
10.335715 10.976009 0.426419 11697996
10.139366 10.969312 3.013846 11697996
9.020870 9.499277 0.266859 11697996
8.754055 10.149667 0.941354 11697996
9.697358 10.674300 0.569101 11697996
10.372308 10.156329 3.282947 11697996
9.127886 10.202662 3.665260 11697996
11.217133 10.313916 2.529140 11697996
10.927534 10.032273 2.851141 11697996
10.157483 9.999163 0.127981 11697996
10.520411 9.437411 1.619682 11697996
9.110745 9.129057 0.524598 11697996
8.888066 10.905623 0.530294 11697996
9.102789 10.191358 2.231896 11697996
9.791942 10.609296 2.018839 11697996
10.925768 9.405640 3.383143 11697996
9.005701 10.746860 2.064477 11697996
8.839869 10.137939 2.760665 11697996
9.739963 10.075688 0.635348 11697996
10.757788 10.700167 0.478847 11697996
9.376232 10.113924 3.229711 11697996
8.785204 8.977936 1.723673 11697996
9.595428 9.707327 1.423926 11697996
9.578634 11.126990 2.482448 11697996
11.041239 9.845742 2.831633 11697996
9.432876 9.405975 2.578803 11697996
9.323431 9.614684 1.659827 11697996
10.577785 11.174831 0.401453 11697996
9.268231 8.895778 3.417382 11697996
10.592024 9.771077 2.281200 11697996
9.967232 10.675007 1.601418 11697996
9.796536 11.143883 2.154148 11697996
10.625632 11.017978 2.278369 11697996
9.732242 11.080295 3.453954 11697996
10.081543 8.949266 0.096721 11697996
9.815817 10.460361 1.659240 11697996
8.860072 9.783686 2.777857 11697996
10.140948 9.894695 2.398792 11697996
10.973536 9.900885 1.832536 11697996
10.129377 10.704486 1.090402 11697996
9.252463 8.993802 3.195882 11697996
9.603738 9.637644 0.812353 11697996
9.804228 10.154223 1.014142 11697996
10.031876 9.912531 2.428997 11697996
11.223894 10.548068 3.336371 11697996
9.654323 9.958655 1.922944 11697996
10.681332 8.832225 0.213522 11697996
11.159357 9.331784 0.022988 11697996
11.141880 9.342589 0.834983 11697996
9.756354 10.305411 1.547335 11697996
10.389801 8.968956 0.665945 11697996
11.130033 8.893147 2.793337 11697996
11.210258 9.418110 3.272768 11697996
11.104658 9.201049 2.083217 11697996
11.183394 10.734992 3.918199 11697996
10.516087 9.679013 2.559017 11697996
10.096668 10.176669 0.346143 11697996
10.792065 10.464451 1.387326 11697996
9.485190 8.772902 1.549737 11697996
9.302028 9.954577 3.433525 11697996
10.706489 10.541567 2.095998 11697996
10.905554 8.808170 2.281094 11697996
9.054505 8.871764 3.407767 11697996
10.222027 10.751996 0.409490 11697996
11.138892 10.937999 3.495808 11697996
10.646060 10.459539 3.062188 11697996
9.316954 10.001174 3.426003 11697996
10.404848 11.078794 0.765843 11697996
10.044749 9.383443 0.872408 11697996
10.564802 10.379756 1.663062 11697996
10.032776 10.162068 3.378200 11697996
9.628414 10.045892 2.735123 11697996
10.519045 9.176819 1.182483 11697996
9.971355 9.568407 1.753182 11697996
10.760184 10.270685 1.760944 11697996
10.659637 11.055274 0.943727 11697996
11.076061 9.861798 2.091990 11697996
10.471802 10.180856 1.579467 11697996
11.057222 9.285454 3.911288 11697996
9.175635 9.702250 2.554590 11697996
10.522344 10.349365 2.341282 11697996
9.562571 10.839220 1.710390 11697996
10.497313 9.548150 3.944473 11697996
10.309069 10.343808 1.591952 11697996
9.273009 9.763719 0.326753 11697996
9.046347 10.674772 2.476211 11697996
11.037612 10.945219 2.978780 11697996
9.323598 9.538169 0.111769 11697996
9.396526 10.480621 2.611237 11697996
9.300898 10.080731 -0.023969 11697996
10.365841 9.629950 0.302989 11697996
9.889340 11.008779 1.114529 11697996
10.105422 9.891721 1.012224 11697996
9.961529 9.846385 1.783431 11697996
8.956271 9.047490 0.511229 11697996
10.215531 10.376230 3.634509 11697996
10.799132 10.477873 1.513865 11697996
9.300013 10.560999 3.047635 11697996
8.975936 9.300169 3.931409 11697996
9.307723 9.376872 3.750701 11697996
10.484271 10.365896 0.148656 11697996
11.208526 11.027625 2.754969 11697996
10.128835 10.437479 4.013124 11697996
9.041275 11.026629 2.448750 11697996
9.981791 10.583292 1.095007 11697996
10.709520 10.408675 1.008134 11697996
10.302855 9.883257 1.932833 11697996
9.278579 9.861005 3.134663 11697996
10.857219 9.977268 1.304131 11697996
11.259658 8.817088 0.178293 11697996
9.282436 9.562472 1.925704 11697996
9.446950 10.225006 3.923853 11697996
10.601303 10.960476 2.730606 11697996
9.784031 9.422197 2.239935 11697996
11.198305 10.742512 1.648350 11697996
9.086677 10.806501 0.264727 11697996
9.639810 9.682537 0.182685 11697996
9.733495 9.038640 2.268411 11697996
9.837508 11.026995 3.542107 11697996
10.681950 9.155651 3.462121 11697996
9.457475 10.170509 1.883860 11697996
9.655351 9.855430 3.403954 11697996
10.169127 9.561762 3.195943 11697996
10.887519 8.791741 0.619158 11697996
10.175457 9.789722 1.627949 11697996
9.458518 8.990001 3.385818 11697996
10.110903 10.804807 2.275186 11697996
10.126615 9.855284 3.411622 11697996
9.784806 9.043777 3.000281 11697996
11.168183 9.569773 1.215143 11697996
9.176823 9.628755 2.750340 11697996
9.117359 10.047555 1.833524 11697996
11.021388 10.281503 3.423922 11697996
9.055508 9.606985 0.202851 11697996
10.625651 9.796220 1.394234 11697996
10.994342 10.145259 0.107387 11697996
10.470785 10.151722 2.287987 11697996
10.423188 10.593897 2.566691 11697996
10.934671 9.799341 3.744214 11697996
9.444873 10.746081 3.117473 11697996
8.813520 9.804544 3.737842 11697996
10.429079 9.083763 0.437795 11697996
8.877594 9.582100 0.157118 11697996
10.944956 9.904073 1.915696 11697996
10.411469 10.343287 1.382703 11697996
9.001227 9.182300 1.546356 11697996
11.032810 8.971025 1.380629 11697996
9.219927 10.492414 1.164353 11697996
9.542402 11.048874 0.746820 11697996
10.620614 11.000582 2.820091 11697996
11.167094 10.761993 0.117042 11697996
9.146386 8.888475 0.258583 11697996
9.901447 10.023486 3.882219 11697996
10.435330 9.527272 2.695354 11697996
11.051641 10.840124 2.945789 11697996
10.019028 10.751641 0.092026 11697996
10.304342 9.041586 0.260848 11697996
10.398731 10.958438 0.972103 11697996
8.741227 9.453653 0.779534 11697996
9.337571 11.073632 1.220785 11697996
10.749136 9.000401 1.536273 11697996
9.988389 10.661350 0.395729 11697996
10.721251 9.853026 1.732473 11697996
10.239977 10.086205 3.936294 11697996
10.614925 9.419981 3.073227 11697996
10.154896 11.155038 0.289575 11697996
9.009905 9.879347 1.707569 11697996
9.555309 10.093015 3.808194 11697996
9.744682 10.778111 1.260267 11697996
11.029942 11.024632 0.440323 11697996
10.256408 9.187482 2.181714 11697996
8.761598 9.139911 1.843970 11697996
8.769209 9.201871 1.236865 11697996
8.865677 9.535924 2.092475 11697996
9.381079 10.844082 1.815142 11697996
9.014092 10.299637 2.106453 11697996
8.965734 10.652437 1.985227 11697996
9.161888 10.536581 0.344373 11697996
10.105894 11.187424 2.677634 11697996
9.322016 10.135905 3.523797 11697996
11.121915 10.547180 2.635042 11697996
10.676051 9.781794 0.683892 11697996
9.654258 9.004351 2.014978 11697996
10.398752 10.293941 3.009702 11697996
10.214297 9.207600 1.940827 11697996
11.225770 9.857255 1.981565 11697996
11.078920 9.241056 2.210184 11697996
9.948146 11.013843 1.785401 11697996
11.230634 9.516147 1.508075 11697996
9.976007 9.162595 1.410889 11697996
10.672458 10.554882 3.133816 11697996
11.126639 11.148350 3.762327 11697996
9.896411 9.163222 3.606084 11697996
11.214941 11.169425 0.610561 11697996
9.148427 9.252769 3.893634 11697996
10.826770 10.251146 2.564627 11697996
10.137427 10.184682 0.347381 11697996
9.841126 10.238805 0.595085 11697996
10.365986 8.745888 0.292961 11697996
10.431235 9.597283 2.690858 11697996
9.457247 9.176175 2.354739 11697996
8.777114 10.483651 3.895720 11697996
10.862713 10.098106 2.888536 11697996
10.558165 11.019332 3.489144 11697996
9.081156 9.708168 3.642208 11697996
8.816795 9.475158 0.853656 11697996
9.310924 10.839282 2.033142 11697996
10.184056 9.535864 2.950068 11697996
9.655918 9.828726 0.626009 11697996
11.072083 9.822177 2.132904 11697996
10.061927 10.310659 2.307557 11697996
10.746758 11.146124 1.849035 11697996
10.166549 9.673245 3.249902 11697996
8.807034 9.200171 0.295627 11697996
10.756175 9.779523 3.096493 11697996
11.181383 8.830489 0.985773 11697996
9.698167 10.472690 2.735176 11697996
10.893562 10.551195 1.849383 11697996
9.797734 10.797648 3.953590 11697996
10.659888 10.417745 0.139447 11697996
11.062590 9.018951 1.039676 11697996
10.186244 9.158582 0.960078 11697996
10.231280 11.140380 2.419178 11697996
9.505940 11.010786 0.761562 11697996
9.605985 10.623294 0.772729 11697996
9.007116 8.953141 1.466341 11697996
10.715655 9.798104 2.778544 11697996
10.429882 10.029093 2.191155 11697996
10.580586 8.862577 2.496749 11697996
9.038417 11.174379 1.087488 11697996
9.604370 10.175731 3.562301 11697996
9.644656 10.938214 2.878370 11697996
10.580132 9.130627 0.987597 11697996
8.863726 9.156561 1.174718 11697996
