# .PCD v0.7 - Point Cloud Data file format
VERSION 0.7
FIELDS x y z rgb
SIZE 4 4 4 4
TYPE F F F U
COUNT 1 1 1 1
WIDTH 1291
HEIGHT 1
VIEWPOINT 0 0 0 1 0 0 0
POINTS 1291
DATA ascii
8.859060 9.907416 0.245048 11697996
10.243090 10.606789 2.941877 11697996
9.119988 9.921764 1.611355 11697996
10.204823 9.728413 0.564026 11697996
8.799999 8.780462 3.763163 11697996
9.176249 11.119798 3.845746 11697996
9.309549 10.332383 1.005116 11697996
9.261783 9.001831 3.727886 11697996
10.832950 9.287392 2.960260 11697996
10.136429 10.289237 3.381156 11697996
9.030533 10.026185 3.571799 11697996
9.344135 10.757957 1.453419 11697996
11.000414 10.788527 1.919752 11697996
10.232109 9.797164 1.825922 11697996
9.406012 11.134264 3.189664 11697996
8.969803 10.137714 3.947075 11697996
8.828668 10.311290 1.481477 11697996
9.375667 8.787537 0.184708 11697996
9.308191 10.113357 2.604965 11697996
10.708643 9.859819 0.792058 11697996
10.171487 10.763829 0.170748 11697996
9.454535 10.861466 2.792347 11697996
10.084200 9.772897 1.864672 11697996
9.654824 11.202775 3.652531 11697996
9.949998 8.801414 1.736039 11697996
9.257563 9.895082 3.377404 11697996
10.323168 9.631471 2.832078 11697996
10.553555 10.561199 1.479404 11697996
10.707701 8.820920 1.157930 11697996
10.184741 9.684055 3.001521 11697996
9.667517 9.797525 0.847608 11697996
10.734532 10.270064 1.565587 11697996
10.909620 10.346919 2.833650 11697996
10.458815 10.914237 0.919525 11697996
10.532936 11.247661 3.395971 11697996
9.821514 9.866682 2.170982 11697996
8.893663 10.338836 3.484773 11697996
9.578194 9.885933 1.600434 11697996
9.525217 9.301265 3.706116 11697996
10.917613 9.277102 3.591747 11697996
11.210435 9.468830 0.824798 11697996
10.008337 10.168608 2.894485 11697996
10.911492 10.276245 1.117950 11697996
9.715062 10.202706 2.159824 11697996
11.032419 10.419633 2.880618 11697996
9.086731 10.912303 0.066966 11697996
9.110201 8.757067 3.433384 11697996
10.346718 9.736465 3.916293 11697996
9.178830 9.750300 1.152390 11697996
10.796218 10.899091 1.378533 11697996
10.897625 10.310944 3.560495 11697996
10.514332 9.601786 2.839358 11697996
9.168003 9.036549 1.405931 11697996
10.753258 10.086626 2.563037 11697996
10.730203 10.302104 1.639927 11697996
9.711714 10.990621 0.941831 11697996
9.405614 9.702374 3.351264 11697996
11.098866 9.629750 2.006461 11697996
8.865561 8.825741 3.058680 11697996
10.823511 9.921149 1.326573 11697996
9.034215 11.067399 2.121372 11697996
9.815929 9.889437 1.145824 11697996
9.076926 9.382730 0.598561 11697996
10.295410 10.441437 3.050322 11697996
8.935714 10.861991 1.513790 11697996
10.582849 9.442386 0.344761 11697996
9.497709 11.066250 0.914066 11697996
8.777240 10.363051 3.883990 11697996
11.168939 10.401810 2.897621 11697996
10.521417 10.468595 0.047616 11697996
10.361873 10.872821 1.798022 11697996
9.000276 11.096571 0.562586 11697996
9.467013 9.286990 0.216015 11697996
11.102270 9.383725 0.220254 11697996
9.053424 9.616848 1.762603 11697996
9.405301 9.218947 -0.026716 11697996
9.737964 10.217752 2.360682 11697996
9.134121 10.048840 3.964101 11697996
9.320347 9.156704 3.960679 11697996
10.505229 11.085189 1.874297 11697996
10.445165 10.532142 2.916044 11697996
10.694299 10.986822 3.180651 11697996
9.587157 11.070273 0.544372 11697996
9.796977 9.550471 0.648303 11697996
11.026499 9.792416 1.331010 11697996
8.828505 9.780368 0.342654 11697996
10.349170 9.007337 2.385839 11697996
9.213282 11.099154 2.055522 11697996
10.703761 10.954583 1.136532 11697996
10.734893 9.836657 2.767088 11697996
10.149325 10.673228 1.642896 11697996
9.565936 11.251442 2.132307 11697996
10.495583 9.835962 0.576764 11697996
9.665253 11.036013 0.411111 11697996
11.117325 10.408490 0.185142 11697996
9.913000 8.928915 2.375159 11697996
9.584304 10.230639 3.509153 11697996
9.711136 9.389506 3.195180 11697996
10.352375 9.636948 0.916404 11697996
10.136642 9.723691 3.074996 11697996
9.084510 9.797730 1.582657 11697996
9.557409 8.925529 1.842638 11697996
10.274101 9.596463 2.383210 11697996
10.587875 10.351799 3.401409 11697996
11.073071 10.123853 0.255017 11697996
10.243366 8.772038 1.881613 11697996
10.744559 11.076390 1.114636 11697996
9.907533 9.302299 0.340202 11697996
9.130956 8.788179 0.396151 11697996
9.621840 10.131594 1.093191 11697996
11.177552 10.922725 2.074481 11697996
9.757894 10.347900 3.653696 11697996
9.797859 9.628244 3.607141 11697996
10.366672 9.537556 1.037149 11697996
8.756435 10.522257 3.555303 11697996
10.446832 10.238265 3.834677 11697996
10.082518 9.864594 0.324580 11697996
9.054418 9.514111 2.970153 11697996
9.773639 9.537998 2.324396 11697996
9.824928 10.251144 2.183218 11697996
10.206996 9.233641 1.087955 11697996
11.077836 9.189987 0.593295 11697996
10.612592 9.754563 1.622333 11697996
10.754829 11.178360 1.053061 11697996
9.951487 10.232082 3.656760 11697996
10.186276 10.852132 1.479996 11697996
9.589775 8.890873 3.396558 11697996
9.728163 10.816487 3.023210 11697996
9.336761 9.998304 3.977671 11697996
10.815249 9.657776 1.427363 11697996
10.457750 10.441167 3.634274 11697996
9.437598 10.241617 0.862901 11697996
10.043435 9.062138 3.083407 11697996
10.676330 9.071199 1.789311 11697996
9.365061 10.978303 2.310284 11697996
10.874664 11.017127 0.533852 11697996
9.457475 9.628944 3.025243 11697996
9.020643 9.379371 2.311663 11697996
10.145253 8.993234 3.728243 11697996
9.095065 10.838555 1.623408 11697996
10.883132 10.012005 1.443765 11697996
9.198493 9.143164 2.066665 11697996
11.259887 9.271631 2.109305 11697996
9.120106 11.175045 1.278016 11697996
10.132137 9.932270 1.650658 11697996
9.097082 10.478949 1.240234 11697996
8.803203 9.407870 2.998221 11697996
10.795734 11.064104 2.413585 11697996
10.482729 10.927805 1.063563 11697996
9.197495 8.956350 3.944663 11697996
11.231450 8.817227 3.032701 11697996
9.109101 9.636190 1.982699 11697996
9.199110 9.969873 1.318841 11697996
9.901820 8.911998 1.628387 11697996
10.657975 10.823769 1.240133 11697996
9.096513 10.406184 1.136374 11697996
9.228033 8.746697 2.763004 11697996
10.895568 10.200226 1.259086 11697996
9.830237 9.855377 3.101495 11697996
10.327618 8.869205 0.829025 11697996
9.640411 11.055694 0.207027 11697996
10.851480 9.610782 2.433869 11697996
8.762001 10.888799 2.811258 11697996
9.265540 10.835839 2.592542 11697996
10.168195 9.510757 0.599612 11697996
9.665077 9.760782 2.354332 11697996
8.897963 8.888406 1.700828 11697996
9.618927 9.047436 1.977905 11697996
9.138051 9.379547 2.712057 11697996
9.391856 8.896894 1.408692 11697996
9.468951 8.823248 2.781055 11697996
9.654513 9.008942 2.103432 11697996
11.022600 10.349949 3.500305 11697996
9.969827 10.162786 0.457763 11697996
10.531103 10.963867 0.730068 11697996
9.950854 10.646445 1.132154 11697996
9.118368 9.556464 3.801048 11697996
8.825370 9.094111 3.366186 11697996
8.957191 8.806231 0.562063 11697996
11.108744 10.446229 2.122765 11697996
9.357443 8.743087 3.491865 11697996
10.579766 9.627513 2.053539 11697996
8.914452 11.102456 0.804637 11697996
8.809977 9.761739 3.953472 11697996
10.316174 9.658051 2.591858 11697996
10.046598 10.392769 3.409413 11697996
10.650648 10.570241 1.026634 11697996
10.531561 11.225324 0.706992 11697996
10.687205 8.948896 1.517498 11697996
10.944309 11.073550 3.294541 11697996
10.993316 10.890672 0.248713 11697996
11.166791 8.948790 0.616848 11697996
10.146706 11.028006 1.470242 11697996
8.794647 10.460928 0.755277 11697996
9.234759 8.833476 2.492148 11697996
8.977277 9.676306 0.814024 11697996
9.155830 10.835867 2.283131 11697996
9.119906 9.099835 1.521976 11697996
10.018405 9.167428 0.368371 11697996
9.796478 10.178488 1.517943 11697996
9.374610 10.398322 1.668032 11697996
11.145164 10.031645 2.733508 11697996
10.304193 9.619989 0.212131 11697996
9.349271 9.185268 0.230118 11697996
10.825040 10.747076 0.424852 11697996
11.030235 10.961596 3.479532 11697996
10.580937 9.543449 3.558681 11697996
10.534001 9.203695 3.973017 11697996
9.680377 10.506150 2.581565 11697996
10.430525 10.756217 0.992987 11697996
10.468738 9.715177 0.764797 11697996
10.894650 10.744285 0.805814 11697996
10.776318 9.698960 1.209984 11697996
10.215607 10.098285 0.822767 11697996
10.494262 9.734758 0.279886 11697996
9.039815 8.996261 3.117537 11697996
10.177336 10.788304 0.693761 11697996
9.909993 9.925677 1.955559 11697996
9.075497 11.223417 1.761626 11697996
8.761211 10.144385 2.821999 11697996
8.989636 11.208893 1.981969 11697996
9.968235 10.623364 3.848734 11697996
10.165829 9.232471 0.995338 11697996
10.451810 9.623233 1.785253 11697996
9.718551 9.108524 2.746254 11697996
10.632326 8.825863 3.723864 11697996
9.406728 10.111035 1.883503 11697996
8.915063 8.844793 0.332265 11697996
11.084688 10.732982 3.600717 11697996
9.932836 10.298895 2.303219 11697996
9.464573 10.950529 0.664913 11697996
9.234484 9.430035 1.419756 11697996
8.781845 10.391111 2.182638 11697996
9.517515 11.056543 3.416441 11697996
9.234172 9.634728 2.713320 11697996
10.739039 9.783545 1.789006 11697996
9.567692 10.803916 1.172413 11697996
11.165821 9.019337 1.275429 11697996
10.668770 9.223170 1.523875 11697996
9.818181 10.913090 2.181292 11697996
10.936802 8.831761 1.143087 11697996
10.200646 11.185078 2.065854 11697996
10.855370 10.019479 2.924771 11697996
10.279736 10.648847 3.573010 11697996
10.056247 10.442961 2.797864 11697996
8.813940 8.974345 3.158464 11697996
10.984537 10.560257 1.160094 11697996
9.668631 10.273429 3.869840 11697996
10.106923 9.662400 0.896793 11697996
10.233084 10.071222 2.901407 11697996
8.787900 10.160030 2.922722 11697996
10.835046 9.289087 1.644295 11697996
10.409048 9.594006 1.105247 11697996
9.100805 8.901793 2.774662 11697996
9.356333 8.953191 2.772438 11697996
10.127995 8.852344 1.267542 11697996
10.809669 9.280435 0.016592 11697996
10.072614 10.569194 3.288156 11697996
10.789376 10.020134 3.312083 11697996
9.903490 10.458898 2.025268 11697996
9.226562 9.273291 2.152901 11697996
8.975987 10.868891 3.912070 11697996
10.669604 9.571942 1.239629 11697996
9.225788 10.199903 1.260008 11697996
10.098342 10.788393 2.035477 11697996
11.095084 11.091102 1.231707 11697996
9.153915 10.382917 2.464733 11697996
9.607944 9.016907 1.772564 11697996
10.906737 9.545120 0.555268 11697996
9.608263 8.961977 2.817608 11697996
10.446197 11.221150 0.590569 11697996
11.128586 10.052197 1.909777 11697996
11.176255 9.729500 2.437836 11697996
10.601193 8.767617 1.215271 11697996
10.467193 11.020650 1.755720 11697996
11.233315 9.309558 0.412698 11697996
10.625251 10.599879 1.920147 11697996
9.736067 9.620363 1.417108 11697996
10.628021 9.762007 0.476009 11697996
10.731573 9.715001 0.212352 11697996
9.511751 11.211688 2.509310 11697996
9.587110 11.047721 2.376336 11697996
9.375623 8.770152 3.150919 11697996
10.881263 9.769460 1.072212 11697996
9.870777 10.646568 1.581471 11697996
9.944126 9.203830 3.324656 11697996
10.460894 10.968132 0.859855 11697996
8.749371 11.063677 0.127873 11697996
10.582992 8.944839 1.496581 11697996
10.610188 8.950699 2.433147 11697996
9.752715 9.306629 3.646415 11697996
11.084365 10.200819 2.018883 11697996
11.053987 11.073694 0.014140 11697996
11.090883 9.082580 2.000997 11697996
10.219515 9.785984 2.071596 11697996
10.038713 9.289221 0.210529 11697996
8.857885 9.164795 2.060417 11697996
9.647518 9.664267 0.175749 11697996
8.796322 9.533935 1.917870 11697996
10.510871 8.808946 1.736686 11697996
9.133835 9.589396 0.311189 11697996
10.985236 8.812332 3.781062 11697996
10.558488 8.967619 1.858313 11697996
10.197746 9.209701 2.569855 11697996
9.280791 9.004285 0.147244 11697996
9.844081 10.680340 2.453035 11697996
9.199289 10.564499 3.013646 11697996
9.895136 10.428926 1.866394 11697996
9.068412 9.690047 1.750875 11697996
9.696737 10.403230 0.378866 11697996
10.014595 10.874198 2.369826 11697996
10.709245 9.936483 2.172938 11697996
9.727010 10.388747 3.632364 11697996
9.549284 10.272547 3.989331 11697996
8.864120 10.712198 1.056346 11697996
10.028475 10.829799 1.510642 11697996
8.765668 9.687438 0.359162 11697996
8.896888 9.866355 1.380268 11697996
10.406992 8.973475 2.584823 11697996
10.629925 10.833588 0.092822 11697996
11.191490 10.207498 1.740128 11697996
10.709359 10.132148 0.530089 11697996
11.157819 8.733933 2.291808 11697996
10.947807 9.280634 0.434971 11697996
8.968575 10.443088 1.653667 11697996
10.558463 10.689478 0.971288 11697996
10.745454 10.014435 2.775800 11697996
10.753827 10.116330 1.637266 11697996
10.263086 10.703148 3.556396 11697996
10.262108 11.084619 3.131530 11697996
9.228255 10.742741 1.165443 11697996
11.184975 9.519647 0.026699 11697996
10.361705 8.788878 0.679369 11697996
9.882809 10.112926 3.815459 11697996
9.780389 9.987317 3.293914 11697996
10.876799 11.137923 1.416844 11697996
10.111490 8.907810 0.085112 11697996
10.145038 10.604286 1.216677 11697996
10.583427 9.321818 2.003408 11697996
10.902804 9.834362 1.287986 11697996
8.778841 10.587572 1.202852 11697996
10.684757 9.693332 1.821662 11697996
10.859889 9.699976 3.612468 11697996
9.695448 9.159570 3.445924 11697996
9.751193 8.879009 3.193894 11697996
11.240421 9.049289 3.906571 11697996
9.311157 9.193704 2.732556 11697996
10.347916 10.669226 1.029479 11697996
10.296012 10.135066 0.902727 11697996
11.144265 11.116868 3.630627 11697996
9.435702 11.006437 3.384010 11697996
10.468780 9.528230 2.853137 11697996
11.157475 9.679885 0.684928 11697996
10.001709 9.134405 2.436535 11697996
10.806591 9.861777 0.118059 11697996
10.451356 11.134153 0.739598 11697996
9.273766 9.383927 2.065536 11697996
10.713238 11.035739 0.758556 11697996
9.741768 8.924015 1.932660 11697996
11.102807 9.075198 2.941211 11697996
10.973015 9.808867 0.419436 11697996
10.647070 11.252634 2.735749 11697996
9.254242 10.966430 0.368970 11697996
9.010676 9.531236 0.702228 11697996
10.248840 9.434344 1.701069 11697996
9.899259 8.980017 0.003709 11697996
9.688071 9.058443 0.697536 11697996
10.769599 8.950918 0.516449 11697996
9.791120 11.084088 0.906950 11697996
11.123701 10.915403 1.853766 11697996
10.040014 8.773582 3.422341 11697996
8.909418 10.691269 2.164097 11697996
10.099002 8.928654 1.559712 11697996
10.568666 10.199424 2.166727 11697996
10.581631 10.154243 2.153943 11697996
10.949674 9.589134 3.923256 11697996
10.562106 10.741696 3.841289 11697996
9.009722 9.586781 2.304476 11697996
9.873817 10.247023 2.224848 11697996
9.935312 10.864223 2.863006 11697996
10.305071 9.299587 0.047349 11697996
9.804528 8.780370 3.456419 11697996
9.892691 8.802442 1.843092 11697996
10.595053 9.435135 0.958223 11697996
10.398416 10.215848 1.375285 11697996
9.868365 10.617404 0.927957 11697996
10.778954 8.892574 2.511152 11697996
10.835369 11.210967 3.657822 11697996
11.013410 10.728337 1.322037 11697996
10.592819 11.024037 3.524004 11697996
11.186876 10.845678 3.801702 11697996
10.916655 10.165955 2.204594 11697996
9.808246 10.567546 0.115096 11697996
10.664141 9.666844 3.091427 11697996
9.144501 10.193798 3.373138 11697996
11.204417 10.450009 3.703511 11697996
10.099797 10.837446 0.177023 11697996
9.442707 9.447515 0.188614 11697996
10.443358 10.228912 0.773100 11697996
10.213008 10.697853 0.036582 11697996
8.960604 11.071898 1.851325 11697996
9.348801 9.645485 0.131487 11697996
9.476037 8.797689 3.887767 11697996
10.304734 10.219131 3.782865 11697996
9.620474 11.008250 3.384243 11697996
11.184764 9.784737 0.821096 11697996
9.516856 9.724616 0.810474 11697996
10.590274 10.543756 2.037690 11697996
10.198361 8.877020 2.230095 11697996
10.002378 10.687319 1.605415 11697996
10.343898 9.829904 0.664934 11697996
9.819622 11.209772 0.412142 11697996
10.677076 9.774078 1.100332 11697996
10.458093 9.694538 3.571042 11697996
9.857898 10.536933 2.280077 11697996
11.253433 9.903158 0.310845 11697996
9.726433 9.283774 1.405968 11697996
9.000008 10.395431 3.612448 11697996
9.923728 9.057973 2.205923 11697996
11.247402 9.545748 1.013520 11697996
9.016520 9.911705 1.568328 11697996
11.199690 10.003963 0.267537 11697996
9.197849 11.111263 2.538568 11697996
10.811842 9.641554 1.794088 11697996
10.520351 10.527701 0.271732 11697996
10.708170 10.739630 2.388309 11697996
10.521096 10.063585 1.788000 11697996
11.168669 9.051848 0.954144 11697996
9.643405 11.140750 0.181959 11697996
9.578373 10.092931 3.758602 11697996
10.144836 9.737717 2.425741 11697996
9.425469 10.821322 2.696965 11697996
11.028070 10.529669 1.319907 11697996
9.090025 9.029941 0.970929 11697996
9.015081 10.359395 2.535690 11697996
10.772055 9.290428 0.044934 11697996
10.241746 10.626052 2.674562 11697996
9.629041 8.764815 3.535624 11697996
10.651672 10.449348 0.562466 11697996
10.654386 8.901628 2.166604 11697996
9.757133 10.098332 1.055610 11697996
10.116013 9.159778 2.329635 11697996
9.513566 9.693188 1.426258 11697996
9.022728 9.306572 0.230219 11697996
10.305067 9.850671 2.302439 11697996
10.805483 10.538458 3.719602 11697996
9.554809 9.257010 0.071099 11697996
9.572371 10.285015 0.491800 11697996
10.468110 9.270376 1.148195 11697996
9.495998 9.264142 2.749561 11697996
10.065334 9.185032 3.897797 11697996
11.101565 10.001666 2.688324 11697996
10.839808 9.582766 1.431335 11697996
10.133571 10.690484 3.837567 11697996
10.288331 10.774965 1.993791 11697996
10.966733 10.474567 1.426477 11697996
11.153041 10.792976 0.675201 11697996
9.736240 10.526646 1.101700 11697996
8.962217 9.863176 3.439187 11697996
11.065875 9.510350 3.151229 11697996
9.451950 10.701899 2.734030 11697996
10.203100 9.613796 1.980676 11697996
10.410849 9.142042 2.798259 11697996
11.238550 8.767844 3.281291 11697996
11.200743 9.940391 1.451235 11697996
10.381089 11.004203 0.407990 11697996
9.680277 11.134830 3.051996 11697996
9.656487 10.603320 1.506177 11697996
10.712455 9.458918 2.467994 11697996
10.225069 10.470609 3.901070 11697996
10.171459 10.855586 3.575541 11697996
9.210560 10.200241 2.142468 11697996
11.187594 11.009286 0.416240 11697996
10.305820 9.389309 3.719076 11697996
11.215367 9.620518 1.486264 11697996
10.358992 11.227498 3.810597 11697996
9.977962 9.608596 3.585350 11697996
11.121693 9.903147 0.682867 11697996
9.376445 9.082078 1.064835 11697996
10.167742 10.744250 0.429612 11697996
11.241386 10.303229 0.718877 11697996
9.705104 9.525268 1.463612 11697996
10.655296 9.030439 0.823703 11697996
9.329501 9.896624 3.640215 11697996
11.064354 9.629031 0.757569 11697996
9.543360 8.770897 3.760415 11697996
10.521370 9.218864 0.826342 11697996
9.012613 9.978303 3.935020 11697996
8.787997 11.198286 3.349916 11697996
8.844359 11.051870 0.996516 11697996
9.864065 10.026875 3.266415 11697996
9.867046 9.820828 1.692198 11697996
11.133045 10.774152 2.554284 11697996
9.119500 9.766155 2.291564 11697996
10.553614 9.265496 0.165801 11697996
10.932646 9.442356 0.017916 11697996
9.311945 9.384637 2.519226 11697996
11.194635 10.414719 1.029775 11697996
10.905972 10.169536 3.651395 11697996
10.469856 10.256077 3.503570 11697996
10.991273 9.489473 3.233179 11697996
9.922813 9.460379 3.879080 11697996
10.320085 10.610738 1.370667 11697996
9.008721 9.185272 2.724113 11697996
10.750109 9.382657 3.046513 11697996
10.911236 9.924845 1.372491 11697996
10.454735 8.817840 1.153858 11697996
10.698762 10.060962 1.335357 11697996
9.783622 9.806268 2.771505 11697996
11.082137 9.156424 0.672313 11697996
11.001461 11.241200 0.860138 11697996
9.127037 8.767379 1.636948 11697996
9.505563 11.152719 2.110300 11697996
10.754766 9.486624 1.083305 11697996
9.028064 9.353723 2.131021 11697996
10.382620 9.012752 1.309040 11697996
9.612481 9.611522 0.114131 11697996
10.362066 10.132771 1.581769 11697996
10.515650 9.590951 2.799325 11697996
11.085840 10.892241 1.725813 11697996
10.804392 11.122288 3.533996 11697996
9.408974 9.051459 0.053284 11697996
9.567467 9.001690 2.119075 11697996
10.043095 9.815564 3.266300 11697996
9.328595 10.292897 1.501222 11697996
8.914806 11.202110 2.785976 11697996
9.723678 9.376191 1.664141 11697996
9.254802 9.572520 3.867351 11697996
9.662045 8.881169 3.169683 11697996
10.315444 10.882885 2.028826 11697996
9.813773 9.394143 0.843489 11697996
9.370576 11.183332 2.002626 11697996
10.949335 9.264174 3.347668 11697996
9.544177 9.706713 3.051175 11697996
9.310510 9.853636 1.958170 11697996
9.011461 9.366339 1.659401 11697996
8.895571 10.362337 3.507367 11697996
9.012362 9.329522 2.444380 11697996
9.337798 9.916033 3.713594 11697996
10.482115 10.911190 3.690836 11697996
10.078550 10.357983 2.912780 11697996
10.087898 10.723911 0.049601 11697996
10.568704 9.211033 2.096388 11697996
8.773998 11.211417 0.429950 11697996
9.707157 10.788686 0.060309 11697996
10.930882 9.026915 0.980498 11697996
9.315907 8.932511 1.189749 11697996
10.919353 9.074925 3.811990 11697996
10.911498 10.865205 1.221871 11697996
9.870975 9.113049 3.950651 11697996
8.777625 9.302666 3.108397 11697996
10.416602 9.256409 0.750021 11697996
10.239060 9.296361 1.147807 11697996
10.922809 9.120107 0.407958 11697996
9.099819 9.942749 1.546528 11697996
9.804361 11.187229 2.170959 11697996
10.496281 10.907590 2.315806 11697996
9.541214 10.623151 1.263258 11697996
10.242121 9.750138 3.933300 11697996
9.461496 10.143912 1.377465 11697996
9.886029 10.740827 0.385269 11697996
10.143843 9.311050 3.633503 11697996
11.036744 9.929965 1.092874 11697996
10.673460 10.086924 2.421554 11697996
9.534988 10.020455 1.707152 11697996
11.059796 9.823195 2.232738 11697996
11.239774 11.112264 1.060265 11697996
11.109517 11.087362 3.733763 11697996
11.135077 10.906131 3.066242 11697996
9.355108 9.640558 3.015947 11697996
8.885477 10.251030 2.768009 11697996
10.588192 8.971654 1.512787 11697996
11.136780 11.104042 2.252426 11697996
8.821164 10.803861 1.968879 11697996
10.459746 9.445221 1.456601 11697996
9.792553 10.180289 0.124137 11697996
8.880115 10.731691 3.827296 11697996
10.495309 9.141625 3.230805 11697996
10.978621 10.170777 3.555800 11697996
11.189784 8.875010 1.529571 11697996
10.960048 11.075024 0.757384 11697996
10.964818 9.721258 3.099061 11697996
10.591208 10.401890 3.576385 11697996
10.798702 10.309876 3.876044 11697996
9.542469 9.615656 0.661264 11697996
10.151586 10.544051 2.083382 11697996
9.995938 9.263716 0.637048 11697996
9.847798 8.936641 1.346151 11697996
8.766844 10.346889 1.019765 11697996
9.250732 11.077838 2.069892 11697996
10.463987 9.913703 1.968640 11697996
9.735065 9.810792 0.687320 11697996
9.465426 9.896358 2.370909 11697996
10.675656 9.467265 0.316679 11697996
10.582185 9.351496 1.908833 11697996
10.338924 11.178398 2.726849 11697996
10.364870 11.010755 2.459239 11697996
10.007269 10.262245 2.965634 11697996
9.688243 9.902405 1.235040 11697996
9.504914 10.672641 1.501085 11697996
9.042941 9.874522 2.673960 11697996
10.185172 9.535781 0.862112 11697996
10.816020 10.638085 1.981866 11697996
11.114515 10.598299 1.225589 11697996
10.196104 10.653348 3.692858 11697996
9.475822 9.396394 3.639381 11697996
10.444681 8.816118 2.573507 11697996
9.007780 10.166009 3.891289 11697996
10.925605 10.080585 3.939002 11697996
10.431582 10.835209 0.078795 11697996
11.034165 9.402705 3.869315 11697996
10.408393 10.301800 0.842496 11697996
11.194952 10.593345 3.723359 11697996
10.604237 9.402061 3.030970 11697996
10.775411 8.901436 3.473262 11697996
11.002557 9.813986 1.047808 11697996
9.325735 10.806622 0.595959 11697996
9.844181 9.958774 3.146047 11697996
8.986430 8.812550 3.624214 11697996
11.249496 10.297455 2.821838 11697996
9.674148 11.008945 2.409284 11697996
10.505574 9.840177 2.686431 11697996
10.275690 10.740280 2.971818 11697996
8.818010 8.826422 2.770265 11697996
10.632111 11.066441 1.932240 11697996
8.752316 9.087513 2.709318 11697996
9.300080 10.477205 2.116854 11697996
9.422873 9.049310 0.724095 11697996
9.181856 9.217823 2.207012 11697996
10.828051 9.216210 3.693613 11697996
11.162014 9.629936 0.272341 11697996
9.940163 10.399467 3.542528 11697996
9.284719 10.402542 2.224705 11697996
9.602994 9.071491 2.239241 11697996
10.628477 10.655023 0.051189 11697996
11.071083 11.164987 2.806403 11697996
10.688702 11.198435 0.066207 11697996
10.784716 9.973864 3.978972 11697996
10.186577 10.732719 3.833172 11697996
9.901731 8.804012 1.249297 11697996
10.900757 9.014383 3.190769 11697996
8.832390 9.514419 1.485624 11697996
9.985596 8.969392 1.293909 11697996
9.060280 10.305640 0.466974 11697996
10.770723 9.147586 3.319774 11697996
10.162368 9.558000 2.066833 11697996
9.680123 10.051347 3.982530 11697996
11.190410 11.198078 4.003698 11697996
9.828183 9.191840 3.473326 11697996
11.138995 9.720566 1.347009 11697996
9.044377 9.842563 2.945152 11697996
8.809559 10.492403 3.220045 11697996
10.388938 9.282795 3.403832 11697996
10.688038 9.549348 1.741733 11697996
10.428462 8.783875 1.786785 11697996
10.690589 9.875468 2.289415 11697996
8.845638 9.327104 2.975279 11697996
9.808783 10.866172 3.086334 11697996
9.506185 9.614105 3.514241 11697996
9.958070 9.738105 1.468074 11697996
8.886639 11.111428 3.023112 11697996
9.000031 10.350208 1.927408 11697996
8.735717 10.699694 0.121098 11697996
9.812291 9.314523 2.535733 11697996
11.206926 9.356236 1.278248 11697996
9.245071 9.878873 1.989984 11697996
8.956298 10.981660 0.529684 11697996
10.085142 9.979736 2.238192 11697996
9.805753 10.295285 3.040913 11697996
11.030622 10.620765 3.571800 11697996
8.826337 9.076077 1.979298 11697996
9.752761 8.899779 0.538950 11697996
10.396488 8.979225 3.377724 11697996
9.913957 10.249146 1.547914 11697996
10.288652 8.884405 1.444388 11697996
11.007929 9.261031 1.347898 11697996
10.231121 10.208264 3.196181 11697996
9.930314 9.189614 2.502697 11697996
10.459194 10.340832 1.325406 11697996
11.030447 10.954436 1.345058 11697996
9.005301 10.411645 0.682846 11697996
9.097471 10.239390 1.659030 11697996
9.008377 9.296224 0.104495 11697996
10.839793 9.145509 1.150768 11697996
10.407750 10.168390 2.219179 11697996
9.435748 10.835266 0.994093 11697996
8.918505 10.646072 1.396877 11697996
10.987771 10.712685 0.411142 11697996
10.014843 10.169214 2.625746 11697996
9.331771 10.671506 2.839818 11697996
10.867847 8.984963 3.841587 11697996
10.897175 10.063554 2.542105 11697996
9.753379 9.887196 3.908401 11697996
11.174644 11.030243 2.143486 11697996
10.469270 10.308971 1.345036 11697996
10.554305 9.277619 1.183917 11697996
10.790402 9.195249 2.800866 11697996
8.882969 10.795558 0.603079 11697996
10.400802 8.919508 2.991694 11697996
9.534072 9.883982 1.436232 11697996
9.349227 9.567356 0.381507 11697996
10.824632 10.494505 3.649371 11697996
10.590045 9.798874 3.880868 11697996
8.814935 10.874917 2.171613 11697996
9.672323 9.775023 3.009171 11697996
9.027882 8.819219 2.585640 11697996
11.027136 9.644668 1.575510 11697996
10.721161 10.851295 0.128909 11697996
9.371238 11.136193 2.723675 11697996
10.341120 10.135839 2.579251 11697996
9.528071 9.546510 2.047054 11697996
8.884078 10.016851 1.984689 11697996
9.120519 10.745460 0.883225 11697996
8.811294 10.789511 1.719210 11697996
9.778842 9.961341 2.045392 11697996
10.286094 8.948326 1.702926 11697996
9.545739 9.864787 0.536507 11697996
9.338057 9.672000 0.707557 11697996
8.802416 10.248479 3.149908 11697996
10.450750 10.300513 3.675079 11697996
10.784669 10.771221 0.035710 11697996
10.267419 10.154551 0.502976 11697996
11.034384 9.861928 1.895648 11697996
9.803026 9.284500 2.230179 11697996
10.071490 9.040858 0.078829 11697996
9.675533 10.044550 0.930580 11697996
10.595695 10.071335 1.548511 11697996
9.252817 11.136115 2.421897 11697996
9.681651 10.093259 0.753733 11697996
9.907140 10.896497 0.140300 11697996
10.417813 10.487432 2.085908 11697996
9.144808 10.033933 0.489687 11697996
8.854449 10.999031 0.842267 11697996
11.115340 9.366693 0.773138 11697996
10.131020 9.255628 2.619920 11697996
10.975153 10.805172 0.519959 11697996
10.451240 11.003692 2.165533 11697996
9.016811 10.289946 3.550265 11697996
9.408819 9.584616 0.174112 11697996
11.087968 9.017298 2.996970 11697996
11.115951 8.968980 3.897743 11697996
8.873090 10.521159 0.399486 11697996
8.894621 9.476410 0.726911 11697996
10.320811 11.148305 3.028933 11697996
8.789337 10.184221 0.903063 11697996
8.774660 8.820592 3.831508 11697996
11.219754 10.571772 2.092782 11697996
10.393138 9.027298 3.181412 11697996
9.365534 9.207286 0.548334 11697996
10.938559 9.755902 3.363490 11697996
10.626115 10.427090 0.452294 11697996
9.767097 8.956440 3.749041 11697996
9.295878 9.415870 2.423690 11697996
9.095832 9.259516 3.880927 11697996
9.808020 9.795539 1.987244 11697996
10.473083 10.552107 0.034925 11697996
9.536030 10.864261 1.254699 11697996
10.343367 10.440888 2.594265 11697996
10.984410 10.953966 0.644664 11697996
9.243939 9.460299 1.107588 11697996
9.568120 9.295044 2.834381 11697996
9.656724 10.346160 1.384278 11697996
10.080256 10.907452 3.156389 11697996
11.177394 9.788256 0.008838 11697996
9.481224 9.543126 0.960962 11697996
8.934184 10.688600 1.224898 11697996
9.077811 9.109484 3.672223 11697996
10.853111 9.834324 2.418254 11697996
11.192095 8.930597 4.024757 11697996
9.967251 10.805650 1.841896 11697996
8.933416 9.029765 1.022713 11697996
9.669014 10.198956 1.018466 11697996
10.350248 9.598061 1.566212 11697996
10.783662 10.356389 1.353651 11697996
10.255706 9.397564 3.991558 11697996
10.099879 9.567210 3.278198 11697996
9.015212 10.375942 0.930542 11697996
9.857849 9.184369 3.742234 11697996
11.137720 8.994627 2.110849 11697996
10.817336 10.803477 0.397230 11697996
9.193720 10.297649 0.856020 11697996
9.395086 11.089966 3.174328 11697996
9.788363 9.023321 0.150138 11697996
10.041270 9.630953 0.420368 11697996
8.845453 10.045120 2.480848 11697996
9.958698 11.104673 0.872681 11697996
10.434450 9.941196 0.049079 11697996
10.310210 9.592681 2.998500 11697996
10.031810 9.213082 3.368435 11697996
10.308628 9.797845 3.804112 11697996
9.318798 11.126196 1.598665 11697996
9.072586 10.510303 1.411055 11697996
8.867185 9.944736 2.247348 11697996
9.849984 10.257431 2.360784 11697996
10.861061 10.585929 1.385093 11697996
10.951566 9.920341 3.709996 11697996
10.295805 10.021280 2.672703 11697996
8.878923 9.631226 2.031260 11697996
10.963786 10.770960 1.445578 11697996
10.834853 8.872471 3.026186 11697996
9.059192 10.264146 3.197541 11697996
10.792598 8.919696 1.550624 11697996
9.234794 10.934191 0.510164 11697996
10.778403 9.959348 0.030332 11697996
10.734598 10.338627 3.575063 11697996
10.852322 10.922745 2.315739 11697996
10.031974 9.547063 3.350096 11697996
10.984510 10.251719 0.226311 11697996
8.875423 9.316004 2.640908 11697996
9.409150 8.828319 2.991303 11697996
9.404500 10.130806 1.945597 11697996
10.755937 10.821956 3.193651 11697996
8.978522 8.920615 0.463583 11697996
10.837569 10.696006 3.088520 11697996
9.957289 10.042922 3.253642 11697996
11.221392 10.648636 2.870338 11697996
11.081269 10.056951 1.999984 11697996
9.197365 10.034245 2.812456 11697996
10.591277 10.767429 3.172710 11697996
9.376809 10.739303 1.765852 11697996
11.188619 9.436836 3.567303 11697996
10.971185 9.596714 1.015950 11697996
8.909712 11.012470 0.424492 11697996
8.799488 10.898117 0.134879 11697996
10.189621 10.018860 1.300834 11697996
10.631030 10.261957 1.465393 11697996
8.943543 9.978637 3.822323 11697996
10.447016 10.585087 1.822818 11697996
9.653351 11.161484 2.678740 11697996
10.865016 9.662228 3.138283 11697996
8.836923 10.899092 3.934649 11697996
10.882269 10.438800 1.879363 11697996
10.714679 9.689035 1.134527 11697996
9.789387 9.400180 0.371348 11697996
10.039973 10.079634 2.724330 11697996
9.764027 11.171524 0.790011 11697996
8.991601 10.046086 3.970926 11697996
10.490211 9.814499 3.124446 11697996
9.385884 9.775517 0.693830 11697996
8.958684 11.117918 3.057951 11697996
9.272874 9.042709 3.764183 11697996
11.133707 9.016825 2.113837 11697996
11.234189 10.795525 0.957571 11697996
10.850103 10.601531 3.698853 11697996
9.109682 9.664651 3.957271 11697996
10.759149 10.613244 2.173350 11697996
10.640204 10.532736 0.487148 11697996
9.202454 9.000341 1.647452 11697996
9.306437 9.941578 3.777478 11697996
8.866360 9.600465 1.836572 11697996
10.662803 8.951394 1.617738 11697996
10.679880 10.496168 2.329258 11697996
10.627836 9.834860 1.839623 11697996
10.875581 10.123748 4.025059 11697996
9.027309 9.475589 2.762207 11697996
10.452919 9.712420 3.189338 11697996
10.777010 9.016280 2.170965 11697996
9.098119 10.791988 0.142264 11697996
9.270415 11.082233 3.199281 11697996
9.911062 10.946584 0.815438 11697996
10.862550 10.764756 0.846715 11697996
9.197839 9.488167 1.061927 11697996
10.426406 9.684953 3.649441 11697996
10.892449 11.225678 0.712919 11697996
9.230369 11.153299 2.186260 11697996
9.595440 10.660897 1.786813 11697996
10.084408 9.911403 3.946989 11697996
9.369558 10.942989 2.698716 11697996
10.832038 10.510811 3.192224 11697996
10.807689 10.869054 3.094111 11697996
9.715478 10.538558 1.329480 11697996
10.812764 9.331124 1.174834 11697996
9.975852 9.338514 0.544531 11697996
9.013938 9.581489 1.037597 11697996
9.171057 9.166940 0.230526 11697996
9.298803 10.315454 3.850832 11697996
9.717669 8.916724 0.453778 11697996
9.189153 8.761705 2.314497 11697996
10.885751 9.129801 2.964951 11697996
8.894376 9.656815 3.877525 11697996
9.582067 10.143490 3.686890 11697996
11.044175 9.231172 0.931476 11697996
10.695749 9.465334 1.256912 11697996
9.842256 9.591469 1.583007 11697996
8.765293 11.164400 2.136913 11697996
11.167102 10.240395 2.333098 11697996
11.189198 9.580009 1.188695 11697996
11.202460 9.783913 0.685456 11697996
9.151044 9.778410 2.476944 11697996
9.132542 10.289866 3.228738 11697996
9.525760 9.423110 2.881008 11697996
8.825137 9.534142 3.767750 11697996
10.184706 10.854059 2.630971 11697996
10.570132 10.309901 3.797838 11697996
10.011782 10.106067 3.888931 11697996
8.818020 8.919482 1.700402 11697996
10.230726 8.956092 0.264065 11697996
9.131022 10.969238 0.788871 11697996
8.777420 8.880600 3.090682 11697996
9.912434 8.950970 3.143880 11697996
11.150388 10.979548 2.226453 11697996
9.275154 8.766666 0.924512 11697996
8.983693 9.078360 1.609286 11697996
9.275027 10.242787 1.365370 11697996
10.478322 8.794791 3.280849 11697996
10.744196 9.821576 3.704319 11697996
9.594117 9.705688 0.437163 11697996
9.368849 8.799686 3.306706 11697996
10.703545 9.544404 2.414824 11697996
10.117290 9.516946 4.000641 11697996
9.583344 9.803790 1.676244 11697996
9.789645 10.158513 3.034687 11697996
10.001436 9.400676 1.856851 11697996
10.735258 10.913601 1.440865 11697996
9.954921 8.814396 1.509340 11697996
9.202291 10.434599 1.922191 11697996
9.157016 11.049409 2.083512 11697996
9.995697 9.825842 3.658438 11697996
11.011087 10.089883 0.162685 11697996
9.346470 10.961761 1.392357 11697996
9.897324 10.196024 3.388692 11697996
11.231802 10.677767 0.198991 11697996
10.034059 9.568569 1.268112 11697996
10.901201 9.407299 2.367170 11697996
10.552592 8.756203 1.609904 11697996
8.868494 10.802149 2.369469 11697996
9.041221 9.473569 1.796449 11697996
9.197730 8.842484 3.794003 11697996
9.810602 9.095322 1.137778 11697996
9.610160 8.829655 3.041717 11697996
10.582400 8.770729 2.809060 11697996
11.175781 9.423627 0.310227 11697996
11.239298 9.885103 2.886130 11697996
10.203404 11.224756 0.653268 11697996
10.010195 10.798433 2.006895 11697996
9.764824 10.499016 1.073797 11697996
10.738820 9.845788 2.484029 11697996
10.732134 8.858416 1.754128 11697996
10.668626 9.152298 0.571382 11697996
10.424078 10.705126 0.650467 11697996
8.746780 9.264160 3.438976 11697996
9.963543 10.387024 1.022808 11697996
10.044085 10.821210 1.721846 11697996
8.883099 10.298642 3.856339 11697996
9.429275 10.019926 1.557189 11697996
10.867539 9.825003 1.628197 11697996
8.814927 8.878891 1.061624 11697996
9.415586 11.120139 1.646422 11697996
10.889222 9.512113 1.627379 11697996
8.806625 11.212837 2.980113 11697996
8.890021 10.067183 0.917447 11697996
10.592978 10.739861 0.867799 11697996
9.099329 8.844438 2.647882 11697996
10.016411 9.538507 2.608671 11697996
8.811847 10.079400 3.350005 11697996
10.587224 9.498343 2.529338 11697996
8.865667 9.834489 0.518113 11697996
9.575766 10.167623 3.938331 11697996
8.800888 9.919696 1.301578 11697996
9.188396 10.329551 3.111313 11697996
11.215283 11.045101 0.853333 11697996
9.782839 9.889844 0.352372 11697996
9.653431 9.895933 0.277549 11697996
11.021589 9.953798 1.332309 11697996
9.247434 11.174996 0.641759 11697996
11.078700 11.074605 2.973094 11697996
11.076209 10.696767 1.342448 11697996
10.480793 10.507710 0.233608 11697996
9.989153 11.201806 1.517992 11697996
10.529071 10.240395 3.789435 11697996
9.415184 10.520815 0.571249 11697996
10.582604 9.395103 3.110139 11697996
10.217968 10.705639 0.789459 11697996
8.839525 10.065885 1.675104 11697996
11.132079 9.742068 1.515800 11697996
8.940529 9.273552 3.432474 11697996
10.333006 8.847733 3.587332 11697996
10.442382 8.828667 3.918469 11697996
9.270237 9.106280 2.123064 11697996
10.447740 10.819237 0.599244 11697996
10.684782 9.721244 0.433218 11697996
10.656038 9.857475 1.882926 11697996
9.422412 9.795576 3.637051 11697996
8.938944 9.157424 2.852266 11697996
10.342827 9.193436 2.873009 11697996
10.023375 11.032119 3.064431 11697996
10.341738 10.598358 3.481776 11697996
10.109742 10.096494 0.878929 11697996
9.945699 9.616978 0.420978 11697996
9.518550 10.996767 1.465666 11697996
10.112029 8.893385 1.155146 11697996
10.087003 11.191461 2.631534 11697996
10.114145 9.361503 2.229882 11697996
9.024711 8.849070 0.238807 11697996
9.263582 9.273497 2.075683 11697996
9.312561 10.867173 0.816181 11697996
11.176332 9.662937 1.962973 11697996
10.507053 11.242574 1.973224 11697996
9.225657 11.049601 0.594635 11697996
8.795215 11.229112 0.064771 11697996
9.423211 10.101162 0.719917 11697996
10.608669 10.519756 2.638204 11697996
10.746623 10.340977 1.047925 11697996
9.579163 11.000241 1.478700 11697996
9.048077 9.016614 1.589536 11697996
9.697754 10.976611 1.251283 11697996
9.739178 9.045564 0.629070 11697996
9.238058 8.965387 2.042360 11697996
10.967370 10.395366 0.052879 11697996
10.626686 9.261542 1.803501 11697996
10.025339 9.963267 1.135754 11697996
10.301245 10.474545 3.135879 11697996
9.957046 10.985140 0.361940 11697996
9.084989 10.558567 3.421846 11697996
9.684980 11.202200 3.392205 11697996
8.975357 10.523211 0.440988 11697996
10.126757 8.870497 3.246263 11697996
10.771729 10.308165 0.768370 11697996
10.104960 8.839904 2.492013 11697996
11.253984 9.113076 0.483442 11697996
9.522855 9.201612 0.633470 11697996
11.210755 9.013927 3.277254 11697996
9.178976 9.741416 0.739348 11697996
9.334026 9.234478 3.978008 11697996
10.484696 9.268838 2.555080 11697996
9.813265 9.389591 1.018229 11697996
10.016688 11.213075 2.958231 11697996
11.131849 10.380117 0.318352 11697996
10.810923 9.269687 1.005092 11697996
10.589677 10.681653 3.143729 11697996
10.577877 10.928258 1.434124 11697996
9.945645 9.092424 0.792607 11697996
10.697821 9.780712 0.188578 11697996
9.035439 9.957481 0.473875 11697996
10.824505 9.671647 1.397304 11697996
10.585654 11.220175 3.943496 11697996
10.648421 9.621621 3.755864 11697996
11.152801 9.900963 2.944267 11697996
11.064466 9.992393 3.076295 11697996
8.808442 10.898442 2.797442 11697996
11.065632 9.870911 2.762180 11697996
9.240185 9.753284 3.452257 11697996
9.329267 8.984476 3.442156 11697996
9.874903 10.685760 2.546579 11697996
10.921855 9.178066 0.193554 11697996
10.731995 10.495617 1.269814 11697996
9.925385 10.695874 2.365589 11697996
9.132158 10.403063 1.768523 11697996
10.213691 9.347009 2.188413 11697996
11.057542 10.197113 0.190297 11697996
10.047680 11.188273 2.955971 11697996
10.599065 10.999816 3.851614 11697996
9.749828 8.809758 1.535556 11697996
9.593766 9.470820 1.386198 11697996
10.680708 10.722405 1.631245 11697996
9.581962 10.471848 2.753605 11697996
10.238215 11.270562 0.313400 11697996
9.618668 8.860922 3.293696 11697996
9.579266 10.289730 3.149276 11697996
10.333171 9.110294 3.329651 11697996
9.373307 10.335287 2.956427 11697996
9.616867 10.647834 1.729611 11697996
9.091485 10.820011 2.136678 11697996
10.785625 10.511324 0.908885 11697996
10.837898 10.944090 3.687814 11697996
10.714808 10.965497 1.679978 11697996
11.204322 9.283069 3.253519 11697996
9.892248 11.255174 1.764572 11697996
8.824621 8.775025 2.467676 11697996
9.162690 10.090221 3.126330 11697996
10.576976 10.047612 0.193351 11697996
8.870510 10.186270 3.390313 11697996
10.281993 9.528445 0.818839 11697996
10.225603 8.976266 1.394887 11697996
9.610090 8.891782 3.596896 11697996
9.753263 9.817482 1.546832 11697996
10.829385 10.000241 3.048801 11697996
10.680702 10.325905 3.289066 11697996
10.823422 10.486335 0.669154 11697996
10.748472 10.240952 3.843281 11697996
11.099901 9.520276 1.684115 11697996
9.490718 10.816017 2.584826 11697996
10.220867 8.788617 3.101019 11697996
11.166519 9.476919 2.682676 11697996
10.322381 10.069415 2.065211 11697996
10.360745 10.044300 0.990678 11697996
8.873178 10.987000 3.420693 11697996
10.647654 9.900701 1.751092 11697996
9.483631 9.999052 2.166228 11697996
10.095092 10.721379 3.241612 11697996
9.280216 10.493471 1.901101 11697996
9.240576 9.724939 2.745569 11697996
9.795758 9.088363 3.542955 11697996
9.629311 11.048994 2.035411 11697996
10.590689 8.880092 1.306328 11697996
8.918027 11.098175 0.044524 11697996
11.044545 10.372650 2.072998 11697996
8.890026 11.198255 0.013750 11697996
9.268063 11.123225 1.568939 11697996
10.125642 9.208209 1.482864 11697996
9.194037 10.621884 0.519664 11697996
10.826659 10.941657 3.786069 11697996
10.156143 9.804894 2.641456 11697996
10.963717 10.472528 2.322903 11697996
11.182499 9.888832 2.123517 11697996
9.990801 10.225800 2.220759 11697996
10.025750 10.181605 2.058547 11697996
8.872606 9.544613 0.953729 11697996
10.399625 10.993066 2.188053 11697996
10.993685 10.926779 1.685275 11697996
9.963127 8.852199 0.512284 11697996
9.338088 10.375130 3.314902 11697996
11.146329 9.201718 3.182558 11697996
11.099710 10.636079 2.387925 11697996
10.849167 11.170698 1.210154 11697996
10.748524 9.592710 2.708469 11697996
9.968746 10.796022 1.081541 11697996
11.035672 10.070622 1.260304 11697996
9.002520 10.038070 2.564459 11697996
10.089753 10.382756 0.468204 11697996
10.816899 9.908746 3.410553 11697996
9.834970 10.370260 3.086678 11697996
10.094351 11.193885 1.590123 11697996
9.568972 9.910421 1.522127 11697996
10.289266 10.214081 3.256500 11697996
10.889690 10.696039 3.183204 11697996
10.719371 10.689276 0.904269 11697996
10.737000 10.085888 1.574813 11697996
9.718302 10.723852 4.006970 11697996
10.844017 9.577339 1.424968 11697996
9.063389 10.128608 3.917024 11697996
9.158690 9.546373 0.197884 11697996
10.940331 10.920706 1.647828 11697996
10.138068 10.264533 2.417038 11697996
9.544356 10.972834 1.834253 11697996
10.135687 10.706395 0.197941 11697996
10.867736 8.884457 0.806446 11697996
9.107225 10.876963 0.674875 11697996
11.025687 10.989080 0.529407 11697996
10.070216 10.184383 3.231846 11697996
10.384986 9.989057 0.183740 11697996
10.235170 8.963416 1.567527 11697996
9.290581 8.946210 1.461972 11697996
8.955054 10.331181 3.088432 11697996
10.529329 9.337950 1.514632 11697996
9.148511 9.344763 3.696241 11697996
9.460173 9.192989 0.607512 11697996
10.341223 11.065413 1.202834 11697996
10.507317 9.169803 1.501059 11697996
11.131660 10.394199 1.887530 11697996
10.626697 8.985001 3.667211 11697996
10.925897 10.805807 0.819960 11697996
10.839890 9.187554 1.477054 11697996
9.581471 11.168453 1.833139 11697996
8.954105 10.203055 1.776548 11697996
11.210098 10.133997 0.226514 11697996
10.019476 10.989586 3.622925 11697996
10.604103 10.316080 0.277701 11697996
8.878119 10.582006 0.597193 11697996
9.008469 8.871221 1.493160 11697996
10.888342 9.458883 0.172599 11697996
10.385403 9.470380 3.718043 11697996
10.240273 10.418657 0.742878 11697996
10.400043 10.773765 0.165242 11697996
10.827023 9.170275 1.233073 11697996
10.950550 9.802961 3.728869 11697996
10.467873 9.598891 1.610595 11697996
8.824703 8.941638 0.562776 11697996
10.154076 10.271416 3.707521 11697996
9.256160 10.997086 0.684047 11697996
10.754991 8.827587 0.554811 11697996
9.021049 10.684241 2.550517 11697996
10.714522 9.486646 3.137664 11697996
9.565524 9.752694 0.848518 11697996
10.983192 11.190556 2.367878 11697996
9.620945 10.554607 2.850167 11697996
9.671488 11.126389 1.272944 11697996
9.811119 11.114969 2.705839 11697996
10.314211 10.277280 3.043122 11697996
10.426837 10.641828 3.503921 11697996
10.901803 10.674918 1.429067 11697996
9.132354 10.907385 2.663067 11697996
10.828814 9.637740 0.384469 11697996
11.001593 10.529208 3.114001 11697996
8.791028 9.084468 4.023921 11697996
9.466899 9.451253 2.537287 11697996
10.757937 10.218783 2.475402 11697996
8.818249 9.447447 0.685727 11697996
10.271858 9.216676 3.712007 11697996
10.145454 9.094541 2.580461 11697996
10.355306 11.034219 2.591323 11697996
9.058347 9.480555 1.951867 11697996
10.078902 9.383071 2.220978 11697996
9.171618 9.386623 0.668074 11697996
11.001877 9.587552 3.958090 11697996
10.262697 10.740404 1.836813 11697996
11.016037 9.997334 2.400238 11697996
10.258778 10.936814 1.671410 11697996
9.626386 9.753833 3.318774 11697996
10.552885 8.902237 1.981229 11697996
9.283919 10.705046 1.548133 11697996
9.377202 9.264006 2.083565 11697996
9.122346 9.111931 3.234318 11697996
9.371936 10.529333 2.022830 11697996
11.105991 9.025768 2.305978 11697996
11.153108 9.888686 2.423324 11697996
9.302285 11.167801 2.955950 11697996
9.619875 11.197401 1.211536 11697996
9.064237 9.553661 3.194218 11697996
11.198599 8.959453 1.394389 11697996
10.234538 9.978456 1.671702 11697996
10.071309 10.476127 2.674483 11697996
9.340173 9.132953 0.720498 11697996
9.928247 9.422513 0.398617 11697996
9.079545 8.919353 1.393523 11697996
8.820769 10.346532 2.389834 11697996
9.767760 8.949054 2.946848 11697996
10.136976 10.996403 0.854941 11697996
11.073814 9.242599 3.995491 11697996
10.779748 8.991604 1.266228 11697996
9.623332 9.935575 2.829996 11697996
10.122730 9.368315 2.794972 11697996
10.086329 11.143759 3.079165 11697996
10.992951 10.893849 3.215611 11697996
9.426289 10.926172 1.005676 11697996
9.553056 10.764445 1.055205 11697996
8.767706 9.337032 0.079417 11697996
10.509925 10.763137 2.036303 11697996
10.461473 10.660706 2.443291 11697996
10.198340 9.084496 2.935453 11697996
10.296107 9.601585 3.721247 11697996
9.188411 10.708537 3.736298 11697996
9.698504 10.874604 2.552196 11697996
10.963675 9.875760 0.434793 11697996
10.581351 10.859588 3.335360 11697996
10.734597 10.262330 2.095160 11697996
10.348564 10.426612 0.338629 11697996
10.966523 10.446595 2.662261 11697996
9.688781 9.659451 2.609562 11697996
11.126055 10.918009 1.309775 11697996
9.371329 9.480274 3.157955 11697996
10.933688 8.914299 3.606833 11697996
11.199810 9.806231 1.943238 11697996
10.440367 10.309299 2.649955 11697996
9.691242 9.096310 0.415844 11697996
11.242476 10.424236 0.267104 11697996
9.945859 9.245975 0.976505 11697996
10.415490 10.370156 2.380355 11697996
10.787239 8.778340 1.203964 11697996
9.971723 9.052168 0.530792 11697996
9.692661 11.185613 0.817432 11697996
10.134594 9.186013 1.150087 11697996
8.898359 9.477525 1.555017 11697996
9.758066 8.875934 1.700581 11697996
9.810235 9.878413 1.068552 11697996
10.084918 10.857809 3.395856 11697996
10.280258 8.944647 1.094754 11697996
9.046562 10.191061 1.325341 11697996
11.116768 8.874479 2.001188 11697996
11.084611 9.365662 2.215268 11697996
11.051030 9.176545 3.982131 11697996
8.925802 10.417628 2.286327 11697996
8.881374 10.420093 0.513281 11697996
9.066828 11.123728 3.786935 11697996
9.205839 9.700081 0.831114 11697996
9.214535 10.779574 1.396941 11697996
9.326783 10.748326 1.334010 11697996
10.961101 10.223123 1.973716 11697996
10.351702 10.539022 2.571995 11697996
8.861030 10.265666 3.266470 11697996
9.493646 10.219992 3.594350 11697996
9.047120 10.922542 3.173702 11697996
11.147770 10.300063 0.733135 11697996
9.411621 9.064630 2.434497 11697996
9.148036 10.056747 1.073126 11697996
11.071111 9.478225 2.040263 11697996
10.795983 9.511971 0.274865 11697996
9.801271 10.365975 1.848895 11697996
10.257616 10.100784 1.184549 11697996
8.730310 10.463594 3.080230 11697996
10.315372 9.216551 1.360341 11697996
9.768057 9.283897 0.012545 11697996
9.276477 9.979745 2.837734 11697996
10.562834 9.514750 0.880075 11697996
10.222733 10.185044 3.529714 11697996
8.932053 11.106335 1.901200 11697996
11.031181 9.203480 1.304359 11697996
9.214886 9.795938 2.925957 11697996
8.928765 9.097027 2.171293 11697996
9.433689 10.248870 1.051480 11697996
11.095826 9.637262 3.526478 11697996
