# .PCD v0.7 - Point Cloud Data file format
VERSION 0.7
FIELDS x y z rgb
SIZE 4 4 4 4
TYPE F F F U
COUNT 1 1 1 1
WIDTH 1275
HEIGHT 1
VIEWPOINT 0 0 0 1 0 0 0
POINTS 1275
DATA ascii
9.994993 10.525565 1.336030 11697996
10.363403 9.639786 3.537126 11697996
11.210122 8.876018 0.853041 11697996
10.150141 9.149044 2.833879 11697996
9.522118 9.278485 2.134376 11697996
8.771638 9.361981 0.380404 11697996
9.700580 9.530005 0.670595 11697996
9.035845 10.144100 1.904420 11697996
11.082115 10.234572 1.528104 11697996
9.374387 10.084916 0.683315 11697996
10.126962 8.776905 0.020664 11697996
9.965225 10.450420 3.015474 11697996
9.135630 9.273869 2.542171 11697996
9.308763 9.305158 0.494177 11697996
10.793698 11.196210 3.954091 11697996
9.190193 10.305115 1.518154 11697996
9.902941 9.521139 3.557474 11697996
8.798126 9.409766 2.214717 11697996
10.367816 9.693229 2.777349 11697996
9.750492 11.196133 3.805178 11697996
10.369725 10.581549 3.011248 11697996
10.547154 10.952368 3.949971 11697996
11.193946 9.072361 2.756112 11697996
9.845157 9.385574 2.470227 11697996
10.305172 10.740071 3.251523 11697996
9.504301 10.198120 3.514946 11697996
9.247475 9.961287 0.119431 11697996
10.247528 10.817577 1.680162 11697996
10.745922 10.288742 2.016291 11697996
10.924089 10.615816 1.060681 11697996
10.127227 8.854101 1.837388 11697996
10.033116 10.311332 1.235612 11697996
11.127843 9.636035 1.916165 11697996
10.456642 9.462549 3.594515 11697996
9.955466 10.111010 0.883104 11697996
10.864065 10.943386 1.234116 11697996
10.247320 9.795769 2.572510 11697996
9.722730 9.165404 3.353915 11697996
9.724567 10.933992 2.212129 11697996
9.475225 10.418628 0.864376 11697996
10.890013 10.642914 3.428743 11697996
9.220629 9.640003 2.328789 11697996
9.007183 10.754182 0.019659 11697996
9.418946 10.919572 1.922414 11697996
9.841572 8.831839 3.069319 11697996
8.831700 9.793095 2.008206 11697996
8.958805 10.641025 0.333339 11697996
8.797789 9.317241 1.218974 11697996
10.893894 9.367668 1.062373 11697996
10.896419 10.438743 3.059567 11697996
9.072439 10.890515 3.808023 11697996
10.930126 9.485810 2.982745 11697996
10.874473 8.776536 0.347402 11697996
9.012764 10.359953 1.009912 11697996
10.453688 8.839085 1.925630 11697996
9.353585 9.321456 0.067560 11697996
9.616633 9.948792 1.218396 11697996
10.734896 8.911023 1.125305 11697996
9.094707 10.558933 0.994227 11697996
10.571589 10.172717 0.429792 11697996
11.018483 9.297500 1.863420 11697996
9.108436 9.878758 1.970746 11697996
10.109128 11.098256 2.744485 11697996
8.878438 9.187314 0.618431 11697996
9.534985 10.830009 3.744506 11697996
9.252111 9.649627 2.210295 11697996
9.257365 10.464056 0.175872 11697996
10.712031 9.849526 2.508923 11697996
9.534561 8.846688 3.800580 11697996
10.933762 10.079846 1.487300 11697996
9.057821 10.369650 1.671376 11697996
9.321887 9.391969 2.052213 11697996
10.264192 8.827213 3.894707 11697996
10.060504 9.175433 3.302136 11697996
10.698268 10.070177 3.191681 11697996
11.232642 10.632276 3.799069 11697996
9.260091 9.286790 2.138337 11697996
9.520133 10.961550 3.255550 11697996
10.056044 9.301022 0.485002 11697996
9.506312 10.441362 2.390992 11697996
10.965281 8.894114 1.151569 11697996
9.660985 10.356573 1.546697 11697996
10.536716 10.439694 1.541681 11697996
9.859328 9.067368 2.547898 11697996
9.318942 10.519487 2.096187 11697996
9.229744 10.076562 0.677218 11697996
9.613605 10.450730 3.766356 11697996
10.298235 9.828265 3.604163 11697996
9.985022 9.306458 2.036816 11697996
10.595004 9.799961 0.448255 11697996
11.217610 10.555216 3.185476 11697996
10.711317 9.642295 3.268841 11697996
10.271730 10.379228 0.730064 11697996
9.611682 10.353519 2.663692 11697996
10.974636 11.111353 3.980794 11697996
11.101281 11.223590 2.027139 11697996
9.208061 9.004050 0.252222 11697996
9.779104 9.804446 3.568464 11697996
9.301717 11.109455 1.619776 11697996
8.904963 10.597492 0.429189 11697996
11.165735 11.017663 2.728330 11697996
8.844865 10.696444 1.596238 11697996
10.648487 9.451430 1.031877 11697996
10.835377 9.577921 3.149435 11697996
10.132985 10.219151 0.927229 11697996
9.102352 9.687795 2.383183 11697996
11.102885 9.114764 0.533734 11697996
9.376525 8.848490 2.200351 11697996
10.898326 10.866428 2.328520 11697996
10.414039 10.711869 3.762367 11697996
9.464575 10.932766 0.998815 11697996
9.279485 10.256859 3.525803 11697996
10.346405 9.481193 2.917152 11697996
10.605739 10.450474 3.630974 11697996
8.850106 11.137558 1.194149 11697996
9.543710 10.208852 1.094478 11697996
9.610942 10.011750 3.170902 11697996
10.699999 10.347149 3.212299 11697996
10.157168 9.539768 0.153685 11697996
9.060652 8.925736 0.052705 11697996
9.501623 10.251428 1.437299 11697996
10.633499 9.565188 3.547998 11697996
9.109625 11.140416 0.599638 11697996
9.551558 11.149940 0.473315 11697996
10.712101 8.847751 1.546068 11697996
10.410202 10.826405 2.137025 11697996
11.242050 10.925623 3.068811 11697996
11.137961 8.887172 2.586843 11697996
9.928782 10.762913 3.938168 11697996
9.438809 10.412372 3.972796 11697996
9.107182 9.177423 3.129918 11697996
9.132265 10.572782 3.408134 11697996
10.958242 11.080109 2.829460 11697996
9.570662 10.458257 2.049377 11697996
9.400872 9.965672 3.720008 11697996
10.944940 9.731518 3.795041 11697996
9.591099 9.077577 0.425349 11697996
9.101610 9.210996 0.564287 11697996
9.490650 9.107068 1.358057 11697996
9.727282 10.329392 3.243497 11697996
10.838820 9.323400 0.763079 11697996
9.052403 10.170529 1.957393 11697996
9.504690 10.561213 1.118097 11697996
10.115665 9.244724 2.754871 11697996
9.481372 10.217757 0.012557 11697996
9.403027 9.189203 0.246646 11697996
10.833739 9.858487 1.470610 11697996
9.825333 10.803423 0.165694 11697996
9.021945 9.704478 0.896336 11697996
10.184295 9.440660 2.051995 11697996
10.894677 9.257766 1.026954 11697996
8.863534 10.248163 1.846522 11697996
8.825366 11.000596 3.596734 11697996
10.581053 9.099372 2.367654 11697996
9.291372 10.949223 1.840502 11697996
10.577987 9.891872 0.532940 11697996
9.463058 9.141267 3.697582 11697996
10.336310 10.264236 0.030647 11697996
10.716073 9.000328 3.702087 11697996
9.103328 11.126125 3.973071 11697996
10.233350 9.290570 1.941688 11697996
8.787485 8.993063 3.666503 11697996
10.302221 9.239990 2.656673 11697996
9.773214 10.009899 3.949550 11697996
8.770551 9.833576 1.477334 11697996
9.253048 10.440622 2.131341 11697996
9.650046 10.684105 2.750326 11697996
9.286986 9.835227 2.146235 11697996
8.775767 10.285385 3.209306 11697996
9.296428 10.958570 0.094884 11697996
8.800916 9.469354 2.483419 11697996
10.858098 9.803488 1.531549 11697996
10.262530 9.770362 1.749478 11697996
10.441897 10.063107 2.379077 11697996
10.147331 9.183780 2.933310 11697996
10.109661 10.327787 3.524018 11697996
9.135726 10.111938 0.998993 11697996
9.369235 8.836995 2.595508 11697996
11.249562 11.128284 1.241903 11697996
9.082020 10.176117 2.636399 11697996
9.687933 9.701139 2.763304 11697996
9.376662 9.763018 1.681749 11697996
9.351688 10.886114 3.601473 11697996
10.681248 8.859943 2.787377 11697996
10.146114 9.333893 1.584666 11697996
10.934510 10.740523 3.827672 11697996
9.087884 9.450532 3.367597 11697996
10.074025 9.642563 0.887911 11697996
9.227575 10.975093 0.445908 11697996
9.026277 11.004933 1.977158 11697996
10.939374 10.831656 1.333830 11697996
9.881972 9.221568 3.215572 11697996
10.388043 9.822232 1.369625 11697996
10.281270 9.876601 3.899868 11697996
9.425535 9.095825 3.587935 11697996
9.777771 10.477950 3.215142 11697996
8.989215 9.819677 2.782173 11697996
10.321211 11.003827 0.424655 11697996
10.102477 10.985659 2.991631 11697996
8.977569 9.474154 0.268051 11697996
8.794859 10.150318 0.970396 11697996
9.702197 10.645679 0.567013 11697996
10.382606 10.152138 3.316740 11697996
9.136551 10.225531 3.687824 11697996
11.212838 10.297190 2.511671 11697996
10.919909 10.023855 2.827395 11697996
10.179420 9.979905 0.126076 11697996
10.556744 9.451879 1.635189 11697996
9.100859 9.117397 0.528158 11697996
8.890535 10.888710 0.515233 11697996
9.098606 10.222463 2.282878 11697996
9.790185 10.610267 2.013410 11697996
10.927971 9.426889 3.396994 11697996
8.988799 10.766377 2.018040 11697996
8.842363 10.157513 2.814809 11697996
9.732078 10.092153 0.642627 11697996
10.748089 10.690687 0.476038 11697996
9.374972 10.098754 3.228886 11697996
8.754292 8.967543 1.703041 11697996
9.634878 9.735222 1.412912 11697996
9.569740 11.126785 2.508594 11697996
11.054311 9.875343 2.830939 11697996
9.439778 9.409779 2.591528 11697996
9.352015 9.599060 1.665377 11697996
10.559211 11.201871 0.366723 11697996
9.237103 8.937182 3.404188 11697996
10.595125 9.774565 2.336156 11697996
9.991632 10.663276 1.590952 11697996
9.816983 11.146520 2.150254 11697996
10.604530 11.007828 2.305515 11697996
9.744845 11.100333 3.415850 11697996
10.127370 8.956014 0.080569 11697996
9.805471 10.477892 1.648908 11697996
8.865876 9.768417 2.764290 11697996
10.149385 9.926627 2.358821 11697996
10.940444 9.915895 1.861784 11697996
10.107790 10.690658 1.116712 11697996
9.260303 9.001542 3.220283 11697996
9.625748 9.646252 0.803263 11697996
9.798764 10.197647 0.981101 11697996
10.042694 9.887897 2.426834 11697996
11.205211 10.531155 3.300593 11697996
9.644056 9.968942 1.906613 11697996
10.704362 8.795994 0.225457 11697996
11.141263 9.349720 0.024921 11697996
11.153625 9.342029 0.851237 11697996
9.739005 10.301762 1.547376 11697996
10.379399 8.963247 0.675846 11697996
11.114164 8.874843 2.774858 11697996
11.210482 9.426016 3.265702 11697996
11.102786 9.174459 2.090090 11697996
11.206389 10.750312 3.916313 11697996
10.547174 9.727298 2.577815 11697996
10.091901 10.159144 0.358184 11697996
10.782964 10.462996 1.382563 11697996
9.523233 8.801328 1.537999 11697996
9.296048 9.950148 3.440900 11697996
10.692913 10.525406 2.079007 11697996
10.868871 8.816360 2.303629 11697996
9.058171 8.850880 3.411628 11697996
10.227943 10.752419 0.409320 11697996
11.100035 10.921400 3.474806 11697996
10.646034 10.455621 3.034789 11697996
9.335669 10.022120 3.412584 11697996
10.430202 11.090156 0.770994 11697996
10.051533 9.358912 0.873415 11697996
10.559809 10.413902 1.680689 11697996
10.025867 10.158336 3.400636 11697996
9.608170 10.053032 2.751667 11697996
10.540232 9.138113 1.162837 11697996
9.960416 9.578353 1.778573 11697996
10.785580 10.246712 1.761018 11697996
10.685282 11.022902 0.914274 11697996
11.074297 9.859208 2.090245 11697996
10.474272 10.162932 1.547821 11697996
11.087236 9.291155 3.923526 11697996
9.194504 9.698777 2.576520 11697996
10.542684 10.312437 2.313221 11697996
9.566418 10.822310 1.716184 11697996
10.503487 9.512860 3.944228 11697996
10.291036 10.336963 1.576729 11697996
9.280933 9.765346 0.307238 11697996
9.032634 10.665319 2.493620 11697996
11.046403 10.994872 2.942653 11697996
9.305310 9.547680 0.101617 11697996
9.391150 10.529426 2.591266 11697996
9.235625 10.072436 0.006738 11697996
10.383336 9.594265 0.287356 11697996
9.896559 11.025537 1.124992 11697996
10.073532 9.878031 0.954325 11697996
9.991535 9.887799 1.795662 11697996
8.932683 9.028750 0.490284 11697996
10.178281 10.341667 3.620121 11697996
10.801518 10.489615 1.535903 11697996
9.277342 10.515024 3.031257 11697996
8.961363 9.306464 3.929714 11697996
9.283110 9.374576 3.743208 11697996
10.494953 10.323607 0.149832 11697996
11.174341 11.063801 2.777385 11697996
10.169939 10.427551 4.007025 11697996
9.043573 11.043812 2.435263 11697996
9.979836 10.584961 1.079054 11697996
10.711535 10.412635 0.932481 11697996
10.341068 9.903748 1.936932 11697996
9.229786 9.874359 3.118728 11697996
10.871879 9.966246 1.273590 11697996
11.247356 8.830363 0.134017 11697996
9.280604 9.543740 1.874875 11697996
9.465579 10.236268 3.932291 11697996
10.625299 10.934904 2.740543 11697996
9.766850 9.428976 2.271879 11697996
11.170791 10.723372 1.640069 11697996
9.092001 10.787149 0.272024 11697996
9.654989 9.698233 0.160527 11697996
9.731400 8.999844 2.247576 11697996
9.842405 11.059008 3.565089 11697996
10.630819 9.114335 3.459871 11697996
9.465219 10.161722 1.880109 11697996
9.663820 9.849798 3.431372 11697996
10.199298 9.610227 3.201189 11697996
10.867597 8.776861 0.612922 11697996
10.157822 9.782331 1.615140 11697996
9.438977 8.976973 3.410770 11697996
10.090848 10.827269 2.282974 11697996
10.123889 9.880554 3.412173 11697996
9.800478 9.058120 3.044122 11697996
11.177651 9.562294 1.215445 11697996
9.231017 9.634130 2.734800 11697996
9.096149 10.053720 1.819612 11697996
11.030872 10.273178 3.397011 11697996
9.060739 9.588114 0.198969 11697996
10.627599 9.784510 1.389774 11697996
11.038701 10.145226 0.091993 11697996
10.453618 10.150287 2.277942 11697996
10.409039 10.582117 2.588613 11697996
10.949476 9.828866 3.780144 11697996
9.413604 10.777121 3.114851 11697996
8.803425 9.777567 3.761361 11697996
10.428255 9.071765 0.448498 11697996
8.881595 9.567933 0.108718 11697996
10.953721 9.901304 1.913193 11697996
10.426144 10.342432 1.416783 11697996
9.021828 9.177666 1.548436 11697996
11.039970 8.972993 1.372770 11697996
9.246216 10.485070 1.169451 11697996
9.549953 11.027691 0.765542 11697996
10.641651 10.982657 2.861712 11697996
11.169054 10.765162 0.165535 11697996
9.133953 8.889712 0.245414 11697996
9.902724 9.995593 3.841844 11697996
10.439968 9.537932 2.688675 11697996
11.039664 10.863081 2.934441 11697996
10.014622 10.760528 0.099321 11697996
10.288169 9.043217 0.298178 11697996
10.416689 10.927340 0.983555 11697996
8.735817 9.430162 0.787621 11697996
9.333035 11.071685 1.222075 11697996
10.725515 8.998415 1.531379 11697996
9.976606 10.625268 0.424194 11697996
10.725812 9.855499 1.749797 11697996
10.263217 10.079645 3.882254 11697996
10.604388 9.420452 3.058062 11697996
10.143620 11.145920 0.286848 11697996
9.026837 9.874781 1.720080 11697996
9.563845 10.124354 3.799326 11697996
9.708328 10.737678 1.270185 11697996
11.026953 11.004708 0.413924 11697996
10.264162 9.185781 2.153881 11697996
8.780001 9.118795 1.866487 11697996
8.770308 9.221431 1.229996 11697996
8.867189 9.540607 2.062151 11697996
9.364951 10.847597 1.815875 11697996
9.044582 10.294783 2.075871 11697996
9.006709 10.667571 1.994589 11697996
9.163281 10.544249 0.312748 11697996
10.111772 11.171572 2.674543 11697996
9.304799 10.168999 3.508266 11697996
11.097114 10.528012 2.647793 11697996
10.713665 9.785389 0.654305 11697996
9.630839 8.977292 2.037933 11697996
10.331494 10.311803 3.019637 11697996
10.217678 9.195622 1.904820 11697996
11.234001 9.844772 1.960121 11697996
11.067651 9.280025 2.204523 11697996
9.958864 11.056069 1.768054 11697996
11.198924 9.541205 1.514527 11697996
9.975655 9.131683 1.400097 11697996
10.662839 10.560634 3.131613 11697996
11.084313 11.185656 3.772517 11697996
9.907354 9.185624 3.635111 11697996
11.172309 11.167547 0.586193 11697996
9.187890 9.235500 3.888710 11697996
10.809483 10.269581 2.571485 11697996
10.137040 10.190865 0.369684 11697996
9.827791 10.246022 0.597302 11697996
10.335272 8.750559 0.313336 11697996
10.455944 9.622996 2.692941 11697996
9.464459 9.161855 2.350101 11697996
8.748455 10.482543 3.899913 11697996
10.870034 10.088206 2.888884 11697996
10.576740 11.036148 3.476247 11697996
9.090742 9.720648 3.657302 11697996
8.822970 9.463625 0.879430 11697996
9.312000 10.833695 2.073721 11697996
10.196255 9.540483 2.931826 11697996
9.668751 9.809730 0.675923 11697996
11.063599 9.814357 2.104928 11697996
10.085294 10.312439 2.303998 11697996
10.767385 11.124897 1.902790 11697996
10.205227 9.673244 3.244456 11697996
8.823365 9.188521 0.245594 11697996
10.744707 9.764833 3.130038 11697996
11.203704 8.805181 1.020952 11697996
9.758011 10.476755 2.682262 11697996
10.902732 10.558201 1.844952 11697996
9.802536 10.822323 3.954287 11697996
10.672689 10.404691 0.123380 11697996
11.048844 8.984872 1.013493 11697996
10.174999 9.187470 0.986691 11697996
10.209916 11.125036 2.385038 11697996
9.511531 11.022930 0.771850 11697996
9.588544 10.598028 0.756919 11697996
9.035675 8.966054 1.488759 11697996
10.756565 9.771905 2.750766 11697996
10.464190 9.992217 2.176541 11697996
10.591537 8.837832 2.535955 11697996
9.031753 11.188966 1.092668 11697996
9.617076 10.165446 3.558698 11697996
9.662934 10.934405 2.883595 11697996
10.576436 9.137266 0.988761 11697996
8.833974 9.163383 1.161478 11697996
11.094953 10.681572 1.714032 11697996
8.927602 9.644175 3.317954 11697996
10.670622 9.121113 2.210359 11697996
10.681298 9.847361 3.827667 11697996
8.868555 9.424906 1.905236 11697996
9.977647 9.294939 1.375927 11697996
10.619546 9.913809 0.742447 11697996
9.511903 10.791938 3.135569 11697996
9.224627 9.562858 3.038203 11697996
10.206974 9.460876 2.915727 11697996
11.206501 9.884325 0.505712 11697996
10.851963 9.475492 0.496131 11697996
10.023333 11.140175 0.784741 11697996
9.609898 9.336171 0.555402 11697996
9.481627 9.591013 3.604031 11697996
9.759673 9.366549 3.477581 11697996
9.872082 9.976858 3.109330 11697996
9.204608 9.765700 2.385512 11697996
9.601485 9.335398 1.823056 11697996
8.786964 10.006219 0.784431 11697996
10.822927 10.551013 0.074211 11697996
8.890121 10.699120 0.353795 11697996
11.094923 11.190564 3.644906 11697996
10.432355 9.279963 1.184057 11697996
10.362975 8.878864 3.443690 11697996
11.161607 11.262036 3.808619 11697996
11.002439 9.799585 1.140845 11697996
11.039369 9.356803 2.864191 11697996
10.024315 10.897820 3.817349 11697996
9.969391 9.954770 2.956912 11697996
10.673696 11.039370 1.453362 11697996
9.903107 10.918005 0.938628 11697996
9.822764 9.650607 2.267579 11697996
10.747319 9.326455 3.247135 11697996
9.495470 9.676741 0.264539 11697996
10.543209 9.105316 2.416568 11697996
8.837168 9.346422 1.312732 11697996
10.567989 9.535531 3.666088 11697996
11.087318 9.093340 1.252989 11697996
10.303067 8.788406 1.655880 11697996
10.898302 10.733111 2.717273 11697996
9.583036 9.002814 1.286030 11697996
8.821872 9.703697 0.397777 11697996
8.840509 9.058625 3.145877 11697996
10.547200 10.697979 2.107738 11697996
10.440277 9.859236 1.373912 11697996
10.388939 8.986633 3.762809 11697996
10.346271 10.721623 2.334816 11697996
11.043327 8.823180 0.149995 11697996
9.025417 9.493396 2.752854 11697996
10.493535 9.737332 2.945791 11697996
10.788608 10.248501 3.105309 11697996
10.395656 8.976780 1.410657 11697996
10.099958 9.688391 2.038311 11697996
9.531643 11.084802 1.903034 11697996
9.752271 9.487921 1.402374 11697996
9.298491 10.511242 3.817606 11697996
10.899344 9.652534 0.721460 11697996
9.802524 10.583153 2.629363 11697996
8.843823 9.846716 1.605316 11697996
10.261077 10.300056 3.745311 11697996
8.750694 9.737920 1.679356 11697996
9.431293 10.164246 1.810645 11697996
9.450753 9.567401 0.066704 11697996
9.888661 10.167578 1.862937 11697996
9.468226 8.749965 2.176360 11697996
9.445043 10.118620 0.427247 11697996
9.309327 8.770160 3.964713 11697996
8.929183 10.386712 2.398133 11697996
9.616364 10.044306 1.698123 11697996
9.285227 9.894226 0.883832 11697996
10.746172 10.819510 1.385271 11697996
11.219646 9.879556 3.181893 11697996
10.516236 10.227303 1.245318 11697996
8.976785 10.587652 3.708295 11697996
10.552885 10.229874 2.761029 11697996
9.690746 9.291593 3.555569 11697996
10.960818 11.138302 0.918898 11697996
10.377378 10.671660 2.590426 11697996
10.190744 10.655285 1.193324 11697996
10.483914 9.472786 2.184061 11697996
9.918759 9.350429 0.047851 11697996
9.592931 10.709772 0.598783 11697996
10.390597 9.273907 0.277626 11697996
9.015433 10.750470 0.508738 11697996
10.395029 10.904026 1.984412 11697996
10.055863 9.076422 2.682641 11697996
10.162256 9.229752 3.810858 11697996
10.843688 9.848058 2.860552 11697996
10.327605 11.128567 1.112356 11697996
10.950929 9.113293 0.497908 11697996
11.159717 10.043601 1.411586 11697996
9.369919 10.193819 3.557308 11697996
9.056108 8.824787 1.264973 11697996
10.361098 10.558641 1.358892 11697996
8.933087 8.934855 3.255638 11697996
10.275303 9.154381 3.897777 11697996
9.147171 10.314835 2.643204 11697996
9.229004 9.821528 0.677105 11697996
9.853099 11.071813 3.312780 11697996
8.981070 10.299983 3.232939 11697996
8.816153 11.266020 2.904425 11697996
9.369372 10.299143 3.556807 11697996
11.165824 11.184340 0.517534 11697996
8.929082 9.271540 0.644559 11697996
10.266839 8.983459 3.673481 11697996
10.466490 11.077081 0.604701 11697996
8.749372 9.850210 3.638904 11697996
10.130957 10.366974 3.553313 11697996
9.600949 10.205601 1.102812 11697996
9.693245 8.787365 3.113398 11697996
10.021497 9.481447 3.119026 11697996
10.561911 9.827176 2.835796 11697996
9.354932 8.974325 1.111264 11697996
10.778382 11.058443 1.583441 11697996
9.922166 9.344022 3.094640 11697996
10.350357 9.427939 1.309489 11697996
10.395396 10.936174 3.316068 11697996
8.844913 9.646630 1.881289 11697996
9.248322 10.821210 3.031221 11697996
9.397118 10.807595 1.291855 11697996
9.338862 9.896608 2.351670 11697996
11.069287 9.006988 0.165409 11697996
10.101854 8.978622 1.845365 11697996
10.673311 9.918786 1.068943 11697996
10.358787 10.183821 0.614978 11697996
10.968058 9.686893 3.089035 11697996
8.855199 10.638979 1.576516 11697996
10.221541 9.651809 3.030165 11697996
9.036272 10.493946 3.417606 11697996
10.223979 10.474051 0.017852 11697996
9.072957 10.390611 2.138241 11697996
9.841925 10.463670 1.634473 11697996
10.052695 9.876525 1.478737 11697996
10.851175 9.932034 1.282665 11697996
9.474807 8.969044 1.829969 11697996
10.589392 9.211141 2.204767 11697996
11.197282 10.349264 3.128685 11697996
11.196939 9.379948 3.476561 11697996
9.935248 9.078842 1.571030 11697996
10.942618 9.791682 1.205989 11697996
11.246921 10.077907 0.410637 11697996
9.862620 8.764163 2.289096 11697996
10.053842 9.501095 2.347712 11697996
9.982440 10.753428 1.705561 11697996
9.909184 9.984520 2.852359 11697996
9.957469 10.717065 3.786847 11697996
10.751107 9.320915 2.461119 11697996
9.458960 8.933040 0.269985 11697996
9.346687 8.874553 0.507683 11697996
9.084392 10.592454 3.236733 11697996
8.947380 9.544705 3.329532 11697996
10.133007 10.972601 0.120162 11697996
8.773170 10.521155 3.773213 11697996
10.296266 8.859482 3.559273 11697996
9.300491 10.580688 1.809825 11697996
9.434006 10.892308 1.875251 11697996
8.944647 9.916452 0.199755 11697996
10.436566 9.476862 2.755444 11697996
10.505600 9.630630 3.272786 11697996
10.268723 9.751546 0.808456 11697996
9.252580 10.123905 0.239696 11697996
8.834883 10.318172 0.918086 11697996
10.463625 11.213580 3.543766 11697996
9.021932 8.949655 2.870593 11697996
9.525881 10.386898 3.727937 11697996
8.778227 10.031197 2.450171 11697996
10.782596 10.589339 3.400241 11697996
11.004733 11.219409 3.640208 11697996
10.476992 8.803557 0.958074 11697996
8.951402 10.290756 0.064472 11697996
9.076622 9.405193 0.727351 11697996
9.246575 8.943767 0.328664 11697996
9.569452 9.149565 0.233490 11697996
10.882182 10.316422 1.701343 11697996
9.842753 10.239315 3.606830 11697996
9.136960 9.797799 1.806261 11697996
9.924528 9.438113 1.243280 11697996
9.357679 9.155973 1.507672 11697996
10.181070 10.472651 3.083937 11697996
10.111259 9.909608 0.772159 11697996
11.051264 9.105781 1.678791 11697996
8.770921 10.506409 0.267725 11697996
10.400519 11.127313 2.032196 11697996
9.861713 9.547527 1.741278 11697996
11.242237 10.175467 0.782824 11697996
9.815537 9.168518 1.815964 11697996
9.779070 9.668984 2.883558 11697996
10.707160 9.454736 2.995945 11697996
10.577292 8.762507 2.881068 11697996
10.592755 10.574538 2.343150 11697996
9.358580 9.839965 3.207415 11697996
10.388145 10.689860 2.627262 11697996
10.360472 10.574959 2.554814 11697996
8.739227 8.879797 0.480345 11697996
10.184286 8.989888 2.641064 11697996
9.934729 10.288168 2.018799 11697996
9.837299 11.187152 2.465220 11697996
8.736986 9.462729 0.015525 11697996
10.605075 9.443336 0.341146 11697996
-9.786755 -10.476736 0.683688 6730418
-10.260422 -10.960804 1.093881 6730418
-10.585100 -9.873526 2.171127 6730418
-10.428277 -9.386362 0.316149 6730418
-9.659755 -9.584931 1.835651 6730418
-9.937733 -9.348998 2.483046 6730418
-10.007100 -10.286752 2.923312 6730418
-9.651258 -9.360475 0.164315 6730418
-9.542451 -9.690662 2.379007 6730418
-9.443859 -10.318361 0.304180 6730418
-10.778445 -9.722281 1.210978 6730418
-9.419602 -10.361848 1.982298 6730418
-9.613535 -10.860804 2.901546 6730418
-10.236326 -10.162273 1.438489 6730418
-9.476227 -10.150496 0.813876 6730418
-9.310140 -10.560088 1.755358 6730418
-10.497251 -9.778518 0.192994 6730418
-9.321568 -10.724769 1.795625 6730418
-9.592788 -10.752905 1.312681 6730418
-9.894111 -10.482335 1.593379 6730418
-9.388987 -10.532757 1.789393 6730418
-9.782155 -9.239511 1.233655 6730418
-9.815393 -9.001817 2.134693 6730418
-9.767570 -10.787135 0.117711 6730418
-10.326237 -10.040257 0.308895 6730418
-10.105338 -9.708817 0.840365 6730418
-10.270200 -10.497606 0.471875 6730418
-9.932291 -9.573648 0.917383 6730418
-10.382201 -10.457739 0.989646 6730418
-9.601661 -10.402183 2.086096 6730418
-10.229216 -10.618294 2.037593 6730418
-9.449841 -9.306664 2.821044 6730418
-9.963184 -10.919853 1.231157 6730418
-10.802524 -9.442060 1.739609 6730418
-9.617743 -9.400624 2.121464 6730418
-10.451637 -9.830712 0.335516 6730418
-9.864541 -9.787901 1.193001 6730418
-9.563243 -10.563760 1.031198 6730418
-9.771400 -10.720958 1.905234 6730418
-9.363619 -9.489102 1.107090 6730418
-9.130484 -10.314000 0.453205 6730418
-9.913814 -10.761903 0.262511 6730418
-10.015944 -9.152051 2.590797 6730418
-9.551244 -10.184960 2.765047 6730418
-9.868704 -9.445203 2.479223 6730418
-10.322523 -9.763952 1.849084 6730418
-9.821994 -10.380066 0.877445 6730418
-9.407596 -9.420583 1.192869 6730418
-10.562241 -10.477230 1.842561 6730418
-9.478971 -9.439354 2.336386 6730418
-10.795394 -10.309893 2.744014 6730418
-9.294731 -9.878981 2.689645 6730418
-10.616548 -10.015026 1.983069 6730418
-9.885455 -10.113118 1.158020 6730418
-10.401103 -10.527917 2.581557 6730418
-9.892667 -10.446290 0.715499 6730418
-9.850373 -9.809948 1.406838 6730418
-9.501744 -10.246487 2.583701 6730418
-9.768782 -9.295737 1.822993 6730418
-9.761740 -10.522728 2.897009 6730418
-10.279853 -10.213393 1.245218 6730418
-9.143058 -9.758059 1.239856 6730418
-9.364266 -9.991097 2.109122 6730418
-10.250154 -9.058117 2.097554 6730418
-9.308464 -9.725648 2.714772 6730418
-10.188806 -9.343528 1.059814 6730418
-9.656297 -9.617500 1.190191 6730418
-10.077949 -9.085335 1.188469 6730418
-9.802167 -9.912132 0.885766 6730418
-10.573039 -10.620528 0.627833 6730418
-9.201984 -10.562465 0.757650 6730418
-10.046288 -10.898998 1.819521 6730418
-9.996966 -9.576460 2.865519 6730418
-9.664637 -10.124994 0.361081 6730418
-9.969645 -10.063013 1.491712 6730418
-9.518261 -9.364383 1.902051 6730418
-9.122077 -9.546411 1.143939 6730418
-10.035550 -9.119041 0.080850 6730418
-9.603021 -9.900362 0.746580 6730418
-9.810697 -9.870172 2.330906 6730418
-9.367937 -10.731579 1.956719 6730418
-10.477841 -9.437465 1.173839 6730418
-10.359904 -9.641316 2.661562 6730418
-9.168713 -9.925786 2.783199 6730418
-9.389986 -10.363866 0.126252 6730418
-10.241001 -9.453769 1.599477 6730418
-10.758744 -9.850497 1.449477 6730418
-10.140216 -9.806556 2.221788 6730418
-10.503513 -9.397927 1.215326 6730418
-9.990317 -9.362924 0.629087 6730418
-10.830770 -10.187063 2.680229 6730418
-9.938720 -9.722261 2.327268 6730418
-10.829023 -9.876149 1.518588 6730418
-10.699986 -9.751433 0.813936 6730418
-9.664566 -10.536661 2.723842 6730418
-10.674917 -10.624631 1.391837 6730418
-10.073742 -10.339388 1.584386 6730418
-9.748485 -10.948997 0.358186 6730418
-10.026788 -10.347753 1.130376 6730418
-9.431877 -10.261451 1.112552 6730418
-9.623720 -10.226836 2.182874 6730418
-9.073719 -9.843279 0.359871 6730418
-10.622836 -10.144426 0.460036 6730418
-9.490279 -10.495065 1.561707 6730418
-9.808031 -10.344743 1.969567 6730418
-9.978584 -10.227710 2.834790 6730418
-10.019467 -10.248403 2.420987 6730418
-9.476838 -9.602053 0.735836 6730418
-9.497521 -9.904159 2.652195 6730418
-9.718242 -10.490167 2.104757 6730418
-9.454816 -10.218998 0.540505 6730418
-9.059468 -10.282896 1.060004 6730418
-9.753892 -9.093140 0.969949 6730418
-9.235848 -10.441405 2.438473 6730418
-9.695713 -9.771928 2.771991 6730418
-9.130947 -10.289435 0.096853 6730418
-9.614743 -10.396757 1.001555 6730418
-10.416117 -10.513711 2.292961 6730418
-9.649383 -9.113393 1.878595 6730418
-9.297663 -10.128718 1.537713 6730418
-9.108945 -9.601996 1.735549 6730418
-9.334446 -9.517612 2.233500 6730418
-10.340497 -10.672416 0.622197 6730418
-9.253370 -10.407476 1.008176 6730418
-9.251736 -9.453999 0.335174 6730418
-9.288500 -10.032832 1.370601 6730418
-9.173358 -10.221119 1.850283 6730418
-10.379867 -9.288550 0.734630 6730418
-10.928864 -10.105311 2.214591 6730418
-9.914419 -9.404933 2.682336 6730418
-10.839380 -9.554847 1.598720 6730418
-9.252138 -10.218561 2.041670 6730418
-9.495207 -10.830427 2.813723 6730418
-9.422122 -10.449927 2.776828 6730418
-10.475090 -10.363017 2.160242 6730418
-9.987403 -10.537216 1.553079 6730418
-9.549144 -9.198845 2.664359 6730418
-9.981449 -10.498881 2.572309 6730418
-10.904637 -10.304146 1.749614 6730418
-10.270586 -9.500648 1.490463 6730418
-9.608553 -10.623133 2.432351 6730418
-9.392441 -9.956347 1.819079 6730418
-9.895548 -10.257698 0.078228 6730418
-10.606919 -10.385043 0.250055 6730418
-9.221714 -10.002411 0.033834 6730418
-10.782394 -10.284708 0.312552 6730418
-9.482198 -9.695873 1.835847 6730418
-10.517485 -9.824546 0.888654 6730418
-9.477728 -10.028037 1.485624 6730418
-9.890418 -10.332705 0.930179 6730418
-9.797181 -10.941499 0.071912 6730418
-10.001842 -9.566792 2.231716 6730418
-9.740828 -10.091127 2.024422 6730418
-9.157234 -10.442103 2.732785 6730418
-10.175565 -9.939290 2.005930 6730418
-10.389655 -9.961554 2.512569 6730418
-9.687765 -10.156301 2.521091 6730418
-10.137962 -9.957051 2.518114 6730418
-9.255898 -10.409852 1.104809 6730418
-10.374321 -10.714963 2.792105 6730418
-10.036739 -9.619612 2.835738 6730418
-9.283975 -10.629971 0.788549 6730418
-10.236614 -9.469243 1.190816 6730418
-9.999718 -9.239292 1.027384 6730418
-10.322085 -9.225160 2.706394 6730418
-9.391398 -10.552963 0.713044 6730418
-10.787124 -10.021960 0.939397 6730418
-9.934255 -10.620503 0.059950 6730418
-9.311472 -9.956397 1.843676 6730418
-9.382649 -9.231000 1.601315 6730418
-10.867214 -9.566442 0.625081 6730418
-9.496968 -9.906933 1.155383 6730418
-10.149233 -9.980403 1.346092 6730418
-10.102677 -9.872054 1.549461 6730418
-10.232158 -10.111611 2.142574 6730418
-9.617145 -9.448815 1.122662 6730418
-10.405137 -9.727545 0.870398 6730418
-10.320677 -9.394229 1.708585 6730418
-10.436194 -10.534752 2.910920 6730418
-10.225011 -10.939375 2.896508 6730418
-9.946922 -10.857261 2.325349 6730418
-9.904051 -9.532111 1.223702 6730418
-9.887312 -9.876111 2.549972 6730418
-9.531051 -9.349744 1.159222 6730418
-10.534697 -10.274357 1.011675 6730418
-9.814467 -9.920670 1.121306 6730418
-9.855972 -10.339906 2.098170 6730418
-9.646703 -9.586926 2.301411 6730418
-9.637262 -10.622320 2.304136 6730418
-9.834572 -9.192310 2.039212 6730418
-10.452747 -10.367016 0.600541 6730418
-10.028894 -10.939898 1.995767 6730418
-9.271558 -10.102076 0.090523 6730418
-10.418490 -9.463804 2.947131 6730418
-9.185160 -9.458113 2.255271 6730418
-10.134568 -9.207317 0.151663 6730418
-9.843106 -9.173161 2.225964 6730418
-9.084572 -9.853305 1.462616 6730418
-10.200482 -10.482845 0.423903 6730418
-9.697326 -9.113664 1.439847 6730418
-9.161418 -9.708952 1.667690 6730418
-9.225574 -9.561583 0.834870 6730418
-9.466066 -10.137661 0.637695 6730418
-9.433225 -10.409313 2.604944 6730418
-10.789851 -10.028864 0.474237 6730418
-10.705976 -9.858720 1.885610 6730418
-9.067863 -9.705779 0.641897 6730418
-9.775975 -9.696799 1.548595 6730418
-10.353546 -10.483709 1.526345 6730418
-9.229958 -9.463627 1.095514 6730418
-10.229217 -9.201863 2.281762 6730418
-10.810365 -9.613097 0.957621 6730418
-9.235089 -9.663024 0.441343 6730418
-9.677324 -9.782536 2.997567 6730418
-10.791005 -10.216224 2.385895 6730418
-9.261847 -9.836932 0.083626 6730418
-10.053464 -9.180532 2.132236 6730418
-9.723027 -10.263796 2.749023 6730418
-10.235369 -10.809607 1.880588 6730418
-9.499461 -10.108929 1.048500 6730418
-10.199610 -10.281301 1.183035 6730418
-10.163536 -9.777179 2.534425 6730418
-10.884289 -9.950031 1.797540 6730418
-9.263391 -9.570803 1.946067 6730418
-9.280956 -9.521309 2.008841 6730418
-9.887606 -10.219547 2.654227 6730418
-10.778955 -10.518414 2.475696 6730418
-9.326369 -10.418799 1.731621 6730418
-10.441113 -9.696237 1.228848 6730418
-10.185492 -10.161317 2.909480 6730418
-9.591370 -9.314344 1.767549 6730418
-9.443634 -10.816304 1.421236 6730418
-9.802885 -10.377942 0.660446 6730418
-9.591071 -10.308486 1.350289 6730418
-9.326680 -10.145253 1.205011 6730418
-9.339246 -9.296690 0.279141 6730418
-10.208769 -10.647314 0.931525 6730418
-10.508245 -10.481958 1.475222 6730418
-10.419411 -10.497503 2.478009 6730418
-10.605140 -9.939705 0.927902 6730418
-9.604860 -10.912279 1.956432 6730418
-9.236458 -10.469428 1.888327 6730418
-10.422956 -9.754926 2.685237 6730418
-10.348332 -10.208144 0.468798 6730418
-9.794944 -10.658213 2.636865 6730418
-10.902792 -10.049403 2.558966 6730418
-9.499565 -9.169486 0.834312 6730418
-10.027618 -10.328470 0.650505 6730418
-10.295968 -9.882226 0.342197 6730418
-9.945386 -9.857907 0.710500 6730418
-9.388785 -10.585122 0.708834 6730418
-10.708244 -10.146738 2.564109 6730418
-9.455115 -9.205905 2.966347 6730418
-9.956594 -9.441674 2.243891 6730418
-10.815983 -9.497883 2.559174 6730418
-9.990207 -10.447580 2.583449 6730418
-10.518303 -10.483229 2.386002 6730418
-9.529709 -9.875949 2.266341 6730418
-10.783122 -10.448081 0.649441 6730418
-10.567701 -9.234971 0.309020 6730418
-9.715679 -9.220329 1.768757 6730418
-9.258092 -9.971201 1.002801 6730418
-10.126163 -10.383342 2.334414 6730418
-10.805804 -10.152988 1.676862 6730418
-9.960052 -9.442206 1.376395 6730418
-9.238832 -10.169957 1.254083 6730418
-9.765478 -10.540838 0.323923 6730418
-10.128667 -10.262676 1.553872 6730418
-10.823538 -10.039001 1.534368 6730418
-10.012724 -10.636833 0.152351 6730418
-10.724520 -9.775196 2.606644 6730418
-9.132182 -10.108845 2.686206 6730418
-9.795861 -10.327627 2.660755 6730418
-10.919972 -10.179455 2.590943 6730418
-10.539765 -9.199976 0.930129 6730418
-10.005712 -9.492578 2.433496 6730418
-9.447870 -10.440821 0.853324 6730418
-10.577849 -9.176469 2.246392 6730418
-10.077152 -10.202835 1.145574 6730418
-9.468461 -9.153996 2.053676 6730418
-9.352898 -9.638204 2.128665 6730418
-9.976462 -9.888635 2.368144 6730418
-10.293084 -9.295392 0.018196 6730418
-10.101052 -9.486427 1.587108 6730418
-10.736088 -10.590662 1.040147 6730418
-10.651774 -9.869793 1.916729 6730418
-9.090714 -9.943171 1.909661 6730418
-9.414860 -9.798621 1.235998 6730418
-9.809680 -9.179295 1.337056 6730418
-9.854723 -9.184090 0.046097 6730418
-9.060527 -9.969363 0.060574 6730418
-9.370654 -10.721436 0.541986 6730418
-10.637094 -9.845377 0.459831 6730418
-10.483599 -10.178954 2.543726 6730418
-9.686196 -10.287720 1.073500 6730418
-9.484331 -9.468166 0.624067 6730418
-9.471796 -10.808726 1.616187 6730418
-9.974617 -9.517536 0.217989 6730418
-10.703409 -10.013720 1.242143 6730418
-9.802700 -10.662869 0.649070 6730418
-9.204604 -9.559494 0.796820 6730418
-9.617730 -9.440912 2.160067 6730418
-9.830873 -10.939102 0.182604 6730418
-10.147571 -9.264424 2.394129 6730418
-10.386045 -9.491216 1.020768 6730418
-10.711804 -10.307587 1.928494 6730418
-10.897693 -10.402022 2.241079 6730418
-10.324168 -10.584229 1.106888 6730418
-10.087329 -10.675498 1.012596 6730418
-9.698865 -9.777566 1.464946 6730418
-10.570893 -10.324100 1.219889 6730418
-10.566652 -10.774001 2.140586 6730418
-10.919506 -10.195030 2.564294 6730418
-10.764514 -10.495161 2.216771 6730418
-10.061434 -9.354127 1.186134 6730418
-9.501126 -10.311888 0.549480 6730418
-10.164273 -10.690472 0.705494 6730418
-9.356188 -10.697874 0.081621 6730418
-9.497401 -9.454810 1.579069 6730418
-10.519037 -9.350021 1.574132 6730418
-10.539803 -10.519039 2.065157 6730418
-10.149026 -9.659053 2.020278 6730418
-10.786872 -9.603101 0.637735 6730418
-10.547041 -9.974013 2.843225 6730418
-10.857225 -9.911787 2.962281 6730418
-9.726567 -9.759581 1.117920 6730418
-10.925693 -9.681185 0.180735 6730418
-9.878237 -9.784251 2.576087 6730418
-9.489940 -9.243233 2.622630 6730418
-9.244574 -9.355820 0.270699 6730418
-9.908686 -9.722031 2.398788 6730418
-10.374480 -9.672224 0.363031 6730418
-10.805972 -9.976959 0.594658 6730418
-9.979626 -9.156891 1.637997 6730418
-9.745441 -9.061957 2.239439 6730418
-10.497393 -9.245448 1.233646 6730418
-10.076720 -10.057670 1.966032 6730418
-9.544868 -10.089193 0.132296 6730418
-9.387918 -9.201880 2.642171 6730418
-10.382943 -10.099943 0.988541 6730418
-10.235134 -10.212160 1.134963 6730418
-10.661974 -10.246867 0.592730 6730418
-10.468762 -10.175341 2.217453 6730418
-9.907811 -9.469240 2.262274 6730418
-9.279316 -9.372366 0.681986 6730418
-9.986283 -10.122224 1.438402 6730418
-10.412841 -9.632023 1.768625 6730418
-10.479707 -10.145691 2.455126 6730418
-9.738678 -10.371367 2.331336 6730418
-9.585547 -9.508405 2.984505 6730418
-10.680843 -9.995973 2.767427 6730418
-9.498987 -10.306208 2.318466 6730418
-9.980583 -10.053167 2.599535 6730418
-10.320135 -10.599365 1.190321 6730418
-10.069298 -9.936137 1.289164 6730418
-10.299342 -9.172052 1.315547 6730418
-9.580089 -10.191881 0.631554 6730418
-9.875493 -10.614451 0.160289 6730418
-9.768692 -10.232598 0.829716 6730418
-10.676157 -10.636242 2.919356 6730418
-9.624432 -9.390224 0.736074 6730418
-10.951761 -10.292112 1.370017 6730418
-10.331065 -9.917840 2.220428 6730418
-9.713353 -9.529551 0.895852 6730418
-9.808022 -9.179585 2.390157 6730418
-9.619227 -9.671268 1.375710 6730418
-9.245564 -9.677334 2.503746 6730418
-10.110992 -9.407804 2.626558 6730418
-10.538637 -9.733133 2.814647 6730418
-9.628407 -10.395836 2.184511 6730418
-9.477544 -10.734548 1.908679 6730418
-10.329212 -9.040300 1.823582 6730418
-10.297770 -10.349781 1.702764 6730418
-9.495931 -9.309966 1.232153 6730418
-9.905049 -10.238470 2.186116 6730418
-10.144460 -9.746704 1.869992 6730418
-10.876124 -10.270878 0.859225 6730418
-10.674601 -9.741527 0.653433 6730418
-9.338571 -9.338046 1.754213 6730418
-9.060329 -9.979600 0.074782 6730418
-10.707837 -9.490075 0.263158 6730418
-10.136792 -9.585510 1.756001 6730418
-10.425735 -9.502266 1.254107 6730418
-10.742250 -9.471958 1.123367 6730418
-10.320932 -10.052812 2.082756 6730418
-9.964158 -9.428718 2.753230 6730418
-10.791718 -9.557451 1.752973 6730418
-10.635393 -10.018469 1.126656 6730418
-10.887057 -9.723035 0.523081 6730418
-10.080352 -10.128468 0.980464 6730418
-9.407937 -9.676225 2.061216 6730418
-10.052963 -9.531599 2.763280 6730418
-10.661924 -9.414776 0.482691 6730418
-10.077493 -9.420650 0.862820 6730418
-10.742053 -10.262950 2.041025 6730418
-10.446544 -9.892455 0.662137 6730418
-9.377347 -10.495024 1.196746 6730418
-9.688695 -10.652260 1.765741 6730418
-9.949207 -10.351748 2.986736 6730418
-10.734064 -10.634546 0.370990 6730418
-10.094761 -10.042996 1.041681 6730418
-10.424835 -9.118666 0.760952 6730418
-10.109477 -10.513846 0.282718 6730418
-10.489989 -10.184159 1.751969 6730418
-9.269631 -9.369011 0.045587 6730418
-10.364846 -9.986364 0.766313 6730418
-10.464170 -9.524642 2.600785 6730418
-9.249752 -10.010054 2.862293 6730418
-10.534728 -9.823007 2.162833 6730418
-9.842888 -10.085312 0.941609 6730418
-10.320032 -10.531492 0.252392 6730418
-10.878687 -9.946162 1.627895 6730418
-9.175385 -9.831603 2.325013 6730418
-9.752417 -9.157656 0.240092 6730418
-10.558505 -10.032888 2.381393 6730418
-10.120970 -10.752243 1.965092 6730418
-10.922845 -9.775621 -0.026941 6730418
-10.654888 -9.882963 0.840761 6730418
-10.167409 -10.322383 2.585862 6730418
-10.394878 -10.605592 1.211648 6730418
-10.643691 -9.342859 2.615853 6730418
-9.214592 -10.612844 0.509093 6730418
-9.885460 -9.662070 2.531761 6730418
-9.128017 -9.915386 2.404617 6730418
-10.199536 -10.348139 1.030989 6730418
-9.364288 -9.852903 1.024594 6730418
-10.336527 -10.743629 2.795221 6730418
-9.680721 -10.211359 0.740792 6730418
-10.590846 -9.789371 2.091952 6730418
-9.925878 -10.970044 2.269711 6730418
-9.805824 -9.756507 2.173254 6730418
-10.225195 -9.237880 1.033832 6730418
-10.198368 -10.403818 1.638605 6730418
-9.606155 -9.934117 0.572996 6730418
-10.165056 -10.144149 2.320609 6730418
-9.274353 -10.710149 1.197964 6730418
-9.212437 -10.260948 0.609596 6730418
-9.594415 -9.898733 1.072405 6730418
-9.864249 -9.634136 2.577904 6730418
-10.492555 -9.759898 0.618397 6730418
-10.206207 -9.865380 0.453181 6730418
-10.434013 -10.673046 2.994079 6730418
-9.474251 -9.751618 2.483190 6730418
-9.149000 -10.273654 2.820609 6730418
-9.881864 -10.714375 0.830877 6730418
-9.873381 -10.726528 2.965078 6730418
-10.330328 -10.239701 1.013890 6730418
-10.465732 -10.378658 1.271939 6730418
-10.484297 -10.378787 1.821032 6730418
-10.538814 -10.785252 2.483351 6730418
-10.143258 -9.610995 2.166867 6730418
-10.006598 -9.580099 0.595508 6730418
-10.804572 -10.496965 1.156867 6730418
-9.045580 -10.080432 1.437329 6730418
-10.331014 -10.883420 0.041677 6730418
-9.758129 -9.564047 2.747059 6730418
-10.349773 -10.500850 2.409862 6730418
-9.885929 -10.705995 2.149040 6730418
-9.178579 -9.835293 0.925709 6730418
-9.344518 -10.747441 2.861476 6730418
-10.579342 -10.512383 0.071614 6730418
-9.945661 -9.888866 0.899688 6730418
-10.093223 -9.718292 2.020715 6730418
-9.758965 -9.863221 0.478424 6730418
-9.144547 -10.319706 0.518753 6730418
-9.819615 -10.327693 1.325732 6730418
-10.662083 -10.130688 1.352420 6730418
-9.026448 -9.879287 2.143993 6730418
-10.426045 -10.551290 0.678240 6730418
-10.147661 -9.766211 2.880296 6730418
-9.120780 -10.447154 0.051208 6730418
-10.980985 -9.862232 1.455765 6730418
-10.185640 -10.138632 2.179271 6730418
-10.369154 -10.311908 0.339084 6730418
-9.266497 -10.589106 1.014692 6730418
-10.103823 -10.060495 1.064599 6730418
-10.712399 -10.217463 2.487493 6730418
-9.799198 -10.487123 2.971195 6730418
-9.863077 -10.003794 1.263753 6730418
-9.710485 -10.825325 2.346739 6730418
-9.164128 -10.338640 1.508462 6730418
-10.502028 -9.511127 1.424440 6730418
-9.642959 -10.187356 2.715005 6730418
-10.607347 -9.402481 2.097212 6730418
-10.035329 -9.236311 1.635175 6730418
-10.418254 -9.782153 0.301662 6730418
-9.249226 -10.182108 2.896997 6730418
-10.729522 -10.080019 0.185369 6730418
-9.304129 -10.197903 2.826743 6730418
-10.091406 -10.831460 1.445657 6730418
-9.684262 -10.212180 1.109863 6730418
-10.899498 -10.036770 2.058333 6730418
-9.610161 -9.220223 2.521953 6730418
-10.570915 -9.231708 0.279934 6730418
-9.108203 -10.325176 2.754548 6730418
-10.183450 -10.658898 1.656624 6730418
-9.336674 -10.251596 0.417383 6730418
-10.376845 -10.292391 1.459643 6730418
-10.334115 -9.565755 2.580928 6730418
-10.836418 -9.499074 2.868251 6730418
-9.971113 -9.275096 0.817179 6730418
-9.260354 -9.476944 2.442518 6730418
-10.162691 -9.215909 2.745780 6730418
-10.770927 -9.738781 2.635388 6730418
-9.420250 -9.452610 0.270341 6730418
-9.334180 -9.519948 2.103340 6730418
-10.195836 -10.911846 0.378022 6730418
-9.117807 -10.345788 0.450776 6730418
-10.869393 -9.537548 1.405629 6730418
-9.968330 -10.064346 0.554538 6730418
-10.286877 -9.739270 1.558208 6730418
-10.672716 -9.722302 2.391053 6730418
-10.201894 -9.389823 1.664414 6730418
-9.512708 -10.107304 2.436860 6730418
-10.345201 -10.748922 2.917828 6730418
-10.036153 -10.492156 0.527599 6730418
-9.491093 -10.651354 2.244664 6730418
-9.495874 -10.720895 0.000426 6730418
-9.557472 -9.253771 1.187536 6730418
-9.420024 -9.465209 2.406746 6730418
-9.582912 -9.125299 0.166354 6730418
-10.248339 -10.237707 0.673489 6730418
-9.783343 -10.319623 0.055887 6730418
-10.340738 -9.306105 2.437823 6730418
-10.277079 -10.424977 0.136212 6730418
-9.441346 -10.749476 2.580931 6730418
-9.644054 -9.394533 0.473313 6730418
-9.109321 -9.991891 2.676792 6730418
-9.985474 -10.017976 2.771943 6730418
-10.523823 -10.465738 0.435721 6730418
-9.550210 -10.758366 1.823507 6730418
-10.710433 -10.389577 0.930591 6730418
-10.311856 -9.225872 1.219172 6730418
-10.558831 -10.018212 0.191318 6730418
-10.715509 -10.112489 0.705747 6730418
-9.883533 -10.857463 2.509548 6730418
-10.464133 -9.577236 2.849281 6730418
-10.735889 -10.447615 2.948957 6730418
-9.496520 -10.302341 1.680750 6730418
-10.392664 -9.950266 1.921962 6730418
-10.419027 -10.476312 0.960068 6730418
-10.296475 -9.799423 0.279346 6730418
-9.711987 -10.341839 0.114580 6730418
-10.692521 -10.024401 1.610802 6730418
-10.703701 -10.572639 0.218590 6730418
-10.281672 -10.167609 0.915747 6730418
-9.394950 -10.278029 1.256810 6730418
-9.445926 -9.228081 1.716032 6730418
-10.442515 -10.350356 0.927707 6730418
-10.238469 -9.927817 2.906152 6730418
-10.433973 -10.214346 2.230265 6730418
-10.366744 -10.735845 1.694310 6730418
-9.536407 -10.398915 1.140452 6730418
-9.515304 -10.069601 1.330182 6730418
-10.522357 -9.690839 0.147658 6730418
-9.605688 -10.186524 2.695529 6730418
-9.493359 -9.746731 1.170224 6730418
-9.855210 -10.578323 2.844814 6730418
-10.584858 -9.648415 1.492142 6730418
-9.968209 -10.591374 0.782655 6730418
-9.712535 -9.110742 1.496503 6730418
-10.754939 -10.015364 0.064997 6730418
-10.338484 -10.388427 2.408801 6730418
-9.976962 -9.571219 0.143347 6730418
-9.321992 -10.103413 1.456916 6730418
-9.083973 -10.224485 1.262132 6730418
-9.083166 -9.891370 0.031510 6730418
-10.403234 -9.944662 0.610669 6730418
-10.300437 -9.287516 0.216015 6730418
-10.833364 -10.512814 0.915938 6730418
-10.918162 -10.362623 2.089013 6730418
-9.515971 -10.255737 0.763124 6730418
-9.955902 -10.848291 1.548023 6730418
-9.557653 -10.571008 1.726395 6730418
-10.696637 -9.479235 0.475580 6730418
-10.320203 -9.599123 2.445903 6730418
-9.892330 -10.740685 1.872665 6730418
-10.055562 -9.262288 1.740419 6730418
-10.261092 -9.285016 2.098708 6730418
-10.808889 -9.711504 1.098123 6730418
-9.612596 -9.773015 2.471528 6730418
-9.312396 -9.606050 1.130991 6730418
-10.976497 -10.264196 1.640740 6730418
-10.409331 -10.858323 1.436131 6730418
-10.733282 -9.658189 1.642318 6730418
-9.695344 -9.717723 0.652244 6730418
-9.480683 -10.638607 0.091146 6730418
-10.054915 -9.186335 2.955853 6730418
-10.699565 -10.185050 2.302490 6730418
-10.433393 -9.714546 1.182838 6730418
-10.958295 -9.692881 2.400834 6730418
-9.793989 -9.318681 0.624486 6730418
-10.910175 -10.276488 0.332452 6730418
-10.846683 -10.190045 2.162465 6730418
-10.304916 -10.751459 0.047192 6730418
-10.207596 -10.428396 1.650205 6730418
-9.399246 -10.352195 2.310461 6730418
-10.424973 -10.720835 2.082306 6730418
-10.443841 -10.822080 2.428546 6730418
-9.969995 -10.695565 1.443489 6730418
-9.619800 -10.285877 1.951867 6730418
-9.862835 -10.063554 2.338261 6730418
-10.283722 -9.678563 1.196715 6730418
-9.151059 -10.216173 1.252711 6730418
-9.946887 -10.967435 0.143983 6730418
-10.524750 -9.228031 2.389402 6730418
-10.382958 -10.689738 1.685364 6730418
-10.199262 -9.906977 2.908946 6730418
-9.215437 -10.002262 2.971059 6730418
-9.473062 -10.481777 1.902114 6730418
-10.841646 -10.128518 1.953548 6730418
-10.818138 -9.685301 2.967785 6730418
-10.327188 -9.333942 1.506186 6730418
-9.968478 -10.658545 1.007076 6730418
-10.609866 -10.338020 1.898761 6730418
-10.527705 -9.516565 1.271300 6730418
-10.590170 -9.782266 0.056690 6730418
-10.842799 -10.494045 0.979487 6730418
-10.196858 -9.035777 0.688397 6730418
-10.241823 -10.943526 2.463441 6730418
-10.415404 -9.426502 0.428633 6730418
-9.351678 -10.758943 0.812623 6730418
-9.613685 -10.212426 2.346089 6730418
-9.954744 -10.385179 1.779451 6730418
-10.755261 -10.505763 0.895786 6730418
-10.159719 -9.920882 0.517580 6730418
-10.617196 -10.227847 1.452871 6730418
-9.941760 -9.925679 1.887466 6730418
-10.466917 -9.317966 1.282943 6730418
-9.626774 -9.404197 1.775373 6730418
-10.423191 -10.339716 2.142237 6730418
-10.838311 -10.343887 0.515271 6730418
-10.285430 -10.008615 2.636831 6730418
-9.957511 -9.731708 0.325369 6730418
-10.414638 -9.428580 0.578168 6730418
-10.353685 -10.456315 1.139526 6730418
-9.671886 -9.789493 0.721893 6730418
-9.793753 -9.443895 2.924317 6730418
-9.417248 -10.780530 2.904930 6730418
-10.025069 -10.048053 2.797848 6730418
-9.707070 -10.891158 1.858058 6730418
-10.251591 -9.583011 0.463759 6730418
-9.181132 -10.520953 2.205825 6730418
-9.787424 -9.715674 1.032338 6730418
