# .PCD v0.7 - Point Cloud Data file format
VERSION 0.7
FIELDS x y z rgb
SIZE 4 4 4 4
TYPE F F F U
COUNT 1 1 1 1
WIDTH 1292
HEIGHT 1
VIEWPOINT 0 0 0 1 0 0 0
POINTS 1292
DATA ascii
11.243868 9.069391 0.463278 11697996
9.530499 9.212512 0.624094 11697996
11.255190 9.028480 3.303486 11697996
9.190924 9.762699 0.772217 11697996
9.347481 9.257895 4.005177 11697996
10.475303 9.242669 2.538507 11697996
9.848863 9.366624 1.049888 11697996
10.056445 11.208789 2.928369 11697996
11.108089 10.372170 0.283703 11697996
10.821831 9.262792 1.041181 11697996
10.579984 10.667232 3.134055 11697996
10.544040 10.940301 1.470520 11697996
9.966789 9.042973 0.773764 11697996
10.718915 9.755686 0.208243 11697996
9.033908 9.964835 0.485941 11697996
10.842051 9.668075 1.404219 11697996
10.638234 11.224989 3.936689 11697996
10.655230 9.615680 3.760091 11697996
11.167568 9.912363 2.979355 11697996
11.101366 9.979175 3.066310 11697996
8.810803 10.884223 2.767513 11697996
11.081268 9.856815 2.746063 11697996
9.268156 9.782281 3.447700 11697996
9.318685 9.007710 3.430956 11697996
9.878751 10.713292 2.540588 11697996
10.932966 9.186318 0.171004 11697996
10.730605 10.528269 1.292515 11697996
9.935570 10.677193 2.333182 11697996
9.097210 10.408092 1.809865 11697996
10.215334 9.331762 2.219583 11697996
11.079672 10.178122 0.197379 11697996
10.082042 11.166965 2.964302 11697996
10.615884 11.039113 3.835759 11697996
9.741283 8.781973 1.524479 11697996
9.612910 9.483438 1.405774 11697996
10.687735 10.724087 1.614192 11697996
9.585359 10.495180 2.731707 11697996
10.239079 11.236436 0.311521 11697996
9.620502 8.845568 3.287860 11697996
9.555492 10.299409 3.163064 11697996
10.350437 9.098162 3.318608 11697996
9.407928 10.340362 2.993625 11697996
9.591618 10.631642 1.750978 11697996
9.087916 10.806883 2.151554 11697996
10.806113 10.494135 0.919397 11697996
10.832740 10.955840 3.683173 11697996
10.702859 10.962655 1.677979 11697996
11.200976 9.267076 3.259047 11697996
9.851628 11.231536 1.724946 11697996
8.839991 8.788333 2.470732 11697996
9.176942 10.091391 3.139738 11697996
10.591437 10.055012 0.210382 11697996
8.851077 10.197317 3.423717 11697996
10.301608 9.507469 0.840568 11697996
10.240735 8.972199 1.410130 11697996
9.625112 8.939313 3.613851 11697996
9.762913 9.817959 1.580253 11697996
10.888071 9.959440 3.054858 11697996
10.688085 10.310882 3.253227 11697996
10.802624 10.491684 0.659709 11697996
10.773224 10.252805 3.855168 11697996
11.085466 9.497650 1.670971 11697996
9.503633 10.802004 2.599119 11697996
10.227599 8.763139 3.113457 11697996
11.150045 9.519460 2.706271 11697996
10.359378 10.065002 2.053470 11697996
10.347480 10.054102 1.017802 11697996
8.876834 10.987581 3.459876 11697996
10.650564 9.872447 1.743723 11697996
9.464780 10.009126 2.163679 11697996
10.113536 10.709825 3.262908 11697996
9.271111 10.451820 1.899127 11697996
9.258018 9.731114 2.728250 11697996
9.794676 9.143295 3.540251 11697996
9.577978 11.035413 2.027732 11697996
10.593688 8.893347 1.317278 11697996
8.931858 11.136643 0.024371 11697996
11.021650 10.370903 2.100430 11697996
8.870104 11.167359 0.014001 11697996
9.280494 11.127048 1.600629 11697996
10.131931 9.163748 1.482222 11697996
9.192380 10.585275 0.552596 11697996
10.833369 10.933597 3.770524 11697996
10.200342 9.782872 2.638222 11697996
10.986386 10.443909 2.316118 11697996
11.153013 9.915440 2.125238 11697996
9.973813 10.212744 2.191307 11697996
10.045408 10.197577 2.072802 11697996
8.880729 9.522627 0.967253 11697996
10.416022 11.009915 2.195457 11697996
11.005636 10.940127 1.639864 11697996
9.930334 8.861554 0.513837 11697996
9.326948 10.387852 3.306761 11697996
11.167680 9.202803 3.180723 11697996
11.135575 10.644949 2.375129 11697996
10.893987 11.203095 1.179846 11697996
10.732989 9.595531 2.732739 11697996
10.002872 10.806281 1.096003 11697996
11.068755 10.044274 1.265042 11697996
9.003802 10.050713 2.572575 11697996
10.072786 10.415985 0.452243 11697996
10.856159 9.906853 3.399355 11697996
9.835089 10.382286 3.080486 11697996
10.099680 11.168034 1.606412 11697996
9.580411 9.928327 1.552416 11697996
10.343225 10.203616 3.236817 11697996
10.906522 10.707197 3.167150 11697996
10.685286 10.699656 0.877257 11697996
10.705335 10.075123 1.561829 11697996
9.729937 10.699762 4.005131 11697996
10.850509 9.569244 1.429374 11697996
9.080564 10.130579 3.900564 11697996
9.133932 9.566913 0.225333 11697996
10.939917 10.891771 1.638872 11697996
10.134126 10.260042 2.362511 11697996
9.564273 10.936953 1.820886 11697996
10.160100 10.739640 0.162940 11697996
10.868193 8.900087 0.785407 11697996
9.110618 10.843654 0.691750 11697996
11.002300 11.016687 0.504403 11697996
10.086198 10.177653 3.184464 11697996
10.399640 9.980735 0.212179 11697996
10.233085 8.955913 1.596285 11697996
9.307304 8.913822 1.475886 11697996
8.940246 10.346451 3.101933 11697996
10.489519 9.376485 1.530875 11697996
9.153588 9.337886 3.674681 11697996
9.469849 9.216782 0.587910 11697996
10.340048 11.047130 1.188079 11697996
10.523492 9.155735 1.504465 11697996
11.138287 10.356853 1.878167 11697996
10.618651 8.998124 3.683281 11697996
10.940768 10.815125 0.805377 11697996
10.854424 9.186049 1.468053 11697996
9.629272 11.170063 1.829047 11697996
8.953429 10.193889 1.791428 11697996
11.232546 10.146561 0.216388 11697996
9.999392 10.973907 3.633237 11697996
10.612824 10.332976 0.255482 11697996
8.863151 10.543051 0.610050 11697996
8.964528 8.838387 1.476787 11697996
10.902389 9.450953 0.170856 11697996
10.416544 9.439930 3.724011 11697996
10.231668 10.422981 0.771987 11697996
10.392009 10.770267 0.135696 11697996
10.787964 9.190851 1.204882 11697996
10.965835 9.805530 3.762643 11697996
10.476923 9.597624 1.623564 11697996
8.821645 8.960927 0.589678 11697996
10.190672 10.232793 3.691861 11697996
9.282699 11.031379 0.656828 11697996
10.797565 8.823645 0.560544 11697996
8.968083 10.739923 2.575233 11697996
10.703612 9.479543 3.107993 11697996
9.568474 9.751124 0.858123 11697996
10.967784 11.166346 2.375015 11697996
9.603081 10.557292 2.880922 11697996
9.661048 11.155477 1.290356 11697996
9.793283 11.136553 2.748673 11697996
10.319402 10.322649 3.005528 11697996
10.421948 10.639754 3.533635 11697996
10.943096 10.675859 1.470288 11697996
9.128477 10.870762 2.666380 11697996
10.864550 9.671878 0.395172 11697996
10.959002 10.525288 3.145677 11697996
8.788483 9.107694 4.025093 11697996
9.494849 9.456046 2.513445 11697996
10.723066 10.232387 2.468830 11697996
8.821136 9.466424 0.683961 11697996
10.265827 9.255453 3.696417 11697996
10.141485 9.103615 2.562829 11697996
10.360276 11.025105 2.560146 11697996
9.072742 9.485819 1.921259 11697996
10.086789 9.398105 2.232045 11697996
9.183165 9.362925 0.669387 11697996
11.038902 9.592093 3.943486 11697996
10.236023 10.756282 1.839036 11697996
11.025738 10.016789 2.408311 11697996
10.251295 10.943616 1.695499 11697996
9.618678 9.771288 3.325686 11697996
10.563420 8.878955 1.935827 11697996
9.264667 10.728804 1.535906 11697996
9.368800 9.274068 2.076279 11697996
9.123288 9.080245 3.252663 11697996
9.379555 10.519526 2.028180 11697996
11.098907 9.029070 2.316182 11697996
11.125097 9.898997 2.429805 11697996
9.305381 11.174885 2.931395 11697996
9.639498 11.216265 1.212359 11697996
9.071238 9.544309 3.191951 11697996
11.163968 8.965756 1.377440 11697996
10.220118 9.947209 1.707942 11697996
10.069691 10.452342 2.636945 11697996
9.346592 9.122666 0.740253 11697996
9.921415 9.432912 0.376143 11697996
9.088097 8.915140 1.409703 11697996
8.862837 10.343854 2.420237 11697996
9.766279 8.945343 2.947797 11697996
10.162569 10.973835 0.864661 11697996
11.088119 9.232048 3.989709 11697996
10.785026 8.983678 1.244399 11697996
9.656499 9.949991 2.812695 11697996
10.088892 9.368648 2.799240 11697996
10.105350 11.113650 3.096260 11697996
11.062543 10.859971 3.200923 11697996
9.443090 10.905201 1.015603 11697996
9.550910 10.769810 1.086560 11697996
8.741523 9.333067 0.077115 11697996
10.507867 10.778337 2.023294 11697996
10.446865 10.690484 2.446816 11697996
10.194491 9.101354 2.923099 11697996
10.346728 9.618876 3.725601 11697996
9.150846 10.670914 3.707471 11697996
9.687181 10.871766 2.571672 11697996
10.983966 9.877478 0.451621 11697996
10.592419 10.828964 3.349126 11697996
10.781492 10.287446 2.062464 11697996
10.356845 10.419959 0.332789 11697996
10.985123 10.450779 2.671176 11697996
9.684052 9.678120 2.618037 11697996
11.127809 10.915649 1.326858 11697996
9.395982 9.470607 3.155148 11697996
10.927607 8.932689 3.564604 11697996
11.234876 9.805797 1.961607 11697996
10.420509 10.314946 2.671091 11697996
9.672458 9.113163 0.432965 11697996
11.262597 10.434384 0.310128 11697996
9.945925 9.273687 0.980603 11697996
10.405027 10.339025 2.370028 11697996
10.833932 8.788605 1.207559 11697996
9.977246 9.049496 0.533865 11697996
9.669089 11.198500 0.808629 11697996
10.138395 9.164549 1.197740 11697996
8.917994 9.493026 1.594334 11697996
9.729916 8.892084 1.709259 11697996
9.833992 9.886947 1.067183 11697996
10.120892 10.859881 3.384709 11697996
10.308863 8.930427 1.114926 11697996
9.074988 10.172320 1.322597 11697996
11.072510 8.882104 2.043877 11697996
11.066156 9.316981 2.212526 11697996
11.050943 9.210812 3.953610 11697996
8.870985 10.399275 2.279362 11697996
8.856580 10.456148 0.515437 11697996
9.079190 11.114065 3.753503 11697996
9.215880 9.734885 0.829647 11697996
9.242898 10.772376 1.403503 11697996
9.356537 10.750324 1.328849 11697996
11.019643 10.261984 1.971852 11697996
10.368477 10.546264 2.536973 11697996
8.855986 10.246494 3.288617 11697996
9.482305 10.212712 3.582080 11697996
9.075763 10.932119 3.205956 11697996
11.112007 10.287572 0.718306 11697996
9.399622 9.038542 2.445418 11697996
9.139313 10.080873 1.065559 11697996
11.096659 9.493783 2.056306 11697996
10.799837 9.518598 0.303559 11697996
9.763462 10.372135 1.826259 11697996
10.261169 10.133137 1.205790 11697996
8.765271 10.436810 3.098458 11697996
10.314041 9.223642 1.362858 11697996
9.769782 9.301865 0.002931 11697996
9.252882 9.946630 2.848999 11697996
10.566218 9.533593 0.918655 11697996
10.199086 10.201601 3.539754 11697996
8.927232 11.077908 1.884231 11697996
11.027014 9.227654 1.302412 11697996
9.196959 9.784136 2.966893 11697996
8.898376 9.074744 2.132417 11697996
9.411947 10.246575 1.058318 11697996
11.047038 9.645443 3.504347 11697996
9.643364 10.087146 1.922668 11697996
10.606032 11.197234 0.085567 11697996
9.685557 9.667511 1.351098 11697996
10.770247 8.910176 3.644780 11697996
9.599552 10.418979 0.274902 11697996
10.784781 9.981730 2.878825 11697996
9.087041 10.067135 3.755261 11697996
8.990767 10.804589 3.442051 11697996
10.690410 8.934482 1.516704 11697996
9.135254 10.539681 2.765252 11697996
9.962470 10.037263 3.989826 11697996
10.156161 10.924194 2.288249 11697996
9.872623 10.131515 0.348227 11697996
8.894163 8.933185 2.165966 11697996
10.242849 9.766229 3.818685 11697996
10.636803 11.177527 2.222133 11697996
9.294491 10.100843 3.183686 11697996
9.877436 9.939282 2.665867 11697996
8.889860 10.242862 0.208133 11697996
10.783742 10.477397 1.935299 11697996
10.119758 9.672050 3.356010 11697996
10.951854 10.178826 3.376052 11697996
8.968050 9.209903 3.932615 11697996
9.315213 10.824403 3.330945 11697996
10.309684 10.747274 0.986416 11697996
10.772288 9.899389 2.295101 11697996
10.474600 8.733281 3.491750 11697996
10.793683 8.929385 0.846762 11697996
9.380407 10.234418 2.560483 11697996
9.113466 10.848243 1.145470 11697996
10.361802 8.858292 3.278483 11697996
9.671577 10.824525 2.931936 11697996
9.869103 10.547103 1.135493 11697996
11.164792 11.002604 1.469691 11697996
9.589991 8.829735 3.937568 11697996
10.744180 9.830177 2.308720 11697996
8.797694 9.314484 1.210324 11697996
10.856842 11.099514 3.730014 11697996
10.697325 10.936587 2.524091 11697996
9.528267 9.764032 1.192546 11697996
10.215803 9.240054 1.988686 11697996
9.782835 10.005444 2.742116 11697996
10.043489 9.710912 0.866843 11697996
10.325725 11.234255 1.870432 11697996
10.650722 9.181279 0.212148 11697996
9.527582 10.734719 1.188293 11697996
11.197173 11.024917 2.588289 11697996
10.501713 9.695198 2.082264 11697996
8.983335 10.358685 3.911326 11697996
9.202502 10.581070 0.150648 11697996
10.279957 10.037146 3.677605 11697996
10.787101 10.603590 3.106406 11697996
9.583399 11.200149 3.640248 11697996
9.382040 9.238940 3.009340 11697996
10.029709 9.273937 1.238960 11697996
9.122664 8.927902 0.821813 11697996
10.370645 9.650883 3.096914 11697996
10.578237 11.056512 2.261954 11697996
10.187010 8.935507 0.549816 11697996
10.724276 10.071720 3.444672 11697996
9.086123 10.963732 2.212310 11697996
11.038779 10.115229 1.564569 11697996
10.632856 10.374337 0.583469 11697996
8.854290 10.819860 2.869345 11697996
8.809451 10.463931 0.238055 11697996
9.374426 10.154126 3.528335 11697996
9.068535 9.303091 2.148845 11697996
9.647500 9.740705 2.091501 11697996
10.336252 10.013898 1.855590 11697996
9.247874 9.348829 2.328090 11697996
9.540531 10.849468 3.351089 11697996
10.052843 10.023872 3.353723 11697996
10.683146 8.811135 0.826554 11697996
9.204825 11.233786 3.940886 11697996
9.429000 9.859141 0.947463 11697996
8.847580 11.209323 2.712942 11697996
10.153906 9.577825 3.448665 11697996
11.252571 10.351271 0.183215 11697996
9.293417 8.982112 2.733030 11697996
8.951140 9.300904 1.287348 11697996
9.015594 9.770130 1.623580 11697996
8.892287 9.686042 2.166964 11697996
11.059855 11.092226 3.612176 11697996
10.375640 9.860460 2.989886 11697996
8.776076 9.690077 3.485710 11697996
10.295644 9.607679 0.346908 11697996
10.449784 10.582534 1.880371 11697996
10.760294 9.617063 0.100594 11697996
11.134734 8.955467 3.974206 11697996
10.570002 10.453292 2.004363 11697996
10.205349 10.203051 0.763488 11697996
9.978695 9.171587 1.460333 11697996
11.151242 9.265279 2.181035 11697996
9.051099 11.176819 0.923955 11697996
9.015042 9.466922 3.347378 11697996
10.485733 9.984642 2.754143 11697996
8.775058 11.208618 1.129812 11697996
10.552302 9.811395 3.092692 11697996
9.132572 10.641330 3.410027 11697996
9.120430 10.156240 3.976761 11697996
10.938539 10.253646 1.928560 11697996
10.906483 9.664247 1.046136 11697996
9.361202 8.962038 3.864794 11697996
8.759108 9.837739 2.462185 11697996
10.257894 10.436960 1.875719 11697996
11.085432 10.887295 3.560502 11697996
8.844712 9.462517 3.892532 11697996
9.910132 9.090271 3.462955 11697996
9.999798 9.636031 2.138398 11697996
8.912296 9.977191 2.457969 11697996
9.657407 9.938010 3.704278 11697996
9.919338 10.902137 2.642262 11697996
10.927585 11.101320 0.856058 11697996
9.355038 9.064884 0.084084 11697996
9.708385 10.883893 0.133725 11697996
10.193743 10.322101 3.566080 11697996
10.946634 9.034886 0.944878 11697996
9.326196 11.018585 1.763347 11697996
10.166292 9.237968 2.220406 11697996
8.776848 9.998942 0.754986 11697996
9.744660 9.879280 3.940060 11697996
9.949958 11.196351 2.376264 11697996
9.347987 10.912460 2.979470 11697996
10.694149 9.633494 2.204385 11697996
10.946344 9.042360 2.756627 11697996
10.891413 10.881315 1.800427 11697996
11.249701 9.879233 2.226802 11697996
9.697058 9.316310 2.493265 11697996
9.349322 8.855241 2.943400 11697996
11.043219 8.992231 2.681278 11697996
9.855558 8.798405 0.582280 11697996
9.806356 9.041846 3.575751 11697996
10.983413 9.790529 0.835902 11697996
11.108905 9.055064 3.688703 11697996
10.483143 9.125195 2.298259 11697996
10.769769 10.414317 1.420681 11697996
9.406723 10.583634 0.169441 11697996
9.381398 10.732046 2.762053 11697996
9.558374 9.340411 3.940748 11697996
9.050326 10.936420 2.225611 11697996
9.777839 9.936142 0.536517 11697996
10.526814 10.128147 1.785126 11697996
11.155731 11.044089 0.292064 11697996
8.938923 10.457889 2.813334 11697996
10.371547 10.054035 1.559520 11697996
10.602463 10.339774 0.784161 11697996
10.586169 9.666911 3.559906 11697996
11.015272 8.846243 0.301151 11697996
11.009722 11.196525 0.028432 11697996
10.747341 9.728433 3.548578 11697996
9.668797 10.825376 3.357639 11697996
9.500736 9.424699 2.215744 11697996
10.523253 9.572249 1.557096 11697996
11.023969 9.443910 1.959412 11697996
10.430181 10.013048 0.543267 11697996
9.784959 11.191092 2.381070 11697996
11.102956 8.916443 2.357633 11697996
11.014138 9.624945 2.520132 11697996
9.722579 10.904295 2.642071 11697996
9.157681 10.336830 0.888672 11697996
9.294122 8.826542 2.186920 11697996
11.097922 9.862410 3.042901 11697996
9.411852 10.885144 1.268739 11697996
10.281750 9.263527 1.511135 11697996
9.582143 10.428097 1.973483 11697996
9.724553 9.151954 2.250739 11697996
9.179986 9.088630 0.646900 11697996
10.498284 11.090689 3.414534 11697996
9.899883 9.798983 2.144815 11697996
10.167552 9.174468 3.348808 11697996
10.445009 10.088218 1.541418 11697996
9.223866 10.862184 1.195201 11697996
9.653728 10.236959 3.939796 11697996
9.746754 8.996441 3.535317 11697996
8.924700 9.515781 0.281093 11697996
10.629745 10.433331 0.123618 11697996
9.314997 10.515049 1.886315 11697996
10.545443 8.976727 2.436571 11697996
10.504423 10.315912 0.617442 11697996
9.920993 10.097737 3.658835 11697996
9.741076 9.734255 0.625984 11697996
11.214450 10.504776 2.801618 11697996
9.688996 10.615047 1.944870 11697996
9.113469 10.860151 3.777893 11697996
9.242481 11.073792 1.233475 11697996
11.093548 11.129199 3.831529 11697996
10.351455 10.199370 2.414557 11697996
9.886924 10.077199 3.659058 11697996
9.061746 9.112144 1.818175 11697996
9.572947 9.936585 3.240506 11697996
10.915944 9.278453 0.140905 11697996
11.037943 9.217214 0.623594 11697996
9.808512 11.108105 2.582979 11697996
11.011797 9.341728 1.447830 11697996
9.266507 9.912494 2.544475 11697996
11.171946 11.129122 0.876828 11697996
11.186812 10.579554 1.859050 11697996
10.358218 8.839395 3.722464 11697996
9.314054 9.723767 3.138687 11697996
10.330952 9.029864 0.872956 11697996
9.555686 9.445566 0.034740 11697996
10.057999 8.887108 3.162332 11697996
10.797126 10.394568 3.056452 11697996
8.752355 9.120458 3.486835 11697996
10.021914 9.581122 1.105035 11697996
10.357778 9.432624 2.358543 11697996
11.120657 9.619699 3.446577 11697996
9.866364 11.172693 3.206335 11697996
10.986558 10.561487 2.622569 11697996
10.693928 10.389920 0.626306 11697996
9.004258 9.112539 2.306859 11697996
10.190986 9.500484 3.767060 11697996
10.828746 10.721226 0.708461 11697996
11.220769 8.820903 0.946918 11697996
9.309794 9.547078 3.783049 11697996
11.248693 10.215328 1.583964 11697996
10.944241 9.417597 1.670412 11697996
10.989829 10.191691 2.438329 11697996
8.898213 10.771658 1.266353 11697996
9.632873 9.859720 0.334553 11697996
10.320125 8.996302 3.265307 11697996
9.545171 8.823315 1.266362 11697996
11.005375 9.115347 1.156806 11697996
10.323670 8.862391 0.409098 11697996
9.857685 9.657675 2.815197 11697996
10.849247 9.759008 3.961046 11697996
9.049285 9.295207 3.394087 11697996
10.024487 10.866641 0.729016 11697996
10.141440 8.787567 3.056092 11697996
10.869053 9.280000 3.634145 11697996
9.521747 9.748122 3.403949 11697996
9.464159 8.952389 3.465320 11697996
10.135872 9.202893 1.301895 11697996
10.601593 9.021646 1.772030 11697996
9.840250 10.861506 3.632229 11697996
11.085636 9.673507 3.528517 11697996
9.794411 10.928311 3.259964 11697996
10.054991 9.502110 0.550171 11697996
9.212023 9.274635 2.908801 11697996
10.440801 8.962772 3.107126 11697996
9.857930 9.574659 0.442588 11697996
8.778222 10.863706 3.287201 11697996
10.312983 9.634899 0.675847 11697996
10.507373 10.910826 1.679159 11697996
9.781117 10.725284 1.951646 11697996
9.260735 10.200833 2.052109 11697996
10.555909 10.672764 3.632488 11697996
10.085751 9.886672 3.133383 11697996
9.966895 9.678995 1.600096 11697996
9.339095 9.867053 3.468134 11697996
9.931817 11.158939 3.814524 11697996
8.971158 11.200518 0.987353 11697996
10.567554 10.130589 0.120368 11697996
10.563136 10.339814 1.784786 11697996
10.090064 9.076654 0.801042 11697996
9.384271 9.561366 2.575969 11697996
11.137909 10.950507 0.999135 11697996
10.625606 11.145922 1.053413 11697996
9.571268 10.431144 0.996112 11697996
8.869340 11.218194 1.613731 11697996
10.200418 10.045531 2.972465 11697996
8.959758 9.279333 1.991307 11697996
11.010157 9.043871 0.632639 11697996
9.806911 8.755692 0.800295 11697996
9.177367 10.434063 1.666172 11697996
10.836097 9.265374 0.592305 11697996
9.835177 9.611465 2.809144 11697996
9.771673 10.191099 0.253990 11697996
11.028185 10.445995 0.418314 11697996
9.486964 10.122738 1.527692 11697996
8.761025 11.117056 2.495522 11697996
10.329873 9.495992 0.540418 11697996
10.663177 8.853092 0.176191 11697996
11.239265 9.414352 2.661556 11697996
9.506740 10.712749 1.216803 11697996
10.215687 8.998578 1.004227 11697996
10.712326 10.838209 1.714016 11697996
9.511413 9.992086 2.351015 11697996
10.367899 9.131495 0.495790 11697996
10.609601 9.056371 2.444081 11697996
10.689536 10.145998 1.164632 11697996
9.346330 9.219810 1.749726 11697996
9.839240 10.281560 2.002659 11697996
9.164100 9.064499 1.664172 11697996
9.608365 8.975437 2.504938 11697996
9.489249 11.228509 1.619368 11697996
11.165209 9.627221 1.525826 11697996
9.646571 8.859447 0.412590 11697996
10.312165 10.664503 2.645964 11697996
10.985815 8.750634 2.030543 11697996
9.535779 9.058133 0.061849 11697996
9.978760 10.308612 2.652147 11697996
9.431364 9.655871 1.596004 11697996
9.389441 10.737137 2.863559 11697996
9.903743 9.781927 1.028096 11697996
9.146488 10.255219 2.870002 11697996
9.416352 10.676821 0.807121 11697996
10.081226 9.746371 3.933041 11697996
9.100084 10.595684 2.243378 11697996
8.769567 8.954580 1.158095 11697996
10.603504 9.185484 1.333480 11697996
10.076735 9.717861 2.230808 11697996
11.102080 10.318699 0.202269 11697996
11.119743 10.275853 3.507358 11697996
9.093320 10.216591 1.830621 11697996
9.885772 10.878831 3.221340 11697996
10.714850 10.686801 1.189658 11697996
11.203184 10.126427 1.947890 11697996
10.918180 11.195259 1.357207 11697996
10.758684 11.056711 3.770388 11697996
9.887266 10.239541 1.954184 11697996
11.270641 10.393219 0.465442 11697996
10.521120 10.053224 2.115046 11697996
10.116588 9.788638 3.638389 11697996
9.393307 10.665864 2.059164 11697996
9.611560 10.328171 2.663039 11697996
9.821408 9.650374 0.935654 11697996
9.113193 8.890860 3.359800 11697996
9.510558 8.976773 0.020982 11697996
10.757094 10.028920 2.286530 11697996
9.490229 9.193807 3.820882 11697996
9.961398 9.886027 2.158676 11697996
9.411739 10.526986 0.398889 11697996
9.694695 10.219232 2.039903 11697996
9.396056 11.116991 3.847758 11697996
9.908738 9.962824 2.242320 11697996
8.970274 10.271147 0.914815 11697996
9.623059 9.593776 2.329468 11697996
11.117678 10.430838 1.167049 11697996
10.867554 10.414866 1.590917 11697996
9.383423 9.353343 0.111521 11697996
9.922796 10.053721 1.265076 11697996
11.187121 9.844775 1.130569 11697996
9.779234 9.304372 0.007945 11697996
9.052544 9.528646 1.789738 11697996
10.851255 9.458340 0.617950 11697996
9.621792 10.042318 1.447509 11697996
9.708859 10.812284 0.256099 11697996
11.221109 10.296036 4.004335 11697996
8.769198 9.755587 2.577863 11697996
9.980057 10.763843 3.152938 11697996
10.082306 10.009551 2.270532 11697996
11.134665 9.878537 2.110978 11697996
9.806930 10.157880 3.509141 11697996
8.941131 9.201838 2.378352 11697996
9.683743 10.406195 2.835652 11697996
10.513582 9.871435 3.812732 11697996
10.586208 9.570370 2.862499 11697996
9.006712 9.491051 2.920334 11697996
10.860536 11.233259 2.804237 11697996
11.201389 10.689519 0.413888 11697996
11.241142 8.775947 1.758021 11697996
9.818576 9.961329 2.494108 11697996
10.470543 8.908197 3.632069 11697996
10.681049 9.645307 1.693510 11697996
10.298356 8.920340 1.284376 11697996
9.730484 10.455187 3.809036 11697996
10.627009 10.443281 1.307395 11697996
10.126014 10.320036 3.653901 11697996
10.146948 9.222528 0.598220 11697996
9.822717 9.095851 1.031852 11697996
10.584173 10.673853 1.765533 11697996
9.937056 10.171018 0.456429 11697996
10.088934 10.406961 3.724356 11697996
10.257458 9.604230 1.587299 11697996
11.095397 9.480063 3.318734 11697996
9.782459 8.741060 3.525312 11697996
9.412654 9.777695 1.274643 11697996
8.945614 8.972053 3.437289 11697996
10.523204 10.519666 1.275709 11697996
10.227642 10.112650 0.178499 11697996
9.010341 10.449912 2.936037 11697996
10.695652 8.790452 1.094311 11697996
8.966297 9.051229 3.307274 11697996
9.740479 11.119013 2.932321 11697996
9.782320 10.911654 0.185606 11697996
11.051824 9.493701 2.029791 11697996
10.502781 10.123699 3.024235 11697996
9.246099 10.588054 2.770887 11697996
11.162645 10.899546 0.201739 11697996
10.077834 9.157158 1.902010 11697996
10.644492 10.251384 2.250728 11697996
11.221173 9.855756 3.114177 11697996
9.028806 10.062147 2.507974 11697996
10.912417 9.127173 1.227312 11697996
11.118701 10.811131 0.160874 11697996
10.396208 10.943067 3.270514 11697996
10.686606 10.818324 3.049352 11697996
9.480678 9.326709 1.104128 11697996
8.877684 9.893149 2.686359 11697996
10.016536 10.578499 3.686248 11697996
10.323381 10.452863 0.918831 11697996
10.258736 9.403057 2.767863 11697996
11.126351 11.036263 2.696292 11697996
9.589134 8.801025 1.111026 11697996
9.453141 9.586698 1.492785 11697996
10.169652 11.103000 2.557066 11697996
9.118658 9.255512 1.751394 11697996
9.381457 8.946885 2.937609 11697996
9.685767 9.725471 2.037528 11697996
10.690737 11.062556 3.665038 11697996
11.075435 10.372587 3.773539 11697996
10.951682 9.169410 0.010389 11697996
11.097063 10.435851 3.190265 11697996
8.964611 9.057514 1.224659 11697996
8.909670 10.287973 3.056697 11697996
8.990083 9.488838 0.937729 11697996
9.338327 9.616690 2.685754 11697996
10.050023 9.148378 3.150833 11697996
8.780998 8.939751 0.440441 11697996
10.163044 10.342628 1.290751 11697996
8.800235 10.247094 0.881418 11697996
9.495952 10.162018 0.396351 11697996
9.592935 9.868421 1.796556 11697996
9.301469 9.142257 1.359120 11697996
10.018738 9.036098 0.958047 11697996
9.378297 9.563691 0.371553 11697996
9.307749 9.586435 0.289932 11697996
9.548818 10.367134 1.875193 11697996
9.077187 9.825645 3.730559 11697996
9.500241 10.009996 0.542303 11697996
9.784781 10.364940 0.714316 11697996
10.754212 11.176575 1.667468 11697996
11.004754 10.213002 0.732568 11697996
9.349559 9.084726 2.495307 11697996
10.052532 9.437523 1.655993 11697996
9.492702 10.072995 2.801544 11697996
10.074699 10.517075 2.614656 11697996
10.945552 9.696453 2.166046 11697996
10.845378 9.550542 0.731700 11697996
9.441622 11.226729 3.621425 11697996
11.209920 10.285163 0.540733 11697996
10.954744 10.495123 3.526801 11697996
10.991414 10.125374 2.383738 11697996
9.406278 8.820575 1.786515 11697996
10.400587 11.063272 0.496290 11697996
9.699244 9.030595 2.018562 11697996
9.653963 9.552375 2.034981 11697996
10.288603 9.632513 1.246945 11697996
9.945302 10.519066 1.318262 11697996
10.390189 9.677843 3.515222 11697996
11.214558 8.893976 0.839374 11697996
10.148674 9.145426 2.846985 11697996
9.544832 9.299857 2.127836 11697996
8.746964 9.372166 0.384876 11697996
9.667644 9.522510 0.669992 11697996
9.023903 10.128758 1.877093 11697996
11.073733 10.264103 1.529219 11697996
9.374821 10.104768 0.705516 11697996
10.120557 8.773973 0.045583 11697996
10.006356 10.440079 3.015381 11697996
9.145979 9.265374 2.546107 11697996
9.307852 9.308982 0.512150 11697996
10.777559 11.194356 3.984365 11697996
9.195493 10.299731 1.534444 11697996
9.886501 9.505816 3.550854 11697996
8.775962 9.432613 2.210653 11697996
10.349822 9.685469 2.774575 11697996
9.751624 11.213005 3.824905 11697996
10.341782 10.558325 3.022410 11697996
10.564939 10.967057 3.983121 11697996
11.225415 9.087057 2.743836 11697996
9.817320 9.356083 2.471628 11697996
10.302253 10.724673 3.259828 11697996
9.518551 10.197268 3.524912 11697996
9.307202 9.944316 0.110928 11697996
10.271354 10.833406 1.727408 11697996
10.729051 10.237909 2.034125 11697996
10.937720 10.612217 1.042213 11697996
10.133562 8.885658 1.825052 11697996
10.006232 10.320881 1.240257 11697996
11.116195 9.630092 1.904192 11697996
10.475135 9.444673 3.622893 11697996
9.964147 10.106199 0.921656 11697996
10.855031 10.958932 1.263226 11697996
10.264079 9.809405 2.578896 11697996
9.705925 9.199054 3.355241 11697996
9.747693 10.903808 2.224037 11697996
9.460725 10.413249 0.860269 11697996
10.899587 10.641800 3.423231 11697996
9.263846 9.619208 2.342461 11697996
9.043455 10.748025 -0.009181 11697996
9.466851 10.879034 1.933996 11697996
9.872653 8.848428 3.036659 11697996
8.830638 9.801499 2.015326 11697996
8.984696 10.632246 0.332600 11697996
8.775691 9.261167 1.238278 11697996
10.844995 9.372150 1.045002 11697996
10.899185 10.413631 3.056384 11697996
9.046156 10.879188 3.800275 11697996
10.934264 9.509526 2.961284 11697996
10.878442 8.757452 0.323636 11697996
9.011111 10.363846 1.054892 11697996
10.413693 8.858479 1.916109 11697996
9.357667 9.301850 0.071705 11697996
9.570190 9.944664 1.237958 11697996
10.723446 8.938031 1.103870 11697996
9.097326 10.559104 1.011645 11697996
10.519594 10.188393 0.407469 11697996
11.031449 9.303099 1.884709 11697996
9.071981 9.862090 1.977277 11697996
10.136188 11.089461 2.745776 11697996
8.846898 9.187198 0.620683 11697996
9.523625 10.824966 3.753682 11697996
9.252320 9.603859 2.216483 11697996
9.283460 10.458644 0.180593 11697996
10.699711 9.868827 2.526957 11697996
9.523274 8.850393 3.742501 11697996
10.952468 10.011489 1.472767 11697996
9.076780 10.367208 1.661153 11697996
9.319067 9.380243 2.040522 11697996
10.232914 8.805943 3.933619 11697996
10.044741 9.184139 3.303007 11697996
10.667776 10.065755 3.214112 11697996
11.252810 10.591747 3.819627 11697996
9.279417 9.289691 2.116604 11697996
9.544498 10.956600 3.282570 11697996
10.032687 9.328127 0.485177 11697996
9.519351 10.459085 2.372283 11697996
10.957463 8.910893 1.141954 11697996
9.668381 10.337684 1.551561 11697996
10.514252 10.447500 1.541855 11697996
9.886376 9.086945 2.518659 11697996
9.278870 10.503020 2.087303 11697996
9.215660 10.057323 0.678596 11697996
9.624660 10.465345 3.779675 11697996
10.306754 9.819948 3.592464 11697996
10.009797 9.304665 2.029000 11697996
10.638166 9.783116 0.421706 11697996
11.220060 10.588949 3.167252 11697996
10.687595 9.643367 3.276859 11697996
10.234273 10.367640 0.758187 11697996
9.601951 10.310399 2.648025 11697996
11.004484 11.147940 3.934949 11697996
11.101733 11.180174 1.975844 11697996
9.224361 9.035117 0.249223 11697996
9.751026 9.812015 3.559672 11697996
9.303320 11.079311 1.607030 11697996
8.921035 10.586951 0.407165 11697996
11.184227 11.006721 2.720416 11697996
8.866899 10.725715 1.592818 11697996
10.661447 9.432102 1.031442 11697996
10.856532 9.567960 3.160882 11697996
10.147040 10.186502 0.954493 11697996
9.077547 9.664025 2.372630 11697996
11.062255 9.119159 0.523126 11697996
9.354941 8.832318 2.181960 11697996
10.928631 10.837130 2.332847 11697996
10.434503 10.718491 3.763157 11697996
9.481043 10.910351 1.000107 11697996
9.287832 10.206505 3.528763 11697996
10.325955 9.446248 2.913540 11697996
10.599000 10.461898 3.626138 11697996
8.857507 11.145936 1.200356 11697996
9.573796 10.197449 1.103176 11697996
9.613803 10.055266 3.206675 11697996
10.685843 10.364109 3.205009 11697996
10.126321 9.544127 0.160801 11697996
9.073951 8.902415 0.050079 11697996
9.489955 10.246678 1.432002 11697996
10.646899 9.548600 3.524475 11697996
9.095254 11.175125 0.561395 11697996
9.581558 11.162589 0.469111 11697996
10.732968 8.868500 1.583244 11697996
10.420163 10.823380 2.138367 11697996
11.233413 10.908001 3.068529 11697996
11.142182 8.899134 2.619555 11697996
9.933336 10.787285 3.943977 11697996
9.454767 10.393497 3.956380 11697996
9.105335 9.194928 3.149667 11697996
9.156148 10.557422 3.429239 11697996
10.958830 11.073459 2.835648 11697996
9.601539 10.442875 2.072766 11697996
9.384267 10.004181 3.729175 11697996
10.926715 9.700187 3.791685 11697996
9.601622 9.057465 0.385218 11697996
9.113987 9.211167 0.559334 11697996
9.519182 9.057087 1.360817 11697996
9.738490 10.342412 3.233466 11697996
10.819057 9.294700 0.777997 11697996
9.069778 10.171773 1.977782 11697996
9.519464 10.534454 1.111419 11697996
10.110929 9.258002 2.739672 11697996
9.483220 10.190400 0.024606 11697996
9.397501 9.158006 0.251424 11697996
10.816179 9.876309 1.504904 11697996
9.834397 10.764294 0.191017 11697996
9.001165 9.699390 0.898347 11697996
10.154527 9.439390 2.043355 11697996
10.872504 9.236130 1.055870 11697996
8.868592 10.269650 1.873771 11697996
8.820519 11.014612 3.624906 11697996
10.592280 9.077239 2.378934 11697996
9.291357 10.934989 1.812581 11697996
10.591836 9.920227 0.530924 11697996
9.473157 9.137855 3.731473 11697996
10.320643 10.313636 0.021367 11697996
10.719274 9.005502 3.700769 11697996
9.122982 11.118816 3.961957 11697996
10.290164 9.272782 1.938482 11697996
8.795174 9.010636 3.684486 11697996
10.303960 9.251018 2.634564 11697996
9.742027 10.010967 3.959193 11697996
8.798410 9.772320 1.485243 11697996
9.247820 10.459175 2.157067 11697996
9.669121 10.676343 2.760212 11697996
9.294583 9.803693 2.153045 11697996
8.769176 10.287909 3.205584 11697996
9.321267 10.962053 0.108823 11697996
8.817720 9.455300 2.467499 11697996
10.855227 9.828145 1.541893 11697996
10.268663 9.771084 1.781012 11697996
10.440857 10.060203 2.336659 11697996
10.134383 9.199903 2.949140 11697996
10.098222 10.315126 3.495614 11697996
9.173368 10.121883 1.020669 11697996
9.338131 8.846175 2.593938 11697996
11.238910 11.104695 1.219446 11697996
9.116934 10.181969 2.600282 11697996
9.632640 9.735118 2.732323 11697996
9.371097 9.751558 1.685525 11697996
9.349808 10.838432 3.582639 11697996
10.705611 8.859865 2.776355 11697996
10.164454 9.322104 1.602641 11697996
10.943336 10.712046 3.831038 11697996
9.097897 9.450009 3.340159 11697996
10.084805 9.647427 0.890921 11697996
9.233374 10.916388 0.458026 11697996
9.010726 11.024819 1.961637 11697996
10.937515 10.844069 1.354968 11697996
9.862387 9.223794 3.191143 11697996
10.386638 9.830109 1.348247 11697996
10.289621 9.889505 3.901245 11697996
9.430845 9.092899 3.588568 11697996
9.765528 10.478801 3.204724 11697996
8.979486 9.815788 2.815093 11697996
10.327285 11.012597 0.436665 11697996
10.106271 10.956574 3.008838 11697996
9.014099 9.472940 0.256097 11697996
8.768501 10.171582 0.971596 11697996
9.707673 10.653286 0.567550 11697996
10.367008 10.150206 3.280919 11697996
9.122080 10.223289 3.651337 11697996
11.224457 10.277180 2.521856 11697996
10.915204 10.032070 2.825568 11697996
10.163501 9.974890 0.143718 11697996
10.531260 9.455888 1.670053 11697996
9.095070 9.133301 0.515941 11697996
8.923563 10.879757 0.513404 11697996
9.121909 10.235305 2.260102 11697996
9.787865 10.625825 2.017290 11697996
10.918940 9.400230 3.401374 11697996
8.992486 10.768533 2.035608 11697996
8.851969 10.124292 2.783500 11697996
9.746042 10.101194 0.634197 11697996
10.735215 10.682399 0.481417 11697996
9.342042 10.067218 3.250409 11697996
8.782052 8.949312 1.688299 11697996
9.624399 9.750986 1.438152 11697996
9.589898 11.107289 2.479268 11697996
11.052410 9.868115 2.818591 11697996
9.460407 9.414845 2.588388 11697996
9.343251 9.624818 1.698952 11697996
10.551916 11.198644 0.400726 11697996
9.280458 8.903869 3.425045 11697996
10.553575 9.800528 2.299248 11697996
9.993332 10.651044 1.579353 11697996
9.773249 11.145645 2.140058 11697996
10.614319 11.015762 2.293498 11697996
9.729287 11.103024 3.436549 11697996
10.123825 8.953742 0.093350 11697996
9.762841 10.486793 1.650320 11697996
8.882938 9.780522 2.781875 11697996
10.141455 9.888507 2.376598 11697996
10.938267 9.911670 1.857895 11697996
10.136266 10.690267 1.095008 11697996
9.254591 8.985565 3.192471 11697996
9.656395 9.617066 0.813494 11697996
9.776481 10.162469 1.017573 11697996
10.023016 9.890643 2.425594 11697996
11.217748 10.542115 3.311927 11697996
9.627896 9.976911 1.901145 11697996
10.663245 8.855797 0.224348 11697996
11.140394 9.351276 0.028750 11697996
11.128768 9.315717 0.847623 11697996
9.728666 10.290203 1.572184 11697996
10.411014 8.977694 0.694944 11697996
11.127448 8.863962 2.772590 11697996
11.183682 9.412939 3.281371 11697996
11.095815 9.216965 2.085893 11697996
11.189535 10.715474 3.942614 11697996
10.542728 9.711632 2.579739 11697996
10.105906 10.151645 0.337008 11697996
10.798497 10.486065 1.378667 11697996
9.546988 8.825601 1.545451 11697996
9.318658 9.966776 3.430387 11697996
10.733422 10.512832 2.094083 11697996
10.904333 8.817578 2.279551 11697996
9.021595 8.880948 3.382323 11697996
10.203947 10.777086 0.439103 11697996
11.135108 10.944879 3.496571 11697996
10.634052 10.465665 3.049199 11697996
9.353095 9.997554 3.411459 11697996
10.392420 11.123385 0.767653 11697996
10.076853 9.380473 0.878007 11697996
10.567993 10.379063 1.668305 11697996
10.014273 10.135869 3.401160 11697996
9.614240 10.066111 2.763277 11697996
10.515065 9.131343 1.174494 11697996
9.980136 9.592396 1.776875 11697996
10.772985 10.242091 1.763193 11697996
10.675318 11.055354 0.933027 11697996
11.081306 9.852697 2.069244 11697996
10.485784 10.175212 1.538026 11697996
11.045711 9.296950 3.913414 11697996
9.195925 9.712604 2.557198 11697996
10.516799 10.285040 2.309742 11697996
9.563031 10.832735 1.722972 11697996
10.497336 9.515750 3.985094 11697996
10.315082 10.322599 1.575867 11697996
9.274180 9.777334 0.330255 11697996
9.038970 10.656384 2.490983 11697996
11.063340 10.995815 2.997539 11697996
9.306813 9.518991 0.089533 11697996
9.403811 10.517168 2.611697 11697996
9.237751 10.086492 -0.000816 11697996
10.382933 9.604020 0.264621 11697996
9.913812 11.023194 1.111834 11697996
10.087392 9.888802 0.965693 11697996
9.979200 9.874275 1.784499 11697996
8.914877 9.044900 0.527462 11697996
10.208827 10.357016 3.594932 11697996
10.777472 10.454837 1.511478 11697996
9.317973 10.542767 3.027982 11697996
8.976632 9.294824 3.947902 11697996
9.292127 9.358002 3.756539 11697996
10.490161 10.327255 0.163668 11697996
11.194102 11.051914 2.773643 11697996
10.143162 10.427976 4.027343 11697996
9.044349 11.041092 2.447232 11697996
9.982990 10.581123 1.060933 11697996
10.708850 10.397191 0.985135 11697996
10.307193 9.852654 1.940991 11697996
9.257244 9.888216 3.092475 11697996
10.837261 9.968119 1.289732 11697996
11.218009 8.855345 0.119876 11697996
9.314663 9.573876 1.892392 11697996
9.435147 10.247066 3.937952 11697996
10.632874 10.946610 2.727787 11697996
9.796818 9.405090 2.241318 11697996
11.202058 10.747386 1.659020 11697996
9.105153 10.768167 0.261313 11697996
9.662711 9.703458 0.157076 11697996
9.694643 9.006213 2.253658 11697996
9.863887 11.044679 3.555507 11697996
10.651598 9.129972 3.471422 11697996
9.459498 10.139085 1.864409 11697996
9.665627 9.844202 3.421673 11697996
10.193544 9.584944 3.198001 11697996
10.864395 8.788096 0.600218 11697996
10.156310 9.807618 1.625219 11697996
9.443562 8.990041 3.371813 11697996
10.089768 10.811885 2.295108 11697996
10.145430 9.887166 3.398648 11697996
9.804486 9.051305 3.017604 11697996
11.162720 9.582119 1.198428 11697996
9.202920 9.615764 2.735448 11697996
9.078011 10.071215 1.803678 11697996
11.038491 10.276185 3.389814 11697996
9.081285 9.586575 0.178244 11697996
10.608873 9.798367 1.375820 11697996
10.999956 10.149995 0.079006 11697996
10.461852 10.184845 2.305366 11697996
10.435326 10.576544 2.602361 11697996
10.941329 9.762441 3.743148 11697996
9.430360 10.754463 3.120700 11697996
8.780957 9.797891 3.748341 11697996
10.411660 9.071436 0.415741 11697996
8.861610 9.598079 0.139388 11697996
10.941841 9.921460 1.896971 11697996
10.435277 10.342202 1.419093 11697996
9.017214 9.161872 1.531384 11697996
11.014970 8.970395 1.389292 11697996
9.209687 10.489213 1.192548 11697996
9.535573 11.060842 0.771259 11697996
10.636027 10.969421 2.837102 11697996
11.144635 10.755177 0.141550 11697996
9.160823 8.875587 0.240211 11697996
9.883865 10.002652 3.836738 11697996
10.461776 9.549911 2.679998 11697996
11.042884 10.879470 2.926952 11697996
9.982141 10.791461 0.083583 11697996
10.302693 9.059601 0.282295 11697996
10.432622 10.907855 1.001102 11697996
8.743704 9.430751 0.778264 11697996
9.369179 11.069016 1.216180 11697996
10.745872 9.009064 1.532374 11697996
9.990951 10.649859 0.414713 11697996
10.705776 9.824866 1.705081 11697996
10.271756 10.075619 3.894816 11697996
10.654164 9.383892 3.077063 11697996
10.141374 11.168100 0.304186 11697996
9.038445 9.875556 1.704134 11697996
9.555307 10.119655 3.817676 11697996
9.739700 10.769930 1.273916 11697996
11.032825 11.013666 0.438489 11697996
10.245380 9.184800 2.161373 11697996
8.756566 9.138813 1.837102 11697996
8.787343 9.222059 1.239584 11697996
8.873710 9.577950 2.097250 11697996
9.366226 10.862702 1.809533 11697996
9.011512 10.304510 2.088625 11697996
8.970074 10.654903 1.969629 11697996
9.183450 10.546923 0.339658 11697996
10.121780 11.155873 2.704293 11697996
9.322329 10.138076 3.527306 11697996
11.106103 10.546132 2.649800 11697996
10.735415 9.776748 0.654260 11697996
9.618567 8.994064 2.020294 11697996
10.349526 10.270672 3.014996 11697996
10.187061 9.203256 1.920818 11697996
11.236097 9.866654 1.993228 11697996
11.081116 9.248053 2.232140 11697996
9.992074 10.984698 1.733434 11697996
11.201911 9.496802 1.496626 11697996
9.976426 9.174663 1.415281 11697996
10.674996 10.548977 3.142007 11697996
11.088045 11.196323 3.776844 11697996
9.935626 9.212027 3.622989 11697996
11.193386 11.179343 0.600145 11697996
9.160282 9.232586 3.885408 11697996
10.807085 10.254198 2.571682 11697996
10.162404 10.175490 0.337993 11697996
9.831636 10.235284 0.598038 11697996
10.350475 8.744962 0.312248 11697996
10.443636 9.618209 2.683574 11697996
9.464826 9.147648 2.366270 11697996
8.788952 10.475974 3.907309 11697996
10.877040 10.104351 2.879771 11697996
10.571843 11.030078 3.492424 11697996
9.070457 9.740722 3.623761 11697996
8.809910 9.485454 0.849472 11697996
9.304190 10.810029 2.028643 11697996
10.163252 9.535155 2.915896 11697996
9.663488 9.823585 0.638823 11697996
11.079071 9.801169 2.115810 11697996
10.071132 10.321355 2.285824 11697996
10.737797 11.114681 1.865452 11697996
10.167727 9.666499 3.220693 11697996
8.817701 9.178437 0.240758 11697996
10.783566 9.775595 3.099482 11697996
11.192907 8.779198 1.023285 11697996
9.694583 10.486703 2.721617 11697996
10.920677 10.518024 1.893656 11697996
9.791426 10.783676 3.970359 11697996
10.669499 10.413740 0.124911 11697996
11.059007 9.013186 1.033521 11697996
10.216181 9.194005 0.948041 11697996
10.215500 11.108932 2.412461 11697996
9.528671 10.998209 0.772077 11697996
9.585950 10.608248 0.780473 11697996
9.052626 8.976764 1.443949 11697996
10.749580 9.799582 2.762497 11697996
10.470467 10.012025 2.197561 11697996
10.557878 8.827071 2.515799 11697996
9.002918 11.195748 1.100431 11697996
9.609989 10.103626 3.564152 11697996
9.661407 10.946795 2.874568 11697996
10.565269 9.137822 0.992522 11697996
8.829134 9.156364 1.160594 11697996
11.094666 10.710169 1.726610 11697996
8.935068 9.656487 3.334921 11697996
10.709804 9.127815 2.207081 11697996
10.674870 9.868049 3.814634 11697996
8.891553 9.422799 1.899027 11697996
9.995522 9.289479 1.353786 11697996
10.557897 9.891123 0.751430 11697996
9.536789 10.787781 3.143988 11697996
9.199563 9.570190 3.062752 11697996
10.166948 9.452007 2.894183 11697996
11.198894 9.868359 0.512062 11697996
10.852336 9.498113 0.467871 11697996
9.996212 11.165318 0.775465 11697996
9.611236 9.337014 0.550794 11697996
9.510381 9.581695 3.562220 11697996
9.734352 9.343035 3.484492 11697996
9.866827 10.002702 3.158343 11697996
9.252664 9.743337 2.398585 11697996
9.608425 9.356875 1.787107 11697996
8.787857 10.004349 0.789990 11697996
10.823201 10.563446 0.107601 11697996
8.884530 10.720140 0.357381 11697996
11.094157 11.173280 3.645563 11697996
10.413870 9.261672 1.192230 11697996
10.349112 8.861143 3.466207 11697996
11.170461 11.237492 3.810121 11697996
10.975885 9.816090 1.201583 11697996
11.071273 9.365429 2.896218 11697996
10.013151 10.900683 3.832654 11697996
9.984413 9.940533 2.952476 11697996
10.676030 11.000163 1.456851 11697996
9.900467 10.950198 0.932542 11697996
9.824371 9.611228 2.268045 11697996
10.766392 9.303985 3.287259 11697996
9.469679 9.682192 0.265186 11697996
10.483507 9.082871 2.413590 11697996
8.820697 9.334014 1.317105 11697996
10.535089 9.543475 3.652266 11697996
11.061061 9.080811 1.236218 11697996
10.334546 8.791396 1.710034 11697996
10.891981 10.744153 2.698057 11697996
9.591668 8.978843 1.284703 11697996
8.808025 9.686303 0.400125 11697996
8.859502 9.093920 3.144979 11697996
10.584065 10.724221 2.102705 11697996
10.449116 9.839978 1.363179 11697996
10.393208 8.966043 3.747487 11697996
10.328104 10.700456 2.360082 11697996
11.033314 8.828862 0.165090 11697996
9.051074 9.487345 2.732388 11697996
10.473972 9.743241 2.960856 11697996
10.764605 10.260851 3.129992 11697996
10.402751 8.992046 1.390458 11697996
10.119390 9.675759 2.005255 11697996
9.540924 11.053681 1.927529 11697996
9.747995 9.448567 1.381557 11697996
9.308103 10.518315 3.809577 11697996
10.900537 9.672480 0.702501 11697996
9.784593 10.591033 2.594325 11697996
8.855006 9.850327 1.587390 11697996
10.242620 10.307917 3.770641 11697996
8.764977 9.743458 1.654874 11697996
9.384982 10.171328 1.819567 11697996
9.490820 9.562828 0.060424 11697996
9.870580 10.154266 1.835872 11697996
9.483757 8.767073 2.157282 11697996
9.436152 10.107512 0.419487 11697996
9.313124 8.790519 3.959084 11697996
8.920082 10.367552 2.394377 11697996
9.622375 10.061015 1.700146 11697996
9.276802 9.897488 0.908705 11697996
10.720757 10.818544 1.388016 11697996
11.182425 9.877537 3.187223 11697996
10.538163 10.224879 1.272520 11697996
8.929970 10.610278 3.724889 11697996
10.556145 10.224454 2.742277 11697996
9.663479 9.289451 3.526370 11697996
10.965501 11.137293 0.950539 11697996
10.385260 10.639418 2.614933 11697996
10.172900 10.654596 1.220092 11697996
10.479136 9.456532 2.195293 11697996
9.885582 9.359595 0.079255 11697996
9.578888 10.694707 0.585170 11697996
10.372726 9.280511 0.267402 11697996
8.995278 10.777625 0.481800 11697996
10.410625 10.920614 1.960961 11697996
10.064360 9.035825 2.647682 11697996
10.210952 9.207107 3.778704 11697996
10.851624 9.850487 2.864554 11697996
10.333755 11.163186 1.082698 11697996
10.994658 9.055347 0.508822 11697996
11.134723 10.039066 1.422446 11697996
9.368320 10.225885 3.586463 11697996
9.036631 8.785173 1.262682 11697996
10.374531 10.534935 1.376100 11697996
8.923223 8.929524 3.268917 11697996
10.242431 9.197052 3.902664 11697996
9.095544 10.303451 2.620598 11697996
9.213834 9.809220 0.674259 11697996
9.870898 11.066833 3.319537 11697996
8.999191 10.323298 3.263489 11697996
8.811392 11.259128 2.917438 11697996
9.399632 10.299420 3.569338 11697996
11.153293 11.222175 0.489733 11697996
8.953211 9.259616 0.662582 11697996
10.250217 9.001152 3.657470 11697996
10.417102 11.104642 0.578449 11697996
8.769183 9.830790 3.644870 11697996
10.143502 10.364319 3.549664 11697996
9.595656 10.214032 1.126053 11697996
9.684460 8.785854 3.119033 11697996
10.012520 9.488174 3.106741 11697996
10.556116 9.825013 2.833772 11697996
9.358798 9.005988 1.077071 11697996
10.805952 11.103464 1.613183 11697996
9.925948 9.348638 3.110435 11697996
10.355657 9.422235 1.324814 11697996
10.388209 10.912791 3.320285 11697996
8.818643 9.695232 1.915017 11697996
9.219019 10.812702 3.053655 11697996
9.370860 10.772964 1.283038 11697996
9.285733 9.872479 2.337526 11697996
11.093657 9.010928 0.178321 11697996
10.127599 8.996073 1.890887 11697996
10.697440 9.901719 1.104491 11697996
10.332268 10.175613 0.614425 11697996
10.956418 9.689387 3.081844 11697996
8.853848 10.625861 1.557764 11697996
10.178591 9.630970 3.024742 11697996
8.993297 10.491354 3.377508 11697996
10.222084 10.455770 -0.012165 11697996
9.094812 10.380555 2.128784 11697996
9.817570 10.482828 1.628309 11697996
10.054315 9.876125 1.471110 11697996
10.865973 9.914814 1.281200 11697996
9.483431 8.971929 1.820486 11697996
10.582677 9.217631 2.203572 11697996
11.186788 10.323227 3.096219 11697996
11.241379 9.356382 3.464226 11697996
9.967768 9.052325 1.574681 11697996
10.964336 9.826344 1.135763 11697996
11.231421 10.034786 0.403152 11697996
9.874051 8.770192 2.279137 11697996
10.026905 9.495441 2.358193 11697996
9.974580 10.742443 1.732731 11697996
9.919238 9.962077 2.864573 11697996
9.939319 10.687161 3.768648 11697996
10.728337 9.328118 2.496276 11697996
9.468858 8.936332 0.239273 11697996
9.314980 8.872611 0.502080 11697996
