# .PCD v0.7 - Point Cloud Data file format
VERSION 0.7
FIELDS x y z rgb
SIZE 4 4 4 4
TYPE F F F U
COUNT 1 1 1 1
WIDTH 1291
HEIGHT 1
VIEWPOINT 0 0 0 1 0 0 0
POINTS 1291
DATA ascii
9.150099 10.820375 2.287441 11697996
9.109770 9.084059 1.468987 11697996
9.978936 9.168030 0.391276 11697996
9.786862 10.132231 1.491707 11697996
9.362104 10.355055 1.659914 11697996
11.136381 10.070875 2.768034 11697996
10.275444 9.592377 0.224092 11697996
9.360967 9.213638 0.209799 11697996
10.870365 10.760757 0.430332 11697996
11.032905 10.962688 3.464252 11697996
10.623760 9.548367 3.573386 11697996
10.548769 9.217718 3.982623 11697996
9.659408 10.489235 2.577738 11697996
10.426176 10.787764 0.968300 11697996
10.470713 9.737474 0.766459 11697996
10.859529 10.745543 0.817738 11697996
10.804072 9.697741 1.222773 11697996
10.237081 10.105678 0.781895 11697996
10.519647 9.689479 0.270687 11697996
9.042891 8.968102 3.157434 11697996
10.147129 10.783325 0.658162 11697996
9.921509 9.907291 1.943442 11697996
9.070797 11.207034 1.742458 11697996
8.735961 10.124652 2.785340 11697996
8.983896 11.161052 1.950311 11697996
9.981859 10.631649 3.851392 11697996
10.172094 9.193103 0.964730 11697996
10.465082 9.589182 1.760121 11697996
9.710070 9.055631 2.772561 11697996
10.588029 8.794497 3.742673 11697996
9.419757 10.090096 1.874613 11697996
8.912964 8.827047 0.351282 11697996
11.064108 10.730262 3.607422 11697996
9.926431 10.301504 2.314889 11697996
9.450623 10.941791 0.651372 11697996
9.219319 9.404854 1.418000 11697996
8.772348 10.408378 2.170559 11697996
9.523580 11.062700 3.404073 11697996
9.262610 9.650409 2.704355 11697996
10.759068 9.806933 1.799163 11697996
9.563384 10.812470 1.166777 11697996
11.170739 9.056118 1.291295 11697996
10.675991 9.244729 1.460166 11697996
9.800337 10.914296 2.159299 11697996
10.939906 8.843396 1.145912 11697996
10.208513 11.217650 2.092961 11697996
10.845012 9.979671 2.899382 11697996
10.250313 10.634485 3.586410 11697996
10.040458 10.438193 2.806034 11697996
8.818695 8.990758 3.196712 11697996
10.998265 10.561163 1.159268 11697996
9.654481 10.287491 3.892838 11697996
10.131940 9.666963 0.916908 11697996
10.225122 10.059305 2.902759 11697996
8.792686 10.141430 2.932017 11697996
10.820338 9.294150 1.664902 11697996
10.442666 9.613340 1.106618 11697996
9.075852 8.913981 2.749321 11697996
9.314485 8.934829 2.764011 11697996
10.118596 8.824499 1.262578 11697996
10.815845 9.277300 -0.004706 11697996
10.089603 10.581753 3.263652 11697996
10.791889 10.025725 3.322093 11697996
9.882646 10.451897 2.012761 11697996
9.225710 9.262784 2.143993 11697996
8.950829 10.853974 3.886024 11697996
10.681178 9.600605 1.261526 11697996
9.237987 10.243595 1.277778 11697996
10.074533 10.793338 2.031252 11697996
11.084437 11.045307 1.213983 11697996
9.152388 10.382250 2.471084 11697996
9.574874 9.047657 1.766230 11697996
10.903407 9.532152 0.558300 11697996
9.613007 8.959102 2.804175 11697996
10.453399 11.260025 0.589469 11697996
11.124209 10.053378 1.920332 11697996
11.217921 9.731016 2.420289 11697996
10.585042 8.777469 1.214992 11697996
10.432438 11.033751 1.770193 11697996
11.204426 9.305776 0.399682 11697996
10.648724 10.625203 1.909131 11697996
9.728656 9.583683 1.410538 11697996
10.621494 9.752920 0.473906 11697996
10.733109 9.701540 0.232571 11697996
9.571757 11.212013 2.461444 11697996
9.604568 11.033705 2.380658 11697996
9.334563 8.754839 3.183183 11697996
10.877501 9.800154 1.086483 11697996
9.857279 10.617503 1.569205 11697996
9.923763 9.171475 3.300063 11697996
10.431237 10.959423 0.867659 11697996
8.736510 11.081435 0.092189 11697996
10.608356 8.954048 1.503217 11697996
10.612288 8.943746 2.472118 11697996
9.778769 9.298625 3.645909 11697996
11.087635 10.208529 2.046448 11697996
11.044064 11.040323 0.022146 11697996
11.085924 9.086370 2.012383 11697996
10.197515 9.788626 2.030345 11697996
10.003408 9.293587 0.203261 11697996
8.868085 9.157586 2.062881 11697996
9.645459 9.679008 0.180085 11697996
8.758447 9.540994 1.875681 11697996
10.481504 8.824536 1.744833 11697996
9.114125 9.570885 0.316544 11697996
11.030480 8.797850 3.782163 11697996
10.575871 8.983438 1.887299 11697996
10.154966 9.212800 2.551764 11697996
9.275365 8.945348 0.173990 11697996
9.903148 10.671283 2.431433 11697996
9.197474 10.582619 3.013381 11697996
9.915527 10.418315 1.856738 11697996
9.090195 9.703501 1.758269 11697996
9.719403 10.415583 0.375131 11697996
10.036372 10.909506 2.383931 11697996
10.706500 9.956619 2.193537 11697996
9.734264 10.388866 3.603365 11697996
9.550735 10.278883 3.973016 11697996
8.871512 10.696012 1.039054 11697996
10.058126 10.850039 1.504960 11697996
8.761327 9.725204 0.367356 11697996
8.917434 9.874012 1.404570 11697996
10.406415 8.980267 2.574794 11697996
10.631668 10.830486 0.099152 11697996
11.190074 10.218733 1.779977 11697996
10.713054 10.144442 0.539501 11697996
11.188003 8.738850 2.267376 11697996
10.987286 9.309052 0.427142 11697996
8.957848 10.433408 1.626303 11697996
10.570837 10.656350 0.978264 11697996
10.731586 10.029938 2.790987 11697996
10.760844 10.117599 1.660662 11697996
10.229487 10.704729 3.562112 11697996
10.249365 11.109280 3.096165 11697996
9.219583 10.720776 1.181581 11697996
11.175992 9.510086 -0.002739 11697996
10.401138 8.798450 0.682986 11697996
9.884777 10.085320 3.793787 11697996
9.800352 10.005101 3.302925 11697996
10.812657 11.136127 1.436237 11697996
10.104342 8.894607 0.099256 11697996
10.183295 10.604194 1.214574 11697996
10.594968 9.318828 2.030281 11697996
10.908837 9.845357 1.262647 11697996
8.755038 10.576577 1.211368 11697996
10.674626 9.677405 1.818616 11697996
10.844438 9.712055 3.640562 11697996
9.700631 9.132304 3.454116 11697996
9.720630 8.885605 3.216561 11697996
11.258371 9.059736 3.908447 11697996
9.272793 9.162367 2.725823 11697996
10.344418 10.673377 1.017753 11697996
10.280824 10.140905 0.917821 11697996
11.125167 11.148253 3.641568 11697996
9.463155 11.009353 3.389604 11697996
10.475551 9.507244 2.838979 11697996
11.139071 9.667204 0.625536 11697996
9.967520 9.140492 2.447289 11697996
10.740763 9.823554 0.132980 11697996
10.420504 11.125156 0.704366 11697996
9.227146 9.406417 2.066742 11697996
10.727436 11.023614 0.775345 11697996
9.723948 8.913269 1.936779 11697996
11.105860 9.046382 2.915617 11697996
10.968282 9.811539 0.469761 11697996
10.649248 11.226297 2.769975 11697996
9.246056 10.966316 0.350907 11697996
8.996865 9.490384 0.697743 11697996
10.262743 9.472364 1.671416 11697996
9.931018 8.955568 0.018757 11697996
9.711276 9.027378 0.685391 11697996
10.804242 8.978708 0.544918 11697996
9.767017 11.047490 0.906703 11697996
11.142346 10.911016 1.822767 11697996
10.040624 8.835885 3.412076 11697996
8.923854 10.706462 2.163932 11697996
10.104819 8.898842 1.556646 11697996
10.605684 10.206236 2.197841 11697996
10.566436 10.160711 2.123453 11697996
10.920041 9.584268 3.893438 11697996
10.558693 10.748003 3.879067 11697996
8.996467 9.591662 2.341453 11697996
9.886747 10.230922 2.225061 11697996
9.964132 10.863465 2.863294 11697996
10.294664 9.290512 0.029762 11697996
9.802995 8.763474 3.446401 11697996
9.888215 8.777834 1.808006 11697996
10.555883 9.418864 0.918416 11697996
10.412817 10.195851 1.382895 11697996
9.848924 10.616200 0.928772 11697996
10.764823 8.888407 2.535411 11697996
10.848200 11.245192 3.686451 11697996
11.030945 10.698390 1.335070 11697996
10.572775 11.036956 3.512453 11697996
11.189599 10.879519 3.807203 11697996
10.903551 10.181375 2.189725 11697996
9.791148 10.587718 0.135214 11697996
10.699710 9.658748 3.067317 11697996
9.145160 10.204260 3.419542 11697996
11.145584 10.479169 3.715874 11697996
10.082781 10.800886 0.175498 11697996
9.417769 9.441824 0.222188 11697996
10.441845 10.223278 0.756852 11697996
10.201719 10.697997 0.033440 11697996
9.001944 11.078348 1.847389 11697996
9.357672 9.664750 0.100774 11697996
9.486518 8.792862 3.849587 11697996
10.327049 10.214005 3.785596 11697996
9.629603 11.010284 3.385978 11697996
11.181823 9.782645 0.816320 11697996
9.545672 9.734090 0.805631 11697996
10.597651 10.497338 2.041488 11697996
10.199353 8.851386 2.237020 11697996
10.013754 10.659215 1.639558 11697996
10.357950 9.827666 0.677636 11697996
9.825352 11.187662 0.431249 11697996
10.720761 9.764246 1.134502 11697996
10.457973 9.677427 3.583063 11697996
9.836486 10.543364 2.282172 11697996
11.235168 9.892481 0.338849 11697996
9.728642 9.300422 1.407232 11697996
9.020517 10.382839 3.596765 11697996
9.909932 9.080851 2.207459 11697996
11.252164 9.547626 1.029691 11697996
9.009198 9.896227 1.570875 11697996
11.176099 9.977620 0.250326 11697996
9.180447 11.105437 2.548360 11697996
10.808666 9.632232 1.816480 11697996
10.520452 10.532962 0.267618 11697996
10.719340 10.711555 2.398288 11697996
10.518075 10.084057 1.804448 11697996
11.194197 9.041372 0.934853 11697996
9.613727 11.115195 0.163419 11697996
9.574000 10.108354 3.723387 11697996
10.097450 9.721225 2.405065 11697996
9.400828 10.822298 2.701298 11697996
11.031234 10.476519 1.306268 11697996
9.045142 9.033518 0.978240 11697996
8.998692 10.351925 2.547858 11697996
10.784062 9.318230 0.060827 11697996
10.219235 10.610419 2.713704 11697996
9.647657 8.788095 3.533678 11697996
10.645445 10.435005 0.585993 11697996
10.695035 8.917862 2.199291 11697996
9.760449 10.104754 1.061028 11697996
10.094934 9.191264 2.329814 11697996
9.519130 9.729297 1.447671 11697996
8.983935 9.264456 0.231260 11697996
10.312227 9.854624 2.298982 11697996
10.816312 10.553926 3.727372 11697996
9.541927 9.278037 0.095309 11697996
9.582027 10.248015 0.510038 11697996
10.494465 9.272095 1.151093 11697996
9.440286 9.287357 2.765784 11697996
10.080982 9.192935 3.853924 11697996
11.132472 9.966684 2.700215 11697996
10.844708 9.603817 1.431553 11697996
10.138560 10.693316 3.799757 11697996
10.311549 10.783304 1.980438 11697996
10.941369 10.467820 1.434102 11697996
11.140384 10.817088 0.703425 11697996
9.715465 10.513128 1.082843 11697996
8.982784 9.845253 3.475401 11697996
11.081139 9.509230 3.166667 11697996
9.452218 10.720227 2.749882 11697996
10.206305 9.642301 1.956399 11697996
10.447172 9.185079 2.832126 11697996
11.227475 8.770793 3.287670 11697996
11.213378 9.967001 1.414915 11697996
10.393654 10.988628 0.421105 11697996
9.690177 11.134751 3.065187 11697996
9.620670 10.615471 1.484577 11697996
10.701288 9.441228 2.453655 11697996
10.186120 10.518600 3.932374 11697996
10.183372 10.848804 3.568837 11697996
9.198765 10.203876 2.129314 11697996
11.168889 11.001513 0.427622 11697996
10.290935 9.378803 3.729823 11697996
11.209980 9.625251 1.491030 11697996
10.344018 11.216471 3.766318 11697996
9.986248 9.603344 3.602097 11697996
11.138431 9.874499 0.673306 11697996
9.372183 9.083819 1.087313 11697996
10.200244 10.739017 0.401731 11697996
11.269079 10.339927 0.741261 11697996
9.743889 9.544853 1.445017 11697996
10.653831 9.064886 0.827691 11697996
9.302378 9.879780 3.635997 11697996
11.063832 9.624498 0.757390 11697996
9.556225 8.782991 3.789982 11697996
10.509776 9.245720 0.830078 11697996
9.003723 9.961697 3.935205 11697996
8.777637 11.191477 3.354684 11697996
8.811571 11.099358 0.958936 11697996
9.799456 10.028707 3.279441 11697996
9.856855 9.802467 1.687679 11697996
11.150009 10.765486 2.563712 11697996
9.153402 9.795501 2.281285 11697996
10.568523 9.292105 0.176559 11697996
10.947730 9.445827 0.016153 11697996
9.313685 9.417407 2.544130 11697996
11.140686 10.392046 1.023573 11697996
10.889491 10.184819 3.602338 11697996
10.504103 10.246533 3.499992 11697996
10.970651 9.496175 3.213233 11697996
9.920621 9.491328 3.853175 11697996
10.342341 10.589166 1.395186 11697996
9.004951 9.195948 2.701052 11697996
10.724642 9.356771 3.024120 11697996
10.900542 9.925661 1.407617 11697996
10.418076 8.830786 1.173180 11697996
10.712447 10.080324 1.365352 11697996
9.775993 9.807963 2.772773 11697996
11.098268 9.181702 0.675525 11697996
10.991438 11.222028 0.873361 11697996
9.152171 8.781070 1.636301 11697996
9.512791 11.166219 2.116743 11697996
10.739214 9.480395 1.058800 11697996
9.045826 9.321493 2.123300 11697996
10.383569 9.000677 1.318005 11697996
9.580560 9.623966 0.079723 11697996
10.351885 10.115555 1.605631 11697996
10.529956 9.501853 2.821199 11697996
11.088303 10.865000 1.717423 11697996
10.805477 11.113318 3.549387 11697996
9.433802 9.055082 0.062724 11697996
9.581595 8.989451 2.080883 11697996
10.020109 9.785356 3.334200 11697996
9.334771 10.287068 1.515746 11697996
8.898475 11.186036 2.833732 11697996
9.726580 9.364354 1.660385 11697996
9.300759 9.559549 3.858706 11697996
9.638412 8.858599 3.233898 11697996
10.293865 10.873489 2.040960 11697996
9.821274 9.368543 0.835292 11697996
9.360477 11.158674 1.978863 11697996
10.937373 9.274508 3.378453 11697996
9.566704 9.686986 3.027185 11697996
9.317010 9.812843 1.961436 11697996
9.011530 9.404095 1.662508 11697996
8.901587 10.359358 3.517441 11697996
8.995627 9.317183 2.454239 11697996
9.342870 9.889233 3.714437 11697996
10.500456 10.893633 3.694992 11697996
10.055099 10.360300 2.934141 11697996
10.108164 10.708407 0.062621 11697996
10.575212 9.223064 2.102918 11697996
8.785982 11.208333 0.422303 11697996
9.677836 10.790777 0.076250 11697996
10.941051 9.044388 0.968376 11697996
9.314398 8.959949 1.206474 11697996
10.895257 9.062464 3.790913 11697996
10.912767 10.878401 1.229807 11697996
9.862267 9.133694 3.931491 11697996
8.767184 9.320272 3.122034 11697996
10.417164 9.266759 0.762022 11697996
10.259571 9.314336 1.143936 11697996
10.945924 9.129605 0.374160 11697996
9.093287 9.945573 1.532147 11697996
9.835598 11.165457 2.236847 11697996
10.485682 10.890731 2.288383 11697996
9.555203 10.621260 1.243087 11697996
10.247113 9.753249 3.899292 11697996
9.446403 10.216765 1.389503 11697996
9.860097 10.695234 0.358703 11697996
10.122212 9.262218 3.653234 11697996
11.063578 9.954876 1.044418 11697996
10.664708 10.134256 2.391052 11697996
9.508023 9.999104 1.705677 11697996
11.046165 9.848673 2.198287 11697996
11.278450 11.093474 1.059849 11697996
11.128110 11.072240 3.721337 11697996
11.143539 10.913610 3.067142 11697996
9.341599 9.636353 3.015587 11697996
8.861767 10.270728 2.757363 11697996
10.591454 8.987024 1.551716 11697996
11.127544 11.093432 2.261860 11697996
8.797966 10.803978 1.963497 11697996
10.453381 9.469128 1.484544 11697996
9.790574 10.182647 0.137932 11697996
8.888887 10.785929 3.870797 11697996
10.469759 9.113927 3.250266 11697996
10.991958 10.185241 3.548556 11697996
11.183918 8.889686 1.529104 11697996
10.937652 11.052005 0.755881 11697996
10.975567 9.703429 3.095473 11697996
10.555389 10.398687 3.577337 11697996
10.775600 10.296554 3.884471 11697996
9.523439 9.632658 0.614777 11697996
10.170836 10.587864 2.078413 11697996
10.013904 9.234419 0.637001 11697996
9.838312 8.921369 1.356013 11697996
8.765847 10.352224 1.029926 11697996
9.232112 11.084817 2.109280 11697996
10.454161 9.901376 1.975995 11697996
9.725424 9.826443 0.693635 11697996
9.477333 9.878899 2.359331 11697996
10.664970 9.456011 0.367576 11697996
10.576457 9.333685 1.875819 11697996
10.364931 11.132524 2.684173 11697996
10.371164 10.981369 2.432604 11697996
10.020436 10.234116 2.983310 11697996
9.656794 9.888440 1.234460 11697996
9.518346 10.662668 1.502900 11697996
9.062884 9.878962 2.676618 11697996
10.191798 9.531172 0.849383 11697996
10.853573 10.629584 1.985841 11697996
11.125976 10.582882 1.215458 11697996
10.187644 10.633605 3.679440 11697996
9.478722 9.403357 3.669326 11697996
10.462042 8.823936 2.619084 11697996
9.024248 10.196849 3.927815 11697996
10.899519 10.130795 3.900156 11697996
10.443040 10.824840 0.067863 11697996
11.074246 9.379825 3.895917 11697996
10.423054 10.314102 0.817919 11697996
11.172548 10.577942 3.752738 11697996
10.633291 9.442209 3.039927 11697996
10.718262 8.895920 3.501137 11697996
10.996881 9.796141 1.004503 11697996
9.332910 10.778703 0.582063 11697996
9.840217 9.969379 3.156010 11697996
8.989691 8.804730 3.651178 11697996
11.241914 10.277950 2.806266 11697996
9.679224 10.990546 2.372638 11697996
10.531515 9.825665 2.692829 11697996
10.281260 10.743413 2.979814 11697996
8.843866 8.850792 2.758013 11697996
10.636728 11.079121 1.939119 11697996
8.777219 9.069212 2.736108 11697996
9.300853 10.468394 2.155126 11697996
9.415750 9.022008 0.731895 11697996
9.175764 9.238583 2.221016 11697996
10.802069 9.220422 3.700983 11697996
11.167332 9.645072 0.273295 11697996
9.943247 10.381963 3.531952 11697996
9.294581 10.403398 2.203143 11697996
9.613257 9.089704 2.219841 11697996
10.604330 10.685178 0.060440 11697996
11.066936 11.161853 2.814519 11697996
10.687700 11.229223 0.052441 11697996
10.811506 10.016628 3.961091 11697996
10.191780 10.748283 3.831435 11697996
9.916831 8.775434 1.243415 11697996
10.907165 9.035339 3.173603 11697996
8.806067 9.508760 1.444907 11697996
9.970754 8.944320 1.287406 11697996
9.083978 10.320577 0.460423 11697996
10.772009 9.169057 3.320599 11697996
10.155940 9.571430 2.065988 11697996
9.678133 10.087467 3.968378 11697996
11.221601 11.200272 3.963217 11697996
9.806728 9.212317 3.496158 11697996
11.090261 9.763365 1.358536 11697996
9.067728 9.869914 2.945046 11697996
8.796202 10.487255 3.232233 11697996
10.373549 9.283916 3.394310 11697996
10.654248 9.550147 1.749721 11697996
10.415416 8.806787 1.761888 11697996
10.691613 9.905738 2.260154 11697996
8.882158 9.280672 2.984513 11697996
9.816521 10.878178 3.093843 11697996
9.517572 9.587312 3.531518 11697996
9.946959 9.753723 1.456317 11697996
8.855515 11.093883 3.039366 11697996
8.999982 10.314690 1.939257 11697996
8.727468 10.731472 0.105352 11697996
9.812706 9.328185 2.505607 11697996
11.200953 9.362439 1.288371 11697996
9.201910 9.870211 2.018492 11697996
8.972971 10.988404 0.534852 11697996
10.064760 10.002542 2.226660 11697996
9.797703 10.287925 3.068736 11697996
11.043704 10.623718 3.594574 11697996
8.807636 9.099180 2.007600 11697996
9.772262 8.944377 0.541068 11697996
10.397788 8.976547 3.385767 11697996
9.903659 10.249012 1.550687 11697996
10.296166 8.913330 1.429097 11697996
11.049130 9.228214 1.361271 11697996
10.203528 10.220210 3.174480 11697996
9.936567 9.205270 2.497816 11697996
10.464428 10.322805 1.356779 11697996
11.039098 10.925773 1.355403 11697996
8.991270 10.387534 0.712839 11697996
9.080397 10.271495 1.653230 11697996
9.017435 9.315966 0.090972 11697996
10.881878 9.158989 1.136298 11697996
10.408309 10.195352 2.223919 11697996
9.456676 10.799883 1.036881 11697996
8.921231 10.675724 1.411225 11697996
10.990642 10.743573 0.398190 11697996
9.996820 10.204577 2.642971 11697996
9.339951 10.665026 2.855331 11697996
10.843299 8.968012 3.837764 11697996
10.917734 10.047441 2.548319 11697996
9.757297 9.929709 3.912133 11697996
11.150488 11.034937 2.155083 11697996
10.487749 10.313828 1.361308 11697996
10.529449 9.285494 1.187344 11697996
10.788911 9.181313 2.784400 11697996
8.893279 10.795199 0.586078 11697996
10.388241 8.933326 2.984410 11697996
9.543384 9.917646 1.438607 11697996
9.360603 9.581678 0.394205 11697996
10.833701 10.490924 3.632245 11697996
10.607126 9.798062 3.885191 11697996
8.820723 10.858407 2.174985 11697996
9.682711 9.796573 2.965896 11697996
9.035446 8.783324 2.539859 11697996
11.043016 9.659288 1.580880 11697996
10.734465 10.849268 0.133648 11697996
9.372714 11.086989 2.699116 11697996
10.346891 10.148236 2.555438 11697996
9.559513 9.534697 2.050787 11697996
8.894789 9.990250 1.958161 11697996
9.111589 10.728644 0.860925 11697996
8.835963 10.822205 1.708437 11697996
9.795161 9.976093 2.033678 11697996
10.305494 8.946342 1.725762 11697996
9.497768 9.895089 0.562304 11697996
9.297947 9.666763 0.740311 11697996
8.790280 10.261490 3.128146 11697996
10.432126 10.267422 3.702838 11697996
10.785725 10.767260 0.058188 11697996
10.276716 10.144910 0.453368 11697996
10.999906 9.845657 1.885907 11697996
9.817708 9.252294 2.250311 11697996
10.060313 9.036576 0.097833 11697996
9.676688 10.033013 0.949663 11697996
10.566876 10.076668 1.588021 11697996
9.270897 11.080539 2.430851 11697996
9.691779 10.106485 0.792364 11697996
9.907367 10.881982 0.190890 11697996
10.400212 10.496891 2.065912 11697996
9.129801 10.036610 0.497600 11697996
8.855184 11.013138 0.864819 11697996
11.093243 9.353056 0.778663 11697996
10.142477 9.253078 2.608163 11697996
10.960079 10.871534 0.497259 11697996
10.429471 11.017188 2.126408 11697996
8.994769 10.300222 3.529664 11697996
9.438474 9.614702 0.139718 11697996
11.109321 9.003911 3.019653 11697996
11.106090 8.965151 3.877294 11697996
8.863191 10.537870 0.425019 11697996
8.852570 9.462881 0.763088 11697996
10.312101 11.110192 3.014982 11697996
8.814366 10.179290 0.899796 11697996
8.781357 8.814187 3.805496 11697996
11.240685 10.585683 2.121455 11697996
10.383634 9.009431 3.205016 11697996
9.355757 9.206602 0.519322 11697996
10.942395 9.743748 3.367066 11697996
10.602025 10.443559 0.470556 11697996
9.787464 8.962618 3.772992 11697996
9.320989 9.442986 2.402778 11697996
9.088976 9.238832 3.904511 11697996
9.785551 9.774543 2.024908 11697996
10.480455 10.553743 0.022024 11697996
9.540398 10.846082 1.267559 11697996
10.358637 10.436230 2.593350 11697996
10.988327 10.977408 0.608955 11697996
9.252167 9.493064 1.109513 11697996
9.583115 9.311074 2.829827 11697996
9.616039 10.348689 1.354389 11697996
10.067616 10.922362 3.156363 11697996
11.179812 9.801828 -0.005538 11697996
9.483225 9.551068 0.959469 11697996
8.945237 10.696665 1.235415 11697996
9.124177 9.072863 3.687769 11697996
10.824206 9.806589 2.437628 11697996
11.196678 8.936623 4.002001 11697996
9.964520 10.836876 1.857427 11697996
8.935129 8.998279 0.999567 11697996
9.668584 10.174550 1.011971 11697996
10.308780 9.553687 1.527665 11697996
10.792437 10.354465 1.339907 11697996
10.256530 9.384316 3.943746 11697996
10.107999 9.564275 3.291246 11697996
9.022048 10.408384 0.937628 11697996
9.860368 9.210549 3.755384 11697996
11.126299 8.953634 2.124837 11697996
10.823627 10.780441 0.418134 11697996
9.175795 10.288565 0.876235 11697996
9.379231 11.114520 3.179595 11697996
9.787213 9.012724 0.170827 11697996
10.020067 9.625434 0.394082 11697996
8.844292 10.010930 2.477833 11697996
9.946493 11.108788 0.880213 11697996
10.450781 9.955724 0.057448 11697996
10.303314 9.610743 3.007510 11697996
10.054874 9.229680 3.351498 11697996
10.314588 9.824856 3.812121 11697996
9.321717 11.136803 1.619365 11697996
9.119782 10.538524 1.415419 11697996
8.844570 9.926775 2.270521 11697996
9.832061 10.234416 2.361777 11697996
10.851430 10.590985 1.384357 11697996
10.992639 9.908067 3.735752 11697996
10.296649 10.031778 2.665791 11697996
8.888941 9.647305 2.012636 11697996
10.932563 10.787167 1.414611 11697996
10.813849 8.866052 3.003179 11697996
9.036007 10.265167 3.212822 11697996
10.798156 8.930526 1.566684 11697996
9.213654 10.916023 0.482017 11697996
10.760571 9.942656 0.051220 11697996
10.736847 10.360881 3.583807 11697996
10.870133 10.967326 2.308004 11697996
10.029346 9.535089 3.361951 11697996
10.989798 10.264472 0.237525 11697996
8.887827 9.290048 2.646224 11697996
9.443491 8.804667 3.006215 11697996
9.387283 10.132905 1.937664 11697996
10.751866 10.828366 3.231770 11697996
8.937430 8.913560 0.494414 11697996
10.856805 10.668262 3.091218 11697996
9.934204 10.047208 3.296595 11697996
11.190261 10.627668 2.855970 11697996
11.094085 10.047755 1.979704 11697996
9.190882 9.970594 2.809878 11697996
10.604835 10.791443 3.187457 11697996
9.355769 10.744103 1.738585 11697996
11.190473 9.435282 3.540400 11697996
10.984567 9.609701 0.991774 11697996
8.931189 11.034710 0.429806 11697996
8.816761 10.931581 0.119231 11697996
10.221262 10.035569 1.332830 11697996
10.640368 10.266611 1.447732 11697996
8.941580 9.975593 3.803618 11697996
10.453053 10.600885 1.813505 11697996
9.631808 11.170967 2.690790 11697996
10.900620 9.645801 3.154871 11697996
8.855786 10.907479 3.922211 11697996
10.851657 10.436002 1.845925 11697996
10.740897 9.695915 1.076982 11697996
9.790247 9.405706 0.402237 11697996
10.059005 10.072141 2.734835 11697996
9.771336 11.159616 0.743297 11697996
8.990464 10.033342 3.952339 11697996
10.490517 9.811769 3.144292 11697996
9.390400 9.757209 0.703142 11697996
8.952067 11.159932 3.078792 11697996
9.252163 9.044722 3.707556 11697996
11.131802 9.028109 2.139101 11697996
11.205074 10.800971 0.953567 11697996
10.855091 10.615372 3.688687 11697996
9.111481 9.645137 3.971859 11697996
10.746287 10.598371 2.164987 11697996
10.628736 10.564399 0.462602 11697996
9.200222 9.015968 1.681903 11697996
9.307696 9.924102 3.803374 11697996
8.883715 9.635644 1.823410 11697996
10.678194 8.967904 1.582279 11697996
10.701100 10.504919 2.360304 11697996
10.657810 9.788481 1.866100 11697996
10.897108 10.100731 3.979684 11697996
9.037027 9.443405 2.776634 11697996
10.429574 9.699176 3.183800 11697996
10.756360 8.975796 2.152869 11697996
9.096890 10.796382 0.098620 11697996
9.254217 11.071205 3.204551 11697996
9.913876 10.936042 0.793020 11697996
10.894861 10.762827 0.830976 11697996
9.199490 9.482330 1.055034 11697996
10.426378 9.684742 3.623228 11697996
10.845080 11.202132 0.737559 11697996
9.214390 11.151053 2.188598 11697996
9.591989 10.670094 1.814980 11697996
10.066478 9.887129 3.947331 11697996
9.371354 10.942858 2.681982 11697996
10.839054 10.525134 3.165881 11697996
10.833817 10.887039 3.091732 11697996
9.719039 10.534556 1.313750 11697996
10.827052 9.332484 1.139517 11697996
10.004605 9.355309 0.568747 11697996
9.027348 9.583274 1.073809 11697996
9.178598 9.176785 0.215453 11697996
9.260478 10.290878 3.863706 11697996
9.719677 8.902719 0.450608 11697996
9.202612 8.747013 2.300127 11697996
10.877027 9.135760 2.961145 11697996
8.916946 9.682448 3.864955 11697996
9.586842 10.128147 3.686569 11697996
11.063451 9.246888 0.926190 11697996
10.730504 9.479317 1.235255 11697996
9.856698 9.601847 1.581872 11697996
8.767612 11.151277 2.147203 11697996
11.144516 10.282011 2.354584 11697996
11.172941 9.586054 1.182855 11697996
11.178902 9.806552 0.670888 11697996
9.158566 9.777628 2.502233 11697996
9.135010 10.314089 3.250582 11697996
9.538596 9.386808 2.860602 11697996
8.794628 9.551217 3.729727 11697996
10.166059 10.853351 2.607848 11697996
10.601291 10.319692 3.826269 11697996
10.025468 10.087400 3.873950 11697996
8.794614 8.890187 1.718844 11697996
10.225364 8.949627 0.244365 11697996
9.133035 10.993526 0.771361 11697996
8.769080 8.923814 3.127157 11697996
9.908943 8.952945 3.148665 11697996
11.142982 10.946301 2.220400 11697996
9.264703 8.769885 0.899946 11697996
8.961476 9.090523 1.598595 11697996
9.329282 10.237645 1.358578 11697996
10.499353 8.775890 3.280280 11697996
10.774038 9.812742 3.667971 11697996
9.598502 9.723573 0.395495 11697996
9.376218 8.807175 3.311018 11697996
10.702977 9.525258 2.421196 11697996
10.139648 9.535813 3.971298 11697996
9.613389 9.802303 1.665310 11697996
9.790569 10.136111 3.016138 11697996
10.003284 9.393283 1.843729 11697996
10.734600 10.926110 1.410164 11697996
9.980568 8.801476 1.493192 11697996
9.197700 10.408558 1.953030 11697996
9.109489 11.034380 2.063344 11697996
9.983720 9.818154 3.649880 11697996
10.991470 10.087992 0.167230 11697996
9.334988 10.971073 1.394303 11697996
9.866406 10.184516 3.407575 11697996
11.244800 10.687056 0.232025 11697996
10.031693 9.599431 1.285363 11697996
10.908969 9.405310 2.375796 11697996
10.597274 8.737680 1.650821 11697996
8.884519 10.800580 2.344007 11697996
9.065805 9.439598 1.797477 11697996
9.195575 8.844396 3.775298 11697996
9.816123 9.105548 1.099078 11697996
9.596149 8.843483 3.051264 11697996
10.620800 8.756916 2.812035 11697996
11.166763 9.461729 0.274020 11697996
11.231636 9.903201 2.897990 11697996
10.166612 11.217787 0.645233 11697996
10.048331 10.782284 1.968228 11697996
9.790219 10.510218 1.097208 11697996
10.722589 9.839483 2.518265 11697996
10.726156 8.861174 1.755971 11697996
10.680573 9.187639 0.591350 11697996
10.416163 10.756181 0.666419 11697996
8.755297 9.236675 3.431131 11697996
9.951708 10.372398 1.016735 11697996
10.052883 10.807529 1.681314 11697996
8.874088 10.283892 3.847355 11697996
9.416141 10.034781 1.580925 11697996
10.826680 9.809554 1.619841 11697996
8.813982 8.882790 1.056864 11697996
9.391436 11.113049 1.645164 11697996
10.933231 9.486575 1.627172 11697996
8.827711 11.219350 2.977407 11697996
8.886459 10.125524 0.885048 11697996
10.603000 10.747966 0.852778 11697996
9.093229 8.831196 2.663752 11697996
10.052676 9.541987 2.639730 11697996
8.832838 10.087031 3.367207 11697996
10.573472 9.468760 2.497566 11697996
8.884728 9.840721 0.503314 11697996
9.566274 10.188059 3.936664 11697996
8.820444 9.905514 1.328682 11697996
9.227286 10.325109 3.141856 11697996
11.213344 11.042815 0.844499 11697996
9.791512 9.928662 0.354098 11697996
9.654135 9.887221 0.258108 11697996
11.000673 9.923566 1.346052 11697996
9.270745 11.187276 0.616136 11697996
11.058702 11.095100 2.990476 11697996
11.066287 10.655232 1.337048 11697996
10.442253 10.528596 0.224383 11697996
10.012179 11.169372 1.508962 11697996
10.534917 10.232747 3.799068 11697996
9.403081 10.489855 0.568869 11697996
10.596903 9.405919 3.104643 11697996
10.249661 10.711132 0.777008 11697996
8.829906 10.038033 1.649118 11697996
11.138218 9.730890 1.494519 11697996
8.951985 9.298388 3.431466 11697996
10.287142 8.846987 3.563463 11697996
10.467676 8.805576 3.952521 11697996
9.297124 9.098561 2.134854 11697996
10.473985 10.814697 0.624243 11697996
10.695828 9.714888 0.429493 11697996
10.644521 9.886925 1.915585 11697996
9.436588 9.803048 3.647860 11697996
8.888589 9.141017 2.833318 11697996
10.318097 9.183913 2.852878 11697996
10.037425 11.067797 3.089322 11697996
10.364942 10.604394 3.506226 11697996
10.108431 10.102173 0.888174 11697996
9.923272 9.595520 0.385230 11697996
9.497027 11.006439 1.468743 11697996
10.134217 8.890107 1.170750 11697996
10.078780 11.182966 2.649938 11697996
10.101599 9.379112 2.256048 11697996
9.033154 8.879011 0.236464 11697996
9.283950 9.237265 2.070187 11697996
9.329859 10.872166 0.836768 11697996
11.160289 9.693875 1.972031 11697996
10.539375 11.222392 1.973834 11697996
9.183938 11.061361 0.609952 11697996
8.805830 11.227949 0.073108 11697996
9.395241 10.116022 0.708769 11697996
10.625184 10.511710 2.607901 11697996
10.763625 10.339864 1.066943 11697996
9.608248 10.999493 1.503819 11697996
9.011054 9.034946 1.579515 11697996
9.714065 10.991708 1.290239 11697996
9.765250 9.067015 0.596995 11697996
9.270568 8.981530 2.029185 11697996
10.951167 10.401556 0.050031 11697996
10.585767 9.279444 1.810686 11697996
10.020223 9.910983 1.130400 11697996
10.313291 10.494970 3.135297 11697996
9.961385 10.978413 0.361086 11697996
9.090117 10.549730 3.445288 11697996
9.619785 11.193001 3.398978 11697996
9.006668 10.578070 0.460221 11697996
10.142536 8.858749 3.252010 11697996
10.788644 10.316197 0.777702 11697996
10.093181 8.816949 2.458679 11697996
11.263846 9.066362 0.448009 11697996
9.529325 9.209450 0.641145 11697996
11.199938 9.025584 3.288826 11697996
9.192711 9.692690 0.759592 11697996
9.320686 9.234404 3.991214 11697996
10.501393 9.238245 2.540933 11697996
9.797377 9.414551 1.020498 11697996
10.025832 11.208857 2.928079 11697996
11.108120 10.375403 0.284798 11697996
10.821954 9.285672 1.021739 11697996
10.592486 10.685354 3.152966 11697996
10.592823 10.930034 1.433481 11697996
9.959805 9.045689 0.783475 11697996
10.719410 9.767777 0.206845 11697996
9.036039 9.954931 0.463020 11697996
10.834515 9.665494 1.408714 11697996
10.625767 11.218635 3.962102 11697996
10.627646 9.625332 3.761043 11697996
11.200819 9.943610 2.953174 11697996
11.076277 9.995630 3.060002 11697996
8.822073 10.879894 2.806525 11697996
11.074488 9.840729 2.751575 11697996
9.256678 9.755659 3.432246 11697996
9.321489 9.001279 3.431293 11697996
9.886589 10.726922 2.532441 11697996
10.909008 9.211854 0.160616 11697996
10.716324 10.489389 1.272140 11697996
9.918272 10.684305 2.364399 11697996
9.091413 10.425490 1.798966 11697996
10.198341 9.291183 2.235279 11697996
11.034955 10.171952 0.221024 11697996
10.052698 11.179403 2.934214 11697996
10.634714 11.014522 3.834487 11697996
9.759200 8.840750 1.538660 11697996
9.606677 9.448574 1.399304 11697996
10.682600 10.742812 1.602968 11697996
9.608098 10.476076 2.735899 11697996
10.206913 11.252998 0.287692 11697996
9.612153 8.847102 3.308437 11697996
9.543490 10.296531 3.166971 11697996
10.327228 9.099946 3.324903 11697996
9.420720 10.354939 2.963001 11697996
9.580287 10.643559 1.760315 11697996
9.100746 10.804183 2.153507 11697996
10.809099 10.519928 0.904547 11697996
10.850015 10.937814 3.689607 11697996
10.713435 10.968771 1.678496 11697996
11.213429 9.296720 3.275768 11697996
9.883502 11.262459 1.761033 11697996
8.839563 8.768064 2.467735 11697996
9.188910 10.112625 3.122683 11697996
10.579072 10.056705 0.246367 11697996
8.826419 10.180142 3.395416 11697996
10.289840 9.539775 0.796570 11697996
10.230484 8.968058 1.412410 11697996
9.624164 8.904282 3.573864 11697996
9.756159 9.782644 1.606746 11697996
10.879993 9.954026 3.050787 11697996
10.676026 10.324152 3.267102 11697996
10.809929 10.498585 0.668589 11697996
10.759673 10.241900 3.865616 11697996
11.096715 9.477236 1.691805 11697996
9.515281 10.807319 2.592094 11697996
10.227180 8.774429 3.129193 11697996
11.158100 9.468802 2.698645 11697996
10.322618 10.049016 2.064768 11697996
10.358922 10.034760 0.965846 11697996
8.863898 11.008386 3.458477 11697996
10.656849 9.888266 1.727368 11697996
9.476268 9.989288 2.175547 11697996
10.101878 10.693048 3.234260 11697996
9.244974 10.453378 1.901148 11697996
9.265908 9.712192 2.730446 11697996
9.795045 9.139579 3.572917 11697996
9.579563 11.011987 2.015948 11697996
10.627414 8.873089 1.307653 11697996
8.917799 11.133911 0.027474 11697996
11.019013 10.371570 2.081165 11697996
8.882356 11.176596 0.002440 11697996
9.287349 11.130537 1.596628 11697996
10.116550 9.194447 1.483094 11697996
9.190388 10.584084 0.527469 11697996
10.783611 10.967207 3.767368 11697996
10.161463 9.805850 2.670121 11697996
10.963422 10.457485 2.325596 11697996
11.139252 9.931637 2.111946 11697996
9.934324 10.228132 2.198320 11697996
9.979641 10.208168 2.037152 11697996
8.895525 9.548219 0.969531 11697996
10.407342 11.013878 2.184480 11697996
11.011560 10.945957 1.655581 11697996
9.972561 8.863155 0.512357 11697996
9.329460 10.386159 3.316068 11697996
11.176349 9.218139 3.200287 11697996
11.113023 10.620502 2.381902 11697996
10.884632 11.186726 1.191559 11697996
10.755610 9.585353 2.728611 11697996
9.969113 10.827755 1.056969 11697996
11.053989 10.043515 1.284139 11697996
9.006660 10.044645 2.586754 11697996
10.076962 10.395573 0.485218 11697996
10.823397 9.893517 3.401965 11697996
9.818854 10.378816 3.073415 11697996
10.111378 11.182178 1.587300 11697996
9.540601 9.938187 1.495605 11697996
10.314182 10.196671 3.235372 11697996
10.935551 10.684190 3.169340 11697996
10.709386 10.684834 0.876741 11697996
10.706960 10.085069 1.547940 11697996
9.706381 10.722270 4.019737 11697996
10.834464 9.551691 1.403877 11697996
9.094991 10.136463 3.923387 11697996
9.157671 9.542780 0.233454 11697996
10.970759 10.872565 1.634753 11697996
10.160063 10.293862 2.371297 11697996
9.543988 10.932413 1.807258 11697996
10.163386 10.702209 0.191930 11697996
10.877378 8.879987 0.796211 11697996
9.105360 10.854074 0.683045 11697996
11.015324 10.985341 0.489377 11697996
10.075581 10.152375 3.192910 11697996
10.396699 9.976554 0.192891 11697996
10.233328 8.916869 1.563897 11697996
9.281761 8.919086 1.500122 11697996
8.941292 10.328903 3.065338 11697996
10.507697 9.349377 1.535330 11697996
9.162494 9.321684 3.733493 11697996
9.471188 9.222635 0.602688 11697996
10.340801 11.077623 1.183316 11697996
10.505428 9.182921 1.458088 11697996
11.166434 10.396093 1.880033 11697996
10.623623 8.961177 3.664571 11697996
10.934247 10.802417 0.823898 11697996
10.839561 9.179682 1.481911 11697996
9.565779 11.158746 1.867854 11697996
8.974892 10.176411 1.824779 11697996
11.208457 10.124893 0.253198 11697996
10.039478 10.978200 3.597647 11697996
10.597764 10.313042 0.254565 11697996
8.834455 10.557499 0.604919 11697996
8.985876 8.862407 1.505610 11697996
10.886573 9.469132 0.162197 11697996
10.387199 9.454301 3.731236 11697996
10.212491 10.454858 0.761609 11697996
10.391929 10.753292 0.156611 11697996
10.802705 9.175610 1.230885 11697996
10.965729 9.833260 3.741602 11697996
10.467573 9.551395 1.586673 11697996
8.834762 8.954917 0.544799 11697996
10.167526 10.278103 3.689650 11697996
9.275787 11.014289 0.681324 11697996
10.773442 8.787566 0.570704 11697996
8.984938 10.716723 2.560694 11697996
10.714116 9.439284 3.104445 11697996
9.537764 9.768474 0.842787 11697996
10.989761 11.189060 2.355106 11697996
9.595099 10.584675 2.834836 11697996
9.677997 11.125846 1.295856 11697996
9.844543 11.155590 2.734490 11697996
10.335013 10.264518 3.035499 11697996
10.430341 10.620440 3.527250 11697996
10.916316 10.676115 1.420109 11697996
9.101336 10.881667 2.675454 11697996
10.839064 9.622594 0.375681 11697996
10.978364 10.564570 3.096424 11697996
8.817305 9.094633 3.994597 11697996
9.482080 9.411191 2.505439 11697996
10.748911 10.269329 2.482802 11697996
8.832726 9.477841 0.708503 11697996
10.261121 9.261599 3.723891 11697996
10.117366 9.089195 2.588013 11697996
10.367532 11.040913 2.571751 11697996
9.068047 9.507340 1.918045 11697996
10.084134 9.375997 2.255985 11697996
9.169663 9.389378 0.653998 11697996
11.036766 9.582430 3.928804 11697996
10.261218 10.735778 1.853019 11697996
11.007486 9.975200 2.413071 11697996
10.236224 10.951060 1.681530 11697996
9.642286 9.758560 3.300570 11697996
10.578400 8.893551 1.973226 11697996
9.237164 10.712809 1.527352 11697996
9.360592 9.270474 2.053688 11697996
9.093662 9.068715 3.242916 11697996
9.376242 10.508862 2.019781 11697996
11.108453 9.031836 2.335516 11697996
11.150084 9.878610 2.438934 11697996
9.298649 11.172185 2.931808 11697996
9.584915 11.228637 1.234262 11697996
9.065621 9.539984 3.190333 11697996
11.178215 8.940665 1.390008 11697996
10.210705 9.982105 1.692551 11697996
10.067967 10.456596 2.636818 11697996
9.341172 9.172310 0.769480 11697996
9.959401 9.418778 0.366483 11697996
9.053967 8.940736 1.403949 11697996
8.822564 10.327060 2.410036 11697996
9.787460 8.982979 2.939758 11697996
10.168349 10.989280 0.856050 11697996
11.068913 9.244302 3.997209 11697996
10.783277 9.006551 1.246909 11697996
9.606405 9.938529 2.819828 11697996
10.071763 9.352453 2.827717 11697996
10.073005 11.138678 3.088031 11697996
11.050184 10.854024 3.195144 11697996
9.417696 10.909692 1.007723 11697996
9.534046 10.771440 1.101802 11697996
8.759534 9.355716 0.095919 11697996
10.511519 10.802922 2.064662 11697996
10.466593 10.656949 2.460205 11697996
10.192668 9.083852 2.912563 11697996
10.333005 9.661414 3.731119 11697996
9.168114 10.733989 3.735290 11697996
9.698599 10.878719 2.550796 11697996
10.971704 9.881144 0.462098 11697996
10.598610 10.838112 3.365140 11697996
10.763415 10.287141 2.078858 11697996
10.359409 10.457407 0.342036 11697996
11.006537 10.437228 2.650055 11697996
9.681207 9.632072 2.619889 11697996
11.124074 10.942235 1.285238 11697996
9.407764 9.483026 3.166083 11697996
10.898528 8.939949 3.576122 11697996
11.229076 9.854317 1.958007 11697996
10.430094 10.308620 2.653759 11697996
9.685047 9.111685 0.452746 11697996
11.215863 10.412746 0.298505 11697996
9.971388 9.249980 1.000249 11697996
10.397515 10.342148 2.397783 11697996
10.810354 8.797395 1.163600 11697996
9.977729 9.044701 0.526725 11697996
9.707385 11.192996 0.839182 11697996
10.119270 9.167775 1.174451 11697996
8.910638 9.489955 1.548698 11697996
9.728726 8.899693 1.692017 11697996
9.815919 9.846390 1.041345 11697996
10.080859 10.854365 3.393516 11697996
10.286277 8.963703 1.148736 11697996
9.086049 10.193331 1.340016 11697996
11.100984 8.846018 2.011002 11697996
11.079733 9.347556 2.189820 11697996
11.074869 9.176429 3.958745 11697996
8.889041 10.418648 2.282043 11697996
8.863752 10.406401 0.491544 11697996
9.068368 11.115724 3.754661 11697996
9.203303 9.683433 0.827747 11697996
9.194819 10.776359 1.396156 11697996
9.353968 10.704004 1.331339 11697996
10.986317 10.242061 1.955997 11697996
10.387393 10.525619 2.554222 11697996
8.844179 10.238060 3.304937 11697996
9.481493 10.196112 3.561985 11697996
9.072282 10.892414 3.154835 11697996
11.160066 10.286136 0.728098 11697996
9.441258 9.066945 2.420095 11697996
9.146127 10.047243 1.023328 11697996
11.085923 9.479702 2.056504 11697996
10.776551 9.501045 0.309190 11697996
9.783821 10.404684 1.823080 11697996
10.235954 10.087526 1.192410 11697996
8.739590 10.441397 3.111695 11697996
10.306859 9.257021 1.408049 11697996
9.759501 9.299170 0.026819 11697996
9.254514 9.965028 2.827664 11697996
10.542517 9.542727 0.891625 11697996
10.192878 10.216644 3.564500 11697996
8.922996 11.063646 1.877200 11697996
11.015839 9.240103 1.331178 11697996
9.206545 9.757310 2.953805 11697996
8.939685 9.040803 2.172647 11697996
9.442830 10.280478 1.085695 11697996
11.061598 9.643938 3.506779 11697996
9.663122 10.093537 1.975170 11697996
10.586562 11.209648 0.094930 11697996
9.660594 9.653100 1.380332 11697996
10.772500 8.905009 3.660314 11697996
9.605803 10.440114 0.281742 11697996
10.792805 10.003307 2.894783 11697996
9.098368 10.084168 3.796815 11697996
8.984112 10.815701 3.475070 11697996
10.694677 8.918593 1.527429 11697996
9.151770 10.581931 2.741754 11697996
9.931532 10.059570 3.962774 11697996
10.154544 10.932055 2.326355 11697996
9.887300 10.162818 0.313937 11697996
8.858146 8.931008 2.172915 11697996
10.229295 9.814757 3.830139 11697996
10.633566 11.217226 2.231134 11697996
9.298950 10.120995 3.166979 11697996
9.861515 9.904907 2.643459 11697996
8.934173 10.252666 0.186521 11697996
10.803296 10.469068 1.918748 11697996
10.157543 9.688855 3.343455 11697996
10.970931 10.167830 3.377428 11697996
8.931623 9.242181 3.936817 11697996
9.308641 10.839219 3.335473 11697996
10.300096 10.755429 0.965288 11697996
10.775334 9.908367 2.293468 11697996
10.490693 8.770065 3.493572 11697996
10.803656 8.938466 0.876485 11697996
9.378855 10.245102 2.536839 11697996
9.133386 10.808802 1.159355 11697996
10.345866 8.852857 3.293101 11697996
9.685631 10.807273 2.909551 11697996
9.875302 10.554908 1.137399 11697996
11.140836 10.978607 1.443116 11697996
9.576200 8.811604 3.903177 11697996
10.722422 9.844569 2.290352 11697996
8.785620 9.325212 1.181491 11697996
10.842952 11.116855 3.720507 11697996
10.679885 10.941414 2.556002 11697996
9.526552 9.762402 1.196099 11697996
10.216221 9.230358 1.995064 11697996
9.780327 10.022491 2.743621 11697996
9.998509 9.710970 0.840543 11697996
10.338518 11.218531 1.896174 11697996
10.646860 9.189879 0.204254 11697996
9.490837 10.697797 1.184165 11697996
11.200912 11.036772 2.572666 11697996
10.518077 9.745098 2.107715 11697996
9.002165 10.392444 3.914933 11697996
9.216002 10.579136 0.124639 11697996
10.276809 10.026587 3.691419 11697996
10.761438 10.631906 3.116745 11697996
9.588186 11.204505 3.653566 11697996
9.390599 9.225856 2.970149 11697996
10.028815 9.275863 1.211791 11697996
9.167136 8.939898 0.838235 11697996
10.415763 9.638188 3.107995 11697996
10.590363 11.108160 2.248241 11697996
10.177154 8.924809 0.549201 11697996
10.724646 10.061307 3.488048 11697996
9.081256 10.969106 2.195896 11697996
11.034330 10.125359 1.546699 11697996
10.632576 10.412595 0.569014 11697996
8.857232 10.829563 2.867728 11697996
8.855958 10.472296 0.247192 11697996
9.398354 10.161156 3.531124 11697996
9.051355 9.332969 2.109493 11697996
9.640545 9.764115 2.066333 11697996
10.338804 10.041922 1.873832 11697996
9.232521 9.349958 2.313859 11697996
9.492762 10.892111 3.369578 11697996
10.074665 10.003858 3.336779 11697996
10.671868 8.804826 0.823474 11697996
9.174506 11.238996 3.953207 11697996
9.414822 9.894889 0.962665 11697996
8.867146 11.224001 2.721226 11697996
10.141129 9.601454 3.430188 11697996
11.244493 10.346144 0.174751 11697996
9.321624 9.019537 2.727803 11697996
8.958619 9.331770 1.308748 11697996
9.030759 9.789529 1.605975 11697996
8.852396 9.712254 2.156585 11697996
11.073957 11.084715 3.628855 11697996
10.390897 9.861126 3.008838 11697996
8.770617 9.712856 3.466783 11697996
10.286263 9.597691 0.353915 11697996
10.429195 10.588970 1.886560 11697996
10.744173 9.617734 0.097976 11697996
11.162237 8.978721 3.984291 11697996
10.553431 10.458186 2.022037 11697996
10.218057 10.221550 0.763983 11697996
9.982990 9.160788 1.465886 11697996
11.097226 9.273222 2.198230 11697996
9.075975 11.183062 0.929361 11697996
9.007269 9.466277 3.335695 11697996
10.476380 9.976805 2.762297 11697996
8.759360 11.196934 1.166470 11697996
10.535591 9.789139 3.057596 11697996
9.155609 10.655087 3.422154 11697996
9.132521 10.199558 4.009634 11697996
10.992443 10.248707 1.947594 11697996
10.926174 9.655980 1.016744 11697996
9.371449 8.935561 3.884505 11697996
8.765121 9.830165 2.467023 11697996
10.255707 10.442083 1.885017 11697996
11.065081 10.908376 3.549709 11697996
8.886119 9.420627 3.916059 11697996
9.914682 9.120688 3.463125 11697996
9.973313 9.651698 2.154625 11697996
8.914865 9.978525 2.426078 11697996
9.649896 9.920428 3.701237 11697996
9.914049 10.893821 2.629056 11697996
10.935557 11.132236 0.838637 11697996
9.333270 9.087390 0.054194 11697996
9.675456 10.889936 0.115069 11697996
10.199987 10.332649 3.529408 11697996
10.913619 9.018651 0.968605 11697996
9.293804 11.036648 1.762164 11697996
10.158542 9.219036 2.211482 11697996
8.757286 10.010412 0.771587 11697996
9.780920 9.919589 3.966398 11697996
9.978061 11.187883 2.400239 11697996
9.357881 10.924945 2.964926 11697996
10.649532 9.631266 2.208716 11697996
10.912274 9.048387 2.780003 11697996
10.900964 10.873085 1.804386 11697996
11.241754 9.880847 2.250612 11697996
9.638791 9.348552 2.505604 11697996
9.326414 8.859630 2.933751 11697996
11.002570 8.956595 2.695904 11697996
9.859468 8.843929 0.552174 11697996
9.839946 9.045709 3.570933 11697996
10.998897 9.795024 0.875003 11697996
11.141788 9.034585 3.703326 11697996
10.454966 9.155589 2.276455 11697996
10.743980 10.419851 1.376968 11697996
9.362062 10.575112 0.133972 11697996
9.333344 10.712265 2.719868 11697996
9.593129 9.299824 3.937644 11697996
9.056157 10.948573 2.197453 11697996
9.765844 9.950076 0.538628 11697996
10.525316 10.144888 1.796724 11697996
11.172816 11.042585 0.306307 11697996
8.910311 10.458144 2.809249 11697996
10.366491 10.033505 1.546897 11697996
10.609890 10.340200 0.792576 11697996
10.582786 9.691366 3.572869 11697996
11.073553 8.841546 0.309513 11697996
11.020305 11.204478 0.005064 11697996
10.774054 9.750667 3.580786 11697996
9.655176 10.825027 3.353756 11697996
9.529156 9.421880 2.225765 11697996
10.524971 9.568441 1.572140 11697996
11.020576 9.421707 1.975640 11697996
10.408694 9.992723 0.564224 11697996
9.814138 11.175420 2.394972 11697996
11.120577 8.901890 2.338483 11697996
10.959791 9.623346 2.551056 11697996
9.737137 10.926429 2.667341 11697996
9.144053 10.355545 0.885778 11697996
9.287282 8.840156 2.189311 11697996
11.079649 9.860582 3.059905 11697996
9.434940 10.875419 1.301793 11697996
10.263736 9.261308 1.494127 11697996
9.605883 10.430857 1.971486 11697996
9.714258 9.176110 2.252453 11697996
9.200871 9.116026 0.643527 11697996
10.519459 11.070449 3.431035 11697996
9.862771 9.787817 2.143292 11697996
10.150788 9.168077 3.327108 11697996
10.413258 10.087739 1.536120 11697996
9.249906 10.884871 1.196741 11697996
9.649755 10.222050 3.941129 11697996
9.784039 8.983728 3.541371 11697996
8.956629 9.483531 0.275231 11697996
10.631785 10.441468 0.128715 11697996
9.313635 10.476303 1.878693 11697996
10.545401 8.970206 2.448034 11697996
10.499668 10.321217 0.657809 11697996
9.910738 10.092437 3.662256 11697996
9.753585 9.723525 0.629147 11697996
11.187074 10.497048 2.831562 11697996
9.641788 10.592931 1.951471 11697996
9.169518 10.864650 3.776730 11697996
9.251649 11.040759 1.238939 11697996
11.113116 11.107002 3.825891 11697996
10.388886 10.177840 2.401084 11697996
9.888136 10.110338 3.627403 11697996
9.092075 9.090947 1.821380 11697996
9.536215 9.951926 3.291883 11697996
10.916858 9.291738 0.097287 11697996
11.057829 9.176413 0.670004 11697996
9.767927 11.106913 2.592155 11697996
11.004560 9.343438 1.458785 11697996
9.257974 9.897227 2.564604 11697996
11.226372 11.127995 0.877176 11697996
