# .PCD v0.7 - Point Cloud Data file format
VERSION 0.7
FIELDS x y z rgb
SIZE 4 4 4 4
TYPE F F F U
COUNT 1 1 1 1
WIDTH 1287
HEIGHT 1
VIEWPOINT 0 0 0 1 0 0 0
POINTS 1287
DATA ascii
9.358531 10.205297 2.565787 11697996
9.096025 10.796690 1.146855 11697996
10.304261 8.837670 3.297016 11697996
9.681262 10.822732 2.919403 11697996
9.880226 10.539019 1.132206 11697996
11.140400 11.020285 1.445543 11697996
9.570845 8.848247 3.893426 11697996
10.746830 9.843398 2.287078 11697996
8.740194 9.333342 1.184524 11697996
10.818712 11.098847 3.747690 11697996
10.679220 10.932388 2.506548 11697996
9.530007 9.755781 1.194314 11697996
10.202050 9.261074 2.024890 11697996
9.781496 10.009749 2.756027 11697996
10.017273 9.667418 0.831654 11697996
10.303568 11.221258 1.882783 11697996
10.675937 9.179120 0.212313 11697996
9.499716 10.710269 1.210811 11697996
11.181508 10.992746 2.545298 11697996
10.512955 9.708504 2.132195 11697996
8.998211 10.384765 3.879494 11697996
9.193809 10.628922 0.143014 11697996
10.287519 10.039951 3.633600 11697996
10.762144 10.639257 3.070788 11697996
9.610252 11.240417 3.617226 11697996
9.363242 9.238219 2.987566 11697996
10.010264 9.294412 1.194386 11697996
9.161578 8.970858 0.830584 11697996
10.363541 9.648926 3.075918 11697996
10.553203 11.100465 2.268524 11697996
10.201550 8.938370 0.517960 11697996
10.728089 10.061298 3.503433 11697996
9.076452 10.948021 2.178083 11697996
11.022935 10.093916 1.604589 11697996
10.633902 10.404240 0.581606 11697996
8.831147 10.827510 2.852173 11697996
8.802122 10.476388 0.263272 11697996
9.364379 10.188227 3.529433 11697996
9.059520 9.337961 2.112507 11697996
9.652272 9.753163 2.100041 11697996
10.351600 10.047675 1.868834 11697996
9.219185 9.320857 2.291520 11697996
9.479431 10.877257 3.351932 11697996
10.046703 10.021021 3.360810 11697996
10.661291 8.819083 0.850977 11697996
9.207475 11.245884 3.913073 11697996
9.384636 9.850625 0.975758 11697996
8.835135 11.170192 2.731817 11697996
10.156411 9.594392 3.429706 11697996
11.247449 10.340091 0.199580 11697996
9.324815 9.034197 2.732223 11697996
8.964596 9.330418 1.285238 11697996
9.012691 9.788974 1.614612 11697996
8.881223 9.697924 2.175581 11697996
11.058192 11.074728 3.597233 11697996
10.378182 9.842440 2.991965 11697996
8.753649 9.725314 3.507529 11697996
10.295005 9.603357 0.346152 11697996
10.443389 10.563266 1.869291 11697996
10.746675 9.615472 0.083745 11697996
11.156301 8.980943 4.013364 11697996
10.518384 10.456800 2.023169 11697996
10.236188 10.205782 0.744880 11697996
9.987201 9.160397 1.459140 11697996
11.145734 9.270772 2.191903 11697996
9.067647 11.176389 0.935378 11697996
9.005473 9.443705 3.349093 11697996
10.491599 9.966986 2.760751 11697996
8.777258 11.187966 1.132965 11697996
10.519112 9.792341 3.059057 11697996
9.116765 10.665770 3.389393 11697996
9.161882 10.171292 3.995635 11697996
10.974935 10.235058 1.958556 11697996
10.910033 9.670172 1.051891 11697996
9.344845 8.961448 3.908907 11697996
8.758761 9.819366 2.464082 11697996
10.256229 10.465372 1.893398 11697996
11.097764 10.896338 3.546139 11697996
8.869799 9.456340 3.858419 11697996
9.896638 9.125636 3.462468 11697996
10.009781 9.623137 2.153239 11697996
8.925502 9.988571 2.448508 11697996
9.659122 9.921763 3.729169 11697996
9.914271 10.930501 2.670023 11697996
10.929025 11.086481 0.824459 11697996
9.329883 9.063834 0.087357 11697996
9.694403 10.892882 0.140441 11697996
10.181891 10.331105 3.567859 11697996
10.939909 9.060051 0.952315 11697996
9.306688 11.059115 1.763046 11697996
10.136409 9.224059 2.205472 11697996
8.736861 10.011879 0.770386 11697996
9.732880 9.919335 3.952801 11697996
9.972703 11.207313 2.375968 11697996
9.366938 10.898668 2.966079 11697996
10.705050 9.639193 2.215127 11697996
10.878584 9.050402 2.782227 11697996
10.889250 10.883816 1.821396 11697996
11.270432 9.873803 2.227164 11697996
9.704444 9.350650 2.497264 11697996
9.303603 8.840047 2.921248 11697996
11.025207 8.977942 2.672266 11697996
9.868645 8.814316 0.582756 11697996
9.794958 9.034947 3.575438 11697996
10.974775 9.794456 0.862899 11697996
11.131044 9.047936 3.692803 11697996
10.489484 9.145204 2.275974 11697996
10.761375 10.414259 1.418414 11697996
9.391867 10.579804 0.147264 11697996
9.379281 10.723695 2.747437 11697996
9.555022 9.320950 3.930449 11697996
9.090268 10.960114 2.194297 11697996
9.758007 9.921120 0.533298 11697996
10.511965 10.122260 1.786808 11697996
11.188145 11.076989 0.260928 11697996
8.959191 10.472279 2.809328 11697996
10.411959 10.045373 1.549041 11697996
10.585361 10.336944 0.749343 11697996
10.576387 9.687540 3.542558 11697996
11.079174 8.839154 0.290251 11697996
11.011595 11.192684 0.010405 11697996
10.760169 9.737153 3.571307 11697996
9.667344 10.791830 3.328453 11697996
9.526913 9.438519 2.268479 11697996
10.509780 9.558077 1.587482 11697996
11.024296 9.458018 1.944170 11697996
10.405456 10.000295 0.520450 11697996
9.761454 11.155487 2.386042 11697996
11.125773 8.918928 2.342491 11697996
10.972746 9.650035 2.519524 11697996
9.715703 10.908235 2.638249 11697996
9.150331 10.344298 0.893412 11697996
9.292435 8.837128 2.173225 11697996
11.064530 9.855619 3.039629 11697996
9.421609 10.881840 1.302550 11697996
10.270875 9.245252 1.486640 11697996
9.619306 10.466022 1.995940 11697996
9.738822 9.203567 2.235942 11697996
9.211372 9.116382 0.649809 11697996
10.546119 11.072468 3.428588 11697996
9.891109 9.799690 2.124480 11697996
10.178112 9.142470 3.366455 11697996
10.448301 10.091605 1.516379 11697996
9.225227 10.873422 1.181703 11697996
9.636755 10.234597 3.945261 11697996
9.780268 8.978272 3.523964 11697996
8.908888 9.507943 0.255683 11697996
10.623981 10.447134 0.156372 11697996
9.317178 10.499562 1.882146 11697996
10.519379 8.988287 2.412812 11697996
10.496350 10.280322 0.634525 11697996
9.903978 10.083306 3.655255 11697996
9.754379 9.719108 0.617047 11697996
11.193295 10.515246 2.819463 11697996
9.659301 10.599039 1.945600 11697996
9.142255 10.872161 3.759625 11697996
9.281245 11.049862 1.244294 11697996
11.095938 11.126225 3.830513 11697996
10.399732 10.226631 2.396223 11697996
9.880021 10.092403 3.636993 11697996
9.097415 9.079865 1.822382 11697996
9.543010 9.939824 3.275328 11697996
10.957398 9.273613 0.127263 11697996
11.075381 9.212335 0.667308 11697996
9.770110 11.093341 2.583961 11697996
10.996882 9.340702 1.446370 11697996
9.272730 9.902549 2.539679 11697996
11.177608 11.124773 0.845186 11697996
11.181026 10.601072 1.820943 11697996
10.346234 8.834170 3.722887 11697996
9.311374 9.724340 3.144069 11697996
10.334520 9.046122 0.846131 11697996
9.595880 9.445393 0.052403 11697996
10.081876 8.899997 3.144694 11697996
10.785975 10.381190 3.033962 11697996
8.748454 9.095600 3.474758 11697996
9.992140 9.571381 1.091256 11697996
10.328461 9.437160 2.343748 11697996
11.093490 9.609451 3.480798 11697996
9.873260 11.151417 3.215034 11697996
11.010324 10.553722 2.637652 11697996
10.717426 10.397939 0.610366 11697996
9.024667 9.106175 2.328327 11697996
10.178878 9.524442 3.774624 11697996
10.792574 10.711883 0.738197 11697996
11.222580 8.827857 0.940089 11697996
9.297714 9.549548 3.786701 11697996
11.233744 10.212420 1.609759 11697996
10.931954 9.398838 1.685359 11697996
11.030642 10.182017 2.405442 11697996
8.861230 10.785625 1.252735 11697996
9.623072 9.845875 0.339588 11697996
10.314745 8.997610 3.259559 11697996
9.563548 8.813344 1.260294 11697996
11.024800 9.115486 1.155733 11697996
10.344901 8.816172 0.403799 11697996
9.871423 9.707716 2.809419 11697996
10.838452 9.768536 3.951724 11697996
9.053593 9.299350 3.386189 11697996
10.009498 10.866631 0.719551 11697996
10.118698 8.790874 3.078084 11697996
10.862563 9.262926 3.619267 11697996
9.496305 9.787872 3.409213 11697996
9.474576 8.941892 3.460493 11697996
10.136467 9.189522 1.304095 11697996
10.594832 9.052521 1.763270 11697996
9.828295 10.898622 3.619548 11697996
11.093930 9.694861 3.518045 11697996
9.792134 10.911660 3.283425 11697996
10.061921 9.512732 0.526430 11697996
9.212508 9.281412 2.894122 11697996
10.437146 8.985985 3.117590 11697996
9.845021 9.571906 0.432715 11697996
8.810962 10.871750 3.323067 11697996
10.331589 9.618393 0.698836 11697996
10.505631 10.888351 1.655828 11697996
9.750325 10.703209 1.938521 11697996
9.262325 10.204647 2.055915 11697996
10.544338 10.691188 3.704704 11697996
10.085945 9.890162 3.141253 11697996
9.933248 9.655806 1.604404 11697996
9.349472 9.864934 3.462107 11697996
9.922959 11.170317 3.848479 11697996
8.980501 11.182480 0.993871 11697996
10.584285 10.101164 0.173069 11697996
10.519709 10.312123 1.784526 11697996
10.033022 9.091186 0.805236 11697996
9.395300 9.538247 2.597789 11697996
11.091406 10.981785 0.990624 11697996
10.611340 11.113629 1.065186 11697996
9.600433 10.417186 0.997149 11697996
8.859961 11.212608 1.641891 11697996
10.171329 10.044671 2.945406 11697996
8.975662 9.258171 1.983806 11697996
11.027531 9.009782 0.660493 11697996
9.784504 8.758984 0.780097 11697996
9.166764 10.420245 1.657796 11697996
10.811831 9.239462 0.550393 11697996
9.827913 9.586002 2.808620 11697996
9.772322 10.202056 0.241137 11697996
11.024318 10.435201 0.414386 11697996
9.495925 10.154302 1.556730 11697996
8.767277 11.091310 2.527293 11697996
10.312448 9.490544 0.511033 11697996
10.660250 8.890193 0.214393 11697996
11.206897 9.419158 2.616393 11697996
9.535469 10.732029 1.233491 11697996
10.205914 9.041693 1.021278 11697996
10.714094 10.831474 1.687639 11697996
9.509998 9.984935 2.364447 11697996
10.374123 9.138114 0.501003 11697996
10.639163 9.025243 2.454152 11697996
10.710100 10.138640 1.211804 11697996
9.353888 9.244039 1.748776 11697996
9.857208 10.269997 2.025923 11697996
9.161398 9.032893 1.671225 11697996
9.620479 8.969563 2.454876 11697996
9.480329 11.224083 1.647061 11697996
11.199209 9.617722 1.539343 11697996
9.661032 8.831343 0.369472 11697996
10.306594 10.670841 2.640800 11697996
11.000325 8.750038 2.028622 11697996
9.525770 9.053388 0.069927 11697996
10.001107 10.361061 2.663475 11697996
9.418604 9.642343 1.583348 11697996
9.388531 10.709840 2.884636 11697996
9.931027 9.760035 1.043393 11697996
9.186465 10.261042 2.874492 11697996
9.430360 10.663046 0.825383 11697996
10.076496 9.747283 3.917117 11697996
9.081154 10.598573 2.245053 11697996
8.782744 8.939195 1.137018 11697996
10.593417 9.202760 1.328189 11697996
10.068334 9.716776 2.252224 11697996
11.128345 10.344781 0.235374 11697996
11.095968 10.343307 3.539317 11697996
9.068287 10.212859 1.804935 11697996
9.908968 10.864485 3.191484 11697996
10.707001 10.687547 1.191771 11697996
11.185813 10.106731 1.952720 11697996
10.928973 11.213916 1.354575 11697996
10.772009 11.072318 3.780122 11697996
9.883619 10.272819 1.961098 11697996
11.222666 10.358853 0.473326 11697996
10.523800 10.047373 2.065351 11697996
10.069696 9.804217 3.676306 11697996
9.381210 10.676087 2.023212 11697996
9.590189 10.313803 2.678812 11697996
9.805558 9.618258 0.970818 11697996
9.115088 8.870327 3.358486 11697996
9.529676 8.950053 0.049730 11697996
10.749170 10.066731 2.291143 11697996
9.499643 9.147758 3.814094 11697996
9.914830 9.891887 2.132461 11697996
9.391850 10.528116 0.393577 11697996
9.690046 10.197687 2.060608 11697996
9.368629 11.110165 3.839677 11697996
9.938787 9.963824 2.222598 11697996
8.967057 10.299065 0.922570 11697996
9.577467 9.624737 2.341551 11697996
11.112306 10.469925 1.195617 11697996
10.865127 10.399384 1.600811 11697996
9.383245 9.358297 0.092081 11697996
9.951823 10.045127 1.264834 11697996
11.156309 9.861556 1.114396 11697996
9.765846 9.304681 -0.012072 11697996
9.005705 9.523769 1.792554 11697996
10.872111 9.437666 0.603337 11697996
9.654089 10.024468 1.455525 11697996
9.705801 10.836176 0.253715 11697996
11.245818 10.284314 3.996412 11697996
8.754206 9.730493 2.613454 11697996
9.979594 10.787902 3.183368 11697996
10.087216 10.004687 2.292209 11697996
11.150808 9.847500 2.116683 11697996
9.818239 10.175589 3.504266 11697996
8.933070 9.195921 2.368969 11697996
9.688079 10.419042 2.832671 11697996
10.532093 9.849029 3.821191 11697996
10.589276 9.575289 2.870782 11697996
8.996210 9.508536 2.918588 11697996
10.846456 11.195441 2.798185 11697996
11.196812 10.683397 0.468120 11697996
11.244730 8.783978 1.750253 11697996
9.810809 9.940257 2.483493 11697996
10.435155 8.875834 3.627460 11697996
10.674335 9.625328 1.715022 11697996
10.291035 8.916862 1.261382 11697996
9.711377 10.459860 3.810400 11697996
10.635715 10.449393 1.297653 11697996
10.167049 10.313159 3.655751 11697996
10.183799 9.230015 0.618364 11697996
9.880967 9.071264 1.050613 11697996
10.583631 10.662607 1.768012 11697996
9.960953 10.150318 0.451605 11697996
10.080068 10.407251 3.730299 11697996
10.216461 9.622681 1.576619 11697996
11.057274 9.425166 3.296072 11697996
9.794156 8.757741 3.518192 11697996
9.401217 9.783233 1.290200 11697996
8.967048 8.983847 3.416743 11697996
10.528332 10.516642 1.278886 11697996
10.232707 10.088695 0.198638 11697996
8.991150 10.447879 2.988480 11697996
10.707531 8.809278 1.106417 11697996
8.995231 9.035285 3.304590 11697996
9.732291 11.146670 2.942979 11697996
9.763496 10.930215 0.194981 11697996
11.066673 9.494171 2.011849 11697996
10.508156 10.099537 3.013328 11697996
9.250425 10.617197 2.752179 11697996
11.150376 10.913188 0.185361 11697996
10.084205 9.172743 1.886234 11697996
10.638288 10.253940 2.277033 11697996
11.216165 9.841217 3.110780 11697996
9.033882 10.087540 2.502065 11697996
10.942926 9.084039 1.200726 11697996
11.119023 10.817154 0.177463 11697996
10.402306 10.968216 3.304080 11697996
10.701781 10.813639 3.041862 11697996
9.476652 9.330987 1.064457 11697996
8.897204 9.876369 2.693002 11697996
10.005278 10.569060 3.645221 11697996
10.302855 10.457413 0.932507 11697996
10.295114 9.370635 2.763893 11697996
11.169436 10.987339 2.734605 11697996
9.557518 8.814353 1.066067 11697996
9.461021 9.579691 1.503124 11697996
10.143269 11.120272 2.557798 11697996
9.134469 9.239856 1.731188 11697996
9.378524 8.968868 2.945858 11697996
9.678234 9.732349 2.027956 11697996
10.717308 11.065628 3.680915 11697996
11.104513 10.367012 3.787530 11697996
10.959139 9.193138 0.037217 11697996
11.114433 10.428666 3.175047 11697996
8.959500 9.022637 1.216199 11697996
8.928647 10.253799 3.060282 11697996
8.955946 9.516562 0.984636 11697996
9.318928 9.557666 2.679535 11697996
10.061340 9.141338 3.192177 11697996
8.767950 8.948585 0.448991 11697996
10.152100 10.332446 1.259910 11697996
8.813135 10.266973 0.877072 11697996
9.462511 10.147113 0.379341 11697996
9.589545 9.886941 1.746670 11697996
9.309521 9.163829 1.359925 11697996
9.965898 9.011666 0.910953 11697996
9.358361 9.564145 0.386465 11697996
9.293607 9.608036 0.320352 11697996
9.530319 10.373285 1.871387 11697996
9.059719 9.820319 3.732191 11697996
9.500397 10.009656 0.535810 11697996
9.799608 10.381017 0.698414 11697996
10.794090 11.193713 1.685948 11697996
10.967765 10.225980 0.746703 11697996
9.340230 9.090973 2.475091 11697996
10.073913 9.438017 1.645386 11697996
9.499454 10.057703 2.790099 11697996
10.110618 10.533803 2.625684 11697996
10.917218 9.719969 2.150334 11697996
10.813528 9.550986 0.690905 11697996
9.454787 11.230732 3.643780 11697996
11.213008 10.309531 0.542424 11697996
10.966969 10.478014 3.570781 11697996
10.983376 10.140983 2.403664 11697996
9.435362 8.835055 1.793038 11697996
10.443066 11.085543 0.502772 11697996
9.696952 9.010427 2.024119 11697996
9.646280 9.564960 2.028957 11697996
10.283134 9.596306 1.245019 11697996
9.972740 10.542907 1.340178 11697996
10.381328 9.662857 3.549875 11697996
11.213526 8.854712 0.832717 11697996
10.157831 9.132032 2.834552 11697996
9.520258 9.255049 2.131974 11697996
8.758615 9.375974 0.387861 11697996
9.680628 9.486083 0.675874 11697996
9.037605 10.157516 1.882174 11697996
11.076559 10.253886 1.561682 11697996
9.400821 10.119925 0.674838 11697996
10.138539 8.773678 0.043622 11697996
9.978689 10.472395 3.018191 11697996
9.158099 9.262911 2.547381 11697996
9.317301 9.311543 0.499191 11697996
10.791520 11.155154 3.981701 11697996
9.194474 10.313468 1.547337 11697996
9.923972 9.483954 3.548361 11697996
8.773921 9.435682 2.249699 11697996
10.332871 9.672505 2.775523 11697996
9.757143 11.189082 3.799647 11697996
10.351752 10.600366 3.033292 11697996
10.556811 10.956137 3.958097 11697996
11.197432 9.073076 2.778438 11697996
9.863397 9.356926 2.471599 11697996
10.263047 10.723196 3.245669 11697996
9.500080 10.187893 3.541764 11697996
9.260163 9.967142 0.102108 11697996
10.218814 10.810450 1.685664 11697996
10.739694 10.264971 1.987406 11697996
10.902009 10.620347 1.051892 11697996
10.112860 8.871136 1.849628 11697996
9.983804 10.318563 1.239901 11697996
11.125854 9.643517 1.940900 11697996
10.446656 9.468333 3.620219 11697996
9.989685 10.093531 0.910204 11697996
10.862957 10.925190 1.260232 11697996
10.225072 9.837970 2.536457 11697996
9.698952 9.196730 3.346205 11697996
9.729961 10.887530 2.215208 11697996
9.475678 10.391255 0.867574 11697996
10.877152 10.644540 3.439925 11697996
9.220782 9.608565 2.358099 11697996
9.013472 10.777347 0.045288 11697996
9.387256 10.916987 1.942115 11697996
9.879628 8.868067 3.080389 11697996
8.819460 9.813353 2.047539 11697996
8.970650 10.624273 0.349665 11697996
8.825974 9.282001 1.227486 11697996
10.880371 9.345250 1.042228 11697996
10.903792 10.439303 3.052935 11697996
9.085326 10.831627 3.807794 11697996
10.924455 9.475799 2.971557 11697996
10.899228 8.760510 0.335680 11697996
9.010874 10.374290 1.043159 11697996
10.418015 8.836127 1.924218 11697996
9.370275 9.292993 0.068996 11697996
9.578295 9.936581 1.252878 11697996
10.715075 8.928349 1.109914 11697996
9.089238 10.548961 0.973563 11697996
10.529686 10.183053 0.393720 11697996
11.027484 9.323958 1.869983 11697996
9.074372 9.869254 1.982647 11697996
10.103448 11.111297 2.728476 11697996
8.859467 9.193146 0.639792 11697996
9.512486 10.823995 3.759848 11697996
9.250228 9.626238 2.222151 11697996
9.278329 10.463855 0.178221 11697996
10.702770 9.848547 2.528023 11697996
9.544269 8.848679 3.744352 11697996
10.934199 10.033774 1.509023 11697996
9.094726 10.357867 1.668062 11697996
9.324932 9.390485 2.040612 11697996
10.258426 8.797474 3.913594 11697996
10.073272 9.170715 3.305798 11697996
10.666144 10.068603 3.226399 11697996
11.252996 10.635121 3.824614 11697996
9.277658 9.287160 2.119021 11697996
9.526569 10.964252 3.262820 11697996
10.064279 9.336518 0.448949 11697996
9.502038 10.446788 2.360066 11697996
10.955259 8.877965 1.164096 11697996
9.664240 10.347638 1.551911 11697996
10.526743 10.453323 1.561629 11697996
9.857635 9.078690 2.501776 11697996
9.315580 10.509033 2.115199 11697996
9.228467 10.028589 0.666539 11697996
9.616069 10.458706 3.765780 11697996
10.331230 9.835990 3.622926 11697996
10.023998 9.297823 2.001226 11697996
10.622998 9.801352 0.417765 11697996
11.230986 10.565007 3.181519 11697996
10.665780 9.646156 3.233533 11697996
10.220516 10.365434 0.787544 11697996
9.608315 10.307066 2.667465 11697996
11.011188 11.155690 3.924051 11697996
11.090684 11.141723 1.979280 11697996
9.233884 9.036716 0.238814 11697996
9.773239 9.777106 3.558809 11697996
9.319358 11.116093 1.587033 11697996
8.926483 10.570254 0.418876 11697996
11.182302 11.022861 2.705693 11697996
8.888040 10.700569 1.587160 11697996
10.651496 9.418408 1.066708 11697996
10.815351 9.579608 3.172977 11697996
10.138363 10.201271 0.964684 11697996
9.116730 9.664367 2.362742 11697996
11.079999 9.110649 0.557565 11697996
9.374589 8.806227 2.206048 11697996
10.916174 10.868792 2.302051 11697996
10.429366 10.707786 3.771676 11697996
9.468891 10.918200 0.986584 11697996
9.282152 10.227772 3.516539 11697996
10.340411 9.459144 2.923638 11697996
10.593150 10.416360 3.612178 11697996
8.858283 11.160538 1.209936 11697996
9.577759 10.188659 1.093066 11697996
9.607200 10.041781 3.160091 11697996
10.718036 10.347274 3.239219 11697996
10.148463 9.554368 0.175938 11697996
9.049128 8.899678 0.026076 11697996
9.512269 10.224534 1.451165 11697996
10.651403 9.584842 3.550239 11697996
9.103732 11.171412 0.592053 11697996
9.530129 11.166657 0.473317 11697996
10.720619 8.876426 1.573918 11697996
10.419959 10.831325 2.150334 11697996
11.237670 10.929296 3.063188 11697996
11.134260 8.896045 2.570562 11697996
9.913169 10.797008 3.918005 11697996
9.464249 10.389721 3.978679 11697996
9.097399 9.194457 3.172980 11697996
9.142011 10.544120 3.411657 11697996
10.971712 11.071894 2.852262 11697996
9.573108 10.452791 2.064067 11697996
9.371540 10.016673 3.740113 11697996
10.956559 9.743368 3.793413 11697996
9.601551 9.078623 0.408917 11697996
9.112568 9.179124 0.550753 11697996
9.511444 9.063752 1.343324 11697996
9.740365 10.370404 3.254894 11697996
10.824659 9.317618 0.735016 11697996
9.037590 10.182045 1.966368 11697996
9.482268 10.536237 1.105988 11697996
10.132936 9.256252 2.751686 11697996
9.487576 10.223804 0.004032 11697996
9.388729 9.169831 0.265216 11697996
10.787865 9.850519 1.494619 11697996
9.809452 10.777857 0.179664 11697996
8.993136 9.701403 0.844117 11697996
10.181499 9.453793 2.057996 11697996
10.919919 9.245589 1.054177 11697996
8.866020 10.276759 1.848941 11697996
8.852863 11.014791 3.584234 11697996
10.566736 9.093069 2.367484 11697996
9.302680 10.922812 1.814298 11697996
10.565744 9.916905 0.536545 11697996
9.452005 9.135451 3.727808 11697996
10.308800 10.281278 0.050910 11697996
10.717047 9.019166 3.678575 11697996
9.143505 11.144124 3.962537 11697996
10.276088 9.290411 1.959834 11697996
8.849392 9.020459 3.676401 11697996
10.276543 9.235582 2.650423 11697996
9.720345 10.016949 3.975958 11697996
8.777451 9.787061 1.487645 11697996
9.293632 10.474293 2.149899 11697996
9.644375 10.680985 2.766640 11697996
9.287437 9.867617 2.147350 11697996
8.762267 10.287008 3.216880 11697996
9.300777 10.973269 0.116749 11697996
8.839076 9.466723 2.482236 11697996
10.852308 9.775490 1.556376 11697996
10.218109 9.763010 1.768090 11697996
10.429284 10.079393 2.337976 11697996
10.139624 9.226441 2.941490 11697996
10.121676 10.347527 3.475935 11697996
9.139257 10.089990 1.010933 11697996
9.379569 8.849098 2.585231 11697996
11.262190 11.124681 1.229258 11697996
9.091473 10.181543 2.625685 11697996
9.636514 9.721333 2.729915 11697996
9.373949 9.757248 1.669598 11697996
9.388025 10.857645 3.607223 11697996
10.702312 8.869314 2.786431 11697996
10.161850 9.328349 1.612686 11697996
10.949617 10.738963 3.858706 11697996
9.099221 9.419382 3.331159 11697996
10.010958 9.661547 0.876878 11697996
9.252938 10.968990 0.484704 11697996
9.036094 10.995247 1.930719 11697996
10.949298 10.800375 1.334194 11697996
9.871286 9.246861 3.166672 11697996
10.394777 9.839517 1.362302 11697996
10.286578 9.905450 3.931463 11697996
9.441877 9.070518 3.585643 11697996
9.776624 10.479675 3.216344 11697996
8.966100 9.811981 2.813167 11697996
10.344809 10.998260 0.408192 11697996
10.104689 10.961026 3.002098 11697996
8.991723 9.473184 0.277329 11697996
8.768285 10.161703 0.977660 11697996
9.680639 10.679482 0.582045 11697996
10.384623 10.161781 3.316516 11697996
9.125963 10.242743 3.679863 11697996
11.209123 10.294606 2.500025 11697996
10.884909 10.051864 2.845776 11697996
10.142280 10.022943 0.110997 11697996
10.548032 9.474605 1.640586 11697996
9.085814 9.126770 0.499225 11697996
8.904697 10.882741 0.505122 11697996
9.099735 10.215743 2.256932 11697996
9.795047 10.615764 2.018754 11697996
10.930915 9.404918 3.385318 11697996
8.993966 10.747796 2.026726 11697996
8.843025 10.126955 2.787996 11697996
9.764282 10.068139 0.652185 11697996
10.764373 10.724404 0.495389 11697996
9.347157 10.082674 3.253657 11697996
8.772804 8.934640 1.691475 11697996
9.605622 9.731359 1.453074 11697996
9.587894 11.132555 2.505152 11697996
11.064509 9.878448 2.831380 11697996
9.428163 9.422347 2.558289 11697996
9.327576 9.595422 1.662716 11697996
10.529347 11.241237 0.399486 11697996
9.254406 8.918319 3.434170 11697996
10.586921 9.778399 2.306408 11697996
9.988970 10.669223 1.579638 11697996
9.796846 11.167689 2.139052 11697996
10.628647 11.008297 2.307723 11697996
9.724687 11.089129 3.439374 11697996
10.123324 8.958054 0.083818 11697996
9.781900 10.464657 1.634302 11697996
8.860993 9.752469 2.757678 11697996
10.154759 9.920649 2.392009 11697996
10.959855 9.919780 1.818019 11697996
10.125596 10.688341 1.085254 11697996
9.298812 9.002703 3.198883 11697996
9.624583 9.639242 0.831727 11697996
9.763943 10.163465 1.013534 11697996
10.028085 9.935979 2.452673 11697996
11.197630 10.502587 3.323755 11697996
9.638407 9.958753 1.906626 11697996
10.660054 8.834478 0.237785 11697996
11.156296 9.340574 0.012596 11697996
11.108805 9.329528 0.841152 11697996
9.757772 10.292822 1.561214 11697996
10.384727 8.935811 0.676805 11697996
11.132058 8.890567 2.810192 11697996
11.201209 9.436294 3.278917 11697996
11.107188 9.162913 2.085988 11697996
11.172697 10.736902 3.927690 11697996
10.551805 9.730614 2.571804 11697996
10.140868 10.154176 0.352061 11697996
10.796082 10.463597 1.362943 11697996
9.496955 8.846402 1.564289 11697996
9.338142 9.948280 3.405601 11697996
10.708055 10.506464 2.095668 11697996
10.898445 8.806935 2.285248 11697996
9.029984 8.877878 3.407280 11697996
10.231207 10.757875 0.433286 11697996
11.128826 10.914715 3.457493 11697996
10.638178 10.438098 3.044716 11697996
9.338670 9.996473 3.419484 11697996
10.384351 11.104186 0.774193 11697996
10.043788 9.364979 0.870324 11697996
10.556624 10.365160 1.696018 11697996
10.030133 10.170378 3.381251 11697996
9.609016 10.030309 2.780128 11697996
10.520419 9.153657 1.163247 11697996
9.998166 9.587876 1.744056 11697996
10.752752 10.247006 1.771222 11697996
10.679763 11.027877 0.929716 11697996
11.067443 9.836603 2.064771 11697996
10.497827 10.151891 1.530208 11697996
11.050976 9.293075 3.884314 11697996
9.182840 9.677384 2.566724 11697996
10.497739 10.289248 2.291050 11697996
9.556363 10.795482 1.705359 11697996
10.549953 9.507034 3.969308 11697996
10.318712 10.358437 1.598930 11697996
9.270494 9.754893 0.302233 11697996
9.009173 10.649221 2.505550 11697996
11.056727 10.992609 2.974700 11697996
9.299622 9.527649 0.113624 11697996
9.419713 10.541591 2.609230 11697996
9.282563 10.085119 -0.001141 11697996
10.387131 9.584236 0.288382 11697996
9.917634 11.044385 1.125933 11697996
10.075345 9.889731 0.986221 11697996
9.977475 9.882263 1.757650 11697996
8.923950 9.020580 0.466494 11697996
10.187525 10.386616 3.600203 11697996
10.807324 10.484735 1.512621 11697996
9.317059 10.562969 3.049500 11697996
8.959583 9.294354 3.925661 11697996
9.293044 9.366544 3.749002 11697996
10.497922 10.347938 0.128435 11697996
11.200353 11.034145 2.771723 11697996
10.162291 10.397541 3.992460 11697996
9.026078 11.048494 2.430069 11697996
9.979826 10.573693 1.086880 11697996
10.741664 10.448493 1.000065 11697996
10.307915 9.908529 1.908494 11697996
9.246987 9.835826 3.122894 11697996
10.857527 9.972064 1.302941 11697996
11.233325 8.842658 0.134621 11697996
9.307077 9.550103 1.881895 11697996
9.440328 10.241769 3.943455 11697996
10.627500 10.917277 2.768372 11697996
9.780663 9.434094 2.231108 11697996
11.199212 10.742643 1.623314 11697996
9.077268 10.813581 0.310189 11697996
9.659224 9.672425 0.155155 11697996
9.697542 9.025719 2.259035 11697996
9.867347 11.065798 3.557240 11697996
10.661778 9.135563 3.469577 11697996
9.449562 10.157186 1.875973 11697996
9.655506 9.866635 3.411335 11697996
10.216811 9.542611 3.189472 11697996
10.914062 8.759507 0.631809 11697996
10.148869 9.803453 1.592932 11697996
9.455320 8.999647 3.392344 11697996
10.077816 10.818701 2.317281 11697996
10.134068 9.878901 3.380624 11697996
9.770445 9.063633 3.044447 11697996
11.163794 9.577511 1.209219 11697996
9.176145 9.627883 2.739510 11697996
9.113433 10.066632 1.848265 11697996
11.033176 10.271132 3.444587 11697996
9.052401 9.577418 0.210396 11697996
10.619165 9.784596 1.381772 11697996
11.029625 10.162133 0.073347 11697996
10.439464 10.176044 2.283150 11697996
10.432700 10.582742 2.567811 11697996
10.947598 9.792537 3.766334 11697996
9.437858 10.710294 3.139711 11697996
8.782759 9.828640 3.724934 11697996
10.431803 9.068976 0.403429 11697996
8.857064 9.612881 0.131156 11697996
10.937248 9.887870 1.898296 11697996
10.406049 10.314868 1.381521 11697996
9.008971 9.193712 1.549870 11697996
11.023767 8.978504 1.385920 11697996
9.204672 10.484425 1.200465 11697996
9.516459 11.041839 0.768041 11697996
10.662766 10.961464 2.862868 11697996
11.148209 10.776616 0.144118 11697996
9.140230 8.885921 0.251749 11697996
9.851482 10.001847 3.841817 11697996
10.421735 9.577969 2.694779 11697996
11.053123 10.857677 2.964273 11697996
10.007785 10.782334 0.118442 11697996
10.294557 9.037276 0.284912 11697996
10.374517 10.937017 0.977026 11697996
8.771286 9.403277 0.780283 11697996
9.351169 11.049936 1.220715 11697996
10.741141 8.991253 1.527277 11697996
9.976126 10.655107 0.390149 11697996
10.692098 9.819317 1.735818 11697996
10.252750 10.053043 3.903816 11697996
10.639765 9.387613 3.075783 11697996
10.110464 11.159763 0.288416 11697996
9.038147 9.883960 1.715570 11697996
9.593474 10.131337 3.798483 11697996
9.765552 10.769044 1.250362 11697996
11.010166 11.041378 0.421434 11697996
10.275791 9.188346 2.157201 11697996
8.753504 9.124899 1.855172 11697996
8.762357 9.242176 1.233497 11697996
8.883107 9.562105 2.076650 11697996
9.346511 10.829510 1.799195 11697996
9.031977 10.286707 2.106405 11697996
8.986478 10.645759 1.962894 11697996
9.170924 10.539828 0.337574 11697996
10.093800 11.181069 2.692923 11697996
9.301124 10.161392 3.503785 11697996
11.113317 10.560081 2.624748 11697996
10.700033 9.791471 0.689476 11697996
9.609281 9.008411 2.046357 11697996
10.364902 10.289309 3.017617 11697996
10.193392 9.215292 1.920256 11697996
11.229386 9.830170 1.999660 11697996
11.069316 9.214117 2.224289 11697996
9.969384 11.033741 1.742299 11697996
11.194092 9.497002 1.490623 11697996
9.984074 9.166963 1.402610 11697996
10.674274 10.541597 3.136856 11697996
11.093475 11.161160 3.775994 11697996
9.908649 9.189670 3.646474 11697996
11.209724 11.163074 0.609354 11697996
9.172208 9.228923 3.902886 11697996
10.807616 10.247588 2.599100 11697996
10.139608 10.161864 0.363534 11697996
9.792430 10.233103 0.580026 11697996
10.348452 8.764889 0.303171 11697996
10.461949 9.636641 2.696609 11697996
9.456555 9.149659 2.382748 11697996
8.762995 10.504344 3.923578 11697996
10.853861 10.099698 2.899575 11697996
10.560681 11.010291 3.484504 11697996
9.067736 9.728353 3.636354 11697996
8.793090 9.466266 0.853086 11697996
9.308601 10.842901 2.033662 11697996
10.180892 9.531660 2.919858 11697996
9.656699 9.849542 0.658508 11697996
11.067640 9.814665 2.096099 11697996
10.068394 10.306351 2.302102 11697996
10.774551 11.124629 1.836311 11697996
10.182562 9.653666 3.263160 11697996
8.809280 9.182902 0.255884 11697996
10.763012 9.810639 3.110766 11697996
11.189046 8.804587 1.016063 11697996
9.708822 10.487146 2.744269 11697996
10.927802 10.568790 1.853615 11697996
9.806336 10.771926 3.950771 11697996
10.661989 10.415375 0.147413 11697996
11.052750 9.025916 1.020026 11697996
10.212551 9.147968 0.969094 11697996
10.213905 11.131816 2.424950 11697996
9.531775 11.006486 0.761502 11697996
9.574547 10.636713 0.767636 11697996
9.032902 8.971683 1.447889 11697996
10.734535 9.818782 2.762697 11697996
10.458362 10.017981 2.164426 11697996
10.566818 8.841860 2.524177 11697996
9.025963 11.190836 1.105124 11697996
9.607979 10.172692 3.578482 11697996
9.665328 10.902584 2.901144 11697996
10.592405 9.150516 0.984433 11697996
8.814776 9.149319 1.186857 11697996
11.064498 10.726506 1.719512 11697996
8.923410 9.647620 3.315095 11697996
10.687653 9.129741 2.195835 11697996
10.691302 9.888371 3.861244 11697996
8.865411 9.375322 1.910670 11697996
9.997656 9.251698 1.373348 11697996
10.607293 9.925292 0.739660 11697996
9.540836 10.790174 3.145289 11697996
9.217192 9.594101 3.053051 11697996
10.170013 9.434861 2.866924 11697996
11.231112 9.851336 0.518393 11697996
10.864571 9.482453 0.501327 11697996
10.008030 11.168566 0.791847 11697996
9.616728 9.371274 0.578174 11697996
9.489170 9.592060 3.605491 11697996
9.751428 9.358322 3.491632 11697996
9.839353 10.001877 3.161085 11697996
9.223522 9.785753 2.359360 11697996
9.606071 9.351842 1.831376 11697996
8.781731 10.003388 0.790766 11697996
10.832603 10.561776 0.107063 11697996
8.876150 10.695091 0.363530 11697996
11.100899 11.220593 3.610936 11697996
10.409860 9.252252 1.191901 11697996
10.360777 8.855078 3.447505 11697996
11.176468 11.255933 3.790282 11697996
10.971635 9.767790 1.197995 11697996
11.061461 9.344109 2.881128 11697996
10.035405 10.876200 3.820417 11697996
9.996737 9.930965 2.940844 11697996
10.667819 11.040118 1.473237 11697996
9.922328 10.901030 0.934261 11697996
9.799481 9.647319 2.236151 11697996
10.731823 9.288136 3.272502 11697996
9.486244 9.704550 0.276052 11697996
10.538503 9.100633 2.420544 11697996
8.842572 9.360220 1.307439 11697996
10.538074 9.541882 3.666417 11697996
11.049582 9.085509 1.267305 11697996
10.326310 8.798187 1.693602 11697996
10.936370 10.728433 2.689574 11697996
9.594042 8.996891 1.306395 11697996
8.777315 9.677669 0.361496 11697996
8.818176 9.056527 3.137031 11697996
10.554554 10.736214 2.102168 11697996
10.463653 9.867052 1.390577 11697996
10.355732 8.977640 3.752139 11697996
10.354660 10.710885 2.385374 11697996
11.020466 8.802740 0.158286 11697996
9.021309 9.508854 2.741057 11697996
10.487923 9.747540 2.993093 11697996
10.782417 10.250745 3.130263 11697996
10.393992 9.005005 1.361052 11697996
10.131014 9.681302 2.028898 11697996
9.529203 11.046503 1.933587 11697996
9.769985 9.503736 1.369519 11697996
9.318156 10.516830 3.849302 11697996
10.888770 9.661151 0.708692 11697996
9.781356 10.589038 2.623101 11697996
8.834050 9.861952 1.579298 11697996
10.279566 10.312987 3.746258 11697996
8.757788 9.772176 1.679962 11697996
9.412162 10.186863 1.833385 11697996
9.467031 9.572735 0.071773 11697996
9.891044 10.162932 1.846764 11697996
9.469533 8.775264 2.165513 11697996
9.452003 10.098740 0.439367 11697996
9.328057 8.751009 3.941003 11697996
8.933873 10.387302 2.377672 11697996
9.613650 10.063911 1.661721 11697996
9.259726 9.871918 0.892425 11697996
10.778678 10.844838 1.381528 11697996
11.161268 9.849548 3.179352 11697996
10.538122 10.253704 1.264869 11697996
8.947078 10.617798 3.698516 11697996
10.532813 10.212415 2.765680 11697996
9.692918 9.306895 3.538094 11697996
10.972084 11.151850 0.937103 11697996
10.366713 10.660479 2.620541 11697996
10.170696 10.682757 1.182987 11697996
10.489079 9.469474 2.185938 11697996
9.904124 9.338542 0.053081 11697996
9.624622 10.707418 0.596373 11697996
10.342699 9.274886 0.277591 11697996
9.030938 10.761835 0.473536 11697996
10.391348 10.930564 2.002342 11697996
10.055336 9.041190 2.652687 11697996
10.188462 9.237380 3.804961 11697996
10.824920 9.845891 2.886602 11697996
10.339776 11.134936 1.069486 11697996
10.955749 9.080059 0.535524 11697996
11.129860 10.036092 1.428412 11697996
9.369863 10.206386 3.540405 11697996
9.050401 8.793864 1.265393 11697996
10.358187 10.564069 1.369537 11697996
8.938639 8.915582 3.241636 11697996
10.254056 9.189751 3.907484 11697996
9.109715 10.297940 2.629230 11697996
9.243917 9.826260 0.687284 11697996
9.851371 11.061850 3.329850 11697996
8.983874 10.328662 3.229635 11697996
8.825942 11.262750 2.911178 11697996
9.386347 10.305339 3.551587 11697996
11.163958 11.219761 0.486823 11697996
8.943926 9.302498 0.599824 11697996
10.233150 8.989117 3.640565 11697996
10.422800 11.092041 0.602355 11697996
8.761801 9.831580 3.661228 11697996
10.144156 10.353197 3.553252 11697996
9.612978 10.223487 1.103775 11697996
9.690908 8.767629 3.115849 11697996
10.002090 9.527115 3.123862 11697996
10.519728 9.827076 2.823126 11697996
9.347277 9.027497 1.068152 11697996
10.829004 11.068750 1.627381 11697996
9.920847 9.311575 3.097206 11697996
10.343418 9.382728 1.316670 11697996
10.397884 10.931500 3.312493 11697996
8.850080 9.650528 1.911875 11697996
9.290759 10.796520 3.036507 11697996
9.417872 10.777853 1.300133 11697996
9.307446 9.893094 2.332405 11697996
11.103371 9.006439 0.169263 11697996
10.107820 9.003390 1.864590 11697996
10.682467 9.847707 1.123387 11697996
10.348232 10.171755 0.616762 11697996
10.971009 9.690401 3.083380 11697996
8.852967 10.655236 1.577052 11697996
10.231777 9.671863 3.043836 11697996
9.004978 10.488178 3.396286 11697996
10.249525 10.470888 0.002190 11697996
9.093198 10.362016 2.127004 11697996
9.875594 10.495588 1.666433 11697996
10.081003 9.822782 1.471228 11697996
10.874682 9.908393 1.268047 11697996
9.477799 8.950723 1.821128 11697996
10.563798 9.220568 2.164868 11697996
11.170180 10.326285 3.103665 11697996
11.222877 9.367780 3.485919 11697996
9.953848 9.056131 1.579143 11697996
10.943776 9.811970 1.136468 11697996
11.240944 10.060566 0.417173 11697996
9.872706 8.771695 2.299577 11697996
10.052804 9.493979 2.339216 11697996
9.983700 10.732483 1.732384 11697996
9.922923 9.966592 2.872215 11697996
9.962371 10.667741 3.788673 11697996
10.728895 9.309415 2.499342 11697996
9.468087 8.946824 0.276589 11697996
9.381036 8.845679 0.485593 11697996
9.076616 10.568978 3.240149 11697996
8.949500 9.551381 3.336760 11697996
10.126595 10.994853 0.118257 11697996
8.761931 10.497142 3.814083 11697996
10.312266 8.843061 3.562013 11697996
9.304972 10.558088 1.798617 11697996
9.423416 10.891638 1.890279 11697996
8.952765 9.925272 0.229091 11697996
10.437108 9.481833 2.719787 11697996
10.500460 9.633207 3.274173 11697996
10.288805 9.743528 0.830980 11697996
9.264380 10.114123 0.234904 11697996
8.829888 10.335857 0.937098 11697996
10.472021 11.213876 3.575807 11697996
9.043952 8.919784 2.853722 11697996
9.514415 10.382689 3.722300 11697996
8.793126 10.057946 2.451840 11697996
10.762573 10.606777 3.403044 11697996
11.036998 11.245538 3.657791 11697996
10.470408 8.793433 0.942371 11697996
8.944666 10.310657 0.017097 11697996
9.064949 9.396939 0.716070 11697996
9.253006 8.932490 0.306755 11697996
9.574933 9.166534 0.220226 11697996
10.890657 10.287038 1.710271 11697996
9.790513 10.211402 3.588289 11697996
9.096827 9.795901 1.791574 11697996
9.904899 9.470339 1.259297 11697996
9.381682 9.180669 1.498561 11697996
10.175438 10.470497 3.099399 11697996
10.096453 9.920069 0.778938 11697996
11.038137 9.096150 1.684291 11697996
8.748079 10.496675 0.228131 11697996
10.441463 11.109345 2.029972 11697996
9.896918 9.550091 1.704375 11697996
11.222942 10.184408 0.774532 11697996
9.831590 9.149135 1.794785 11697996
9.769368 9.642004 2.913897 11697996
10.723133 9.470179 3.007369 11697996
10.551187 8.747287 2.894643 11697996
10.612907 10.551255 2.327755 11697996
9.379163 9.838411 3.220030 11697996
10.387263 10.698111 2.629607 11697996
10.350963 10.527802 2.531626 11697996
8.745517 8.842279 0.483623 11697996
10.191385 9.010739 2.607952 11697996
9.911866 10.297592 2.022922 11697996
9.811693 11.191331 2.480231 11697996
8.777387 9.430751 0.020075 11697996
10.660638 9.465627 0.375166 11697996
-9.803308 -10.456861 0.696569 6730418
-10.248552 -10.965519 1.086080 6730418
-10.581991 -9.841810 2.182453 6730418
-10.383870 -9.391371 0.332388 6730418
-9.655311 -9.560048 1.831544 6730418
-9.941774 -9.358921 2.426646 6730418
-9.977661 -10.277816 2.923538 6730418
-9.626726 -9.362025 0.189459 6730418
-9.562327 -9.678775 2.427276 6730418
-9.417702 -10.318631 0.265506 6730418
-10.754882 -9.737785 1.186741 6730418
-9.453159 -10.360446 1.988716 6730418
-9.627395 -10.845797 2.878981 6730418
-10.217321 -10.172619 1.430892 6730418
-9.530973 -10.160316 0.756963 6730418
-9.330298 -10.561751 1.750225 6730418
-10.476974 -9.768436 0.168698 6730418
-9.316072 -10.712926 1.814623 6730418
-9.596096 -10.768520 1.343643 6730418
-9.857394 -10.470167 1.565845 6730418
-9.380378 -10.516839 1.794057 6730418
-9.787994 -9.252139 1.221042 6730418
-9.855117 -9.010027 2.083812 6730418
-9.758042 -10.787340 0.117923 6730418
-10.289186 -10.058092 0.305682 6730418
-10.142137 -9.690685 0.850466 6730418
-10.292293 -10.517992 0.460805 6730418
-9.911166 -9.582788 0.909891 6730418
-10.402457 -10.458097 0.971238 6730418
-9.607708 -10.424378 2.089267 6730418
-10.217435 -10.627310 2.036393 6730418
-9.474585 -9.312391 2.797504 6730418
-9.979596 -10.880327 1.237483 6730418
-10.830495 -9.447510 1.744968 6730418
-9.579671 -9.392480 2.122944 6730418
-10.454487 -9.818695 0.329013 6730418
-9.876696 -9.803876 1.209579 6730418
-9.538054 -10.571177 1.029378 6730418
-9.731448 -10.762283 1.899424 6730418
-9.369038 -9.471642 1.123869 6730418
-9.158440 -10.299512 0.471923 6730418
-9.896760 -10.769359 0.244243 6730418
-9.990706 -9.130043 2.580338 6730418
-9.537389 -10.191911 2.754807 6730418
-9.907225 -9.422315 2.488269 6730418
-10.331598 -9.803214 1.857020 6730418
-9.815007 -10.350327 0.857579 6730418
-9.386168 -9.417930 1.174432 6730418
-10.550524 -10.481189 1.860817 6730418
-9.491214 -9.441211 2.335163 6730418
-10.786723 -10.305339 2.764738 6730418
-9.288709 -9.883012 2.676873 6730418
-10.546006 -9.999257 1.916633 6730418
-9.921031 -10.120958 1.176636 6730418
-10.386770 -10.506337 2.594722 6730418
-9.898143 -10.477873 0.726939 6730418
-9.837378 -9.829277 1.391369 6730418
-9.485839 -10.236547 2.601353 6730418
-9.787411 -9.305087 1.804210 6730418
-9.756988 -10.529479 2.913191 6730418
-10.303213 -10.219075 1.260273 6730418
-9.107255 -9.739100 1.258816 6730418
-9.369765 -10.003534 2.128864 6730418
-10.224625 -9.079965 2.102069 6730418
-9.314460 -9.702121 2.731894 6730418
-10.180391 -9.298600 1.068622 6730418
-9.685810 -9.609447 1.190110 6730418
-10.044277 -9.085602 1.181029 6730418
-9.788617 -9.896504 0.923842 6730418
-10.590194 -10.584436 0.626083 6730418
-9.167524 -10.569002 0.749244 6730418
-10.050272 -10.877482 1.808508 6730418
-9.956035 -9.562366 2.840232 6730418
-9.667026 -10.102829 0.342250 6730418
-9.959410 -10.061717 1.493842 6730418
-9.509791 -9.327435 1.885964 6730418
-9.133024 -9.541843 1.138160 6730418
-10.031149 -9.142961 0.117218 6730418
-9.605227 -9.882401 0.750700 6730418
-9.787645 -9.906252 2.310755 6730418
-9.347677 -10.720787 1.984419 6730418
-10.437747 -9.451366 1.212036 6730418
-10.384164 -9.623059 2.663016 6730418
-9.189768 -9.927274 2.779557 6730418
-9.430366 -10.332364 0.121409 6730418
-10.180663 -9.479583 1.623850 6730418
-10.754559 -9.838788 1.462426 6730418
-10.192865 -9.785224 2.191024 6730418
-10.526697 -9.434210 1.203804 6730418
-10.015851 -9.395903 0.621223 6730418
-10.849335 -10.215836 2.656628 6730418
-9.905432 -9.723577 2.327771 6730418
-10.821415 -9.860659 1.475512 6730418
-10.714488 -9.739699 0.824133 6730418
-9.694008 -10.534291 2.711950 6730418
-10.710800 -10.598837 1.408608 6730418
-10.076145 -10.340123 1.562069 6730418
-9.750010 -10.974044 0.389238 6730418
-10.013528 -10.385064 1.112449 6730418
-9.414759 -10.256131 1.083614 6730418
-9.617793 -10.233232 2.179881 6730418
-9.047470 -9.852324 0.388203 6730418
-10.629781 -10.150873 0.451993 6730418
-9.523510 -10.483083 1.536520 6730418
-9.800283 -10.359572 1.950445 6730418
-9.974257 -10.246678 2.814718 6730418
-9.991080 -10.260787 2.399060 6730418
-9.495268 -9.577539 0.718646 6730418
-9.451027 -9.928685 2.669173 6730418
-9.728380 -10.521919 2.119704 6730418
-9.437854 -10.233491 0.552789 6730418
-9.022356 -10.296946 1.048036 6730418
-9.792237 -9.059099 0.953891 6730418
-9.189212 -10.426912 2.416062 6730418
-9.695399 -9.748756 2.758664 6730418
-9.085764 -10.277726 0.118711 6730418
-9.602795 -10.414463 1.002733 6730418
-10.378209 -10.480293 2.312050 6730418
-9.617732 -9.091807 1.854631 6730418
-9.272826 -10.102461 1.553970 6730418
-9.128196 -9.626727 1.747131 6730418
-9.332018 -9.524746 2.223511 6730418
-10.365401 -10.657458 0.658231 6730418
-9.252579 -10.384973 0.990492 6730418
-9.216403 -9.469734 0.316902 6730418
-9.264538 -10.047478 1.361105 6730418
-9.163282 -10.199672 1.830128 6730418
-10.384919 -9.307482 0.730190 6730418
-10.933572 -10.160362 2.202702 6730418
-9.905602 -9.392917 2.632288 6730418
-10.831285 -9.518290 1.580048 6730418
-9.243930 -10.176468 2.030163 6730418
-9.504268 -10.833650 2.809087 6730418
-9.413844 -10.431984 2.765873 6730418
-10.500060 -10.375966 2.131418 6730418
-9.972623 -10.563223 1.568617 6730418
-9.572537 -9.150807 2.691583 6730418
-9.977169 -10.507884 2.573371 6730418
-10.907141 -10.283648 1.724227 6730418
-10.280365 -9.495975 1.470379 6730418
-9.584169 -10.660964 2.417922 6730418
-9.394525 -9.935150 1.814668 6730418
-9.897768 -10.213772 0.076608 6730418
-10.616254 -10.377294 0.238170 6730418
-9.251744 -9.994255 0.002794 6730418
-10.780199 -10.317583 0.301256 6730418
-9.489745 -9.724008 1.826599 6730418
-10.506420 -9.839960 0.911498 6730418
-9.477960 -10.026910 1.501464 6730418
-9.891573 -10.315247 0.964153 6730418
-9.806234 -10.915044 0.103080 6730418
-10.018509 -9.548592 2.237084 6730418
-9.734421 -10.093998 2.005705 6730418
-9.144816 -10.480532 2.743798 6730418
-10.192010 -9.980675 2.019411 6730418
-10.395184 -9.934052 2.511279 6730418
-9.678598 -10.161118 2.533003 6730418
-10.134060 -9.959846 2.532429 6730418
-9.236144 -10.410461 1.141044 6730418
-10.351887 -10.727560 2.783082 6730418
-10.040037 -9.612420 2.817500 6730418
-9.296809 -10.650154 0.789731 6730418
-10.212385 -9.493509 1.211100 6730418
-10.035209 -9.260220 1.029118 6730418
-10.326911 -9.192286 2.720988 6730418
-9.403253 -10.556602 0.666052 6730418
-10.802689 -10.033490 0.925870 6730418
-9.926335 -10.627105 0.074374 6730418
-9.262725 -9.949909 1.827165 6730418
-9.386786 -9.228020 1.567640 6730418
-10.859976 -9.577477 0.593212 6730418
-9.527767 -9.864054 1.147817 6730418
-10.163598 -9.976742 1.356808 6730418
-10.080390 -9.884254 1.545152 6730418
-10.215166 -10.131032 2.149522 6730418
-9.609879 -9.410685 1.123143 6730418
-10.422902 -9.717083 0.880310 6730418
-10.331102 -9.400521 1.694628 6730418
-10.401329 -10.559480 2.934500 6730418
-10.241100 -10.967691 2.870455 6730418
-9.945226 -10.821133 2.298816 6730418
-9.940459 -9.575315 1.219811 6730418
-9.857094 -9.903777 2.548815 6730418
-9.532582 -9.350480 1.165098 6730418
-10.511037 -10.266240 1.005332 6730418
-9.807905 -9.941827 1.140506 6730418
-9.840180 -10.302673 2.099986 6730418
-9.644302 -9.574258 2.314657 6730418
-9.587545 -10.613777 2.320382 6730418
-9.818310 -9.185779 2.041511 6730418
-10.459625 -10.339036 0.608769 6730418
-10.010106 -10.983595 2.001634 6730418
-9.280793 -10.124810 0.093499 6730418
-10.431454 -9.470337 2.984273 6730418
-9.180053 -9.440413 2.249182 6730418
-10.142871 -9.216450 0.127459 6730418
-9.869558 -9.171756 2.246088 6730418
-9.073331 -9.817362 1.474287 6730418
-10.226685 -10.488383 0.390655 6730418
-9.731256 -9.090155 1.463118 6730418
-9.169192 -9.691384 1.670319 6730418
-9.246286 -9.576881 0.854317 6730418
-9.494084 -10.087007 0.648162 6730418
-9.456537 -10.382210 2.605906 6730418
-10.800743 -9.991413 0.417277 6730418
-10.714295 -9.869340 1.945265 6730418
-9.069285 -9.671724 0.658268 6730418
-9.792603 -9.668741 1.564270 6730418
-10.338254 -10.484330 1.506074 6730418
-9.220198 -9.450086 1.091792 6730418
-10.213009 -9.214561 2.318961 6730418
-10.825233 -9.616858 0.983878 6730418
-9.202187 -9.637882 0.423279 6730418
-9.680131 -9.732451 2.992510 6730418
-10.799031 -10.203012 2.386869 6730418
-9.249823 -9.814730 0.065097 6730418
-10.013809 -9.180941 2.125476 6730418
-9.703753 -10.253157 2.759906 6730418
-10.237288 -10.800445 1.870635 6730418
-9.516381 -10.087626 1.062305 6730418
-10.184182 -10.252315 1.176461 6730418
-10.178950 -9.799195 2.534910 6730418
-10.900374 -9.946203 1.815059 6730418
-9.260789 -9.600048 1.933653 6730418
-9.246102 -9.496763 1.998235 6730418
-9.896132 -10.239149 2.654850 6730418
-10.776201 -10.504618 2.457803 6730418
-9.345463 -10.389598 1.777887 6730418
-10.390444 -9.699079 1.233115 6730418
-10.188447 -10.181828 2.923334 6730418
-9.613322 -9.342410 1.762470 6730418
-9.466883 -10.806312 1.422909 6730418
-9.772250 -10.353916 0.610946 6730418
-9.607856 -10.276706 1.369085 6730418
-9.367855 -10.138894 1.250486 6730418
-9.361094 -9.250640 0.298280 6730418
-10.202864 -10.682149 0.945099 6730418
-10.541443 -10.518218 1.489754 6730418
-10.431280 -10.511266 2.449691 6730418
-10.559564 -9.960851 0.891927 6730418
-9.605183 -10.952559 1.955117 6730418
-9.237379 -10.446023 1.869503 6730418
-10.426640 -9.753820 2.679159 6730418
-10.339872 -10.206014 0.445516 6730418
-9.751350 -10.654983 2.660547 6730418
