# .PCD v0.7 - Point Cloud Data file format
VERSION 0.7
FIELDS x y z rgb
SIZE 4 4 4 4
TYPE F F F U
COUNT 1 1 1 1
WIDTH 1278
HEIGHT 1
VIEWPOINT 0 0 0 1 0 0 0
POINTS 1278
DATA ascii
8.760730 9.732589 2.592179 11697996
10.012320 10.782175 3.157033 11697996
10.112172 9.974601 2.255964 11697996
11.140890 9.823868 2.144647 11697996
9.818274 10.169751 3.501376 11697996
8.954786 9.180072 2.386034 11697996
9.680177 10.398479 2.890513 11697996
10.535699 9.842959 3.809948 11697996
10.555201 9.569317 2.838625 11697996
9.011291 9.493997 2.934389 11697996
10.831140 11.234857 2.791891 11697996
11.206795 10.726531 0.477205 11697996
11.218344 8.739161 1.741612 11697996
9.827846 9.968799 2.500694 11697996
10.436270 8.900299 3.591181 11697996
10.672819 9.603594 1.705369 11697996
10.321070 8.913393 1.230813 11697996
9.687016 10.489647 3.803995 11697996
10.599869 10.475481 1.282674 11697996
10.177999 10.335365 3.652067 11697996
10.163402 9.219707 0.615771 11697996
9.837777 9.093206 1.050617 11697996
10.577724 10.642643 1.771986 11697996
9.947708 10.152217 0.447377 11697996
10.082648 10.416714 3.748431 11697996
10.250596 9.657147 1.606990 11697996
11.073509 9.453951 3.307820 11697996
9.757370 8.744997 3.513549 11697996
9.372274 9.799010 1.266565 11697996
8.921032 8.952836 3.384289 11697996
10.474172 10.492115 1.289150 11697996
10.225528 10.094399 0.158699 11697996
9.016881 10.447653 2.978773 11697996
10.700973 8.823205 1.081940 11697996
8.970708 9.021751 3.301298 11697996
9.747923 11.118628 2.911587 11697996
9.765229 10.955948 0.195948 11697996
11.015415 9.486447 2.017250 11697996
10.519251 10.130359 3.051409 11697996
9.243879 10.572572 2.767842 11697996
11.183641 10.936428 0.164745 11697996
10.116655 9.158521 1.872093 11697996
10.632936 10.303090 2.304435 11697996
11.238944 9.833638 3.142740 11697996
9.030353 10.072701 2.520820 11697996
10.938890 9.117035 1.212070 11697996
11.104016 10.783683 0.165260 11697996
10.408882 10.971972 3.268737 11697996
10.689872 10.818316 3.054463 11697996
9.476954 9.321710 1.081096 11697996
8.877611 9.889106 2.678151 11697996
10.020725 10.582119 3.651513 11697996
10.269464 10.480749 0.938275 11697996
10.271953 9.402952 2.782655 11697996
11.146015 10.990278 2.725227 11697996
9.575646 8.818362 1.086897 11697996
9.453833 9.575376 1.491519 11697996
10.152805 11.139411 2.558877 11697996
9.109995 9.240533 1.723642 11697996
9.371005 8.971023 2.962429 11697996
9.670753 9.735737 2.019882 11697996
10.701150 11.065763 3.697500 11697996
11.094771 10.384886 3.751815 11697996
10.990420 9.203225 0.025461 11697996
11.135201 10.420630 3.172792 11697996
8.975365 9.004045 1.239662 11697996
8.912892 10.262216 3.075486 11697996
8.993924 9.530457 0.970938 11697996
9.309894 9.565583 2.661544 11697996
10.056463 9.169744 3.184614 11697996
8.789928 8.935650 0.446561 11697996
10.137117 10.328542 1.273894 11697996
8.819366 10.236742 0.895827 11697996
9.477857 10.139608 0.414395 11697996
9.609661 9.896190 1.750884 11697996
9.311303 9.183078 1.360448 11697996
10.008795 9.012558 0.962058 11697996
9.377124 9.559757 0.378821 11697996
9.320758 9.605278 0.279510 11697996
9.568904 10.342882 1.880982 11697996
9.067012 9.816738 3.736802 11697996
9.465829 10.042281 0.567321 11697996
9.799035 10.369844 0.675120 11697996
10.803137 11.180861 1.690931 11697996
10.995649 10.245450 0.760779 11697996
9.360175 9.075381 2.475686 11697996
10.062968 9.458068 1.658118 11697996
9.481853 10.036629 2.822718 11697996
10.074404 10.523446 2.623972 11697996
10.969617 9.704647 2.168865 11697996
10.836384 9.537715 0.716207 11697996
9.482797 11.228708 3.639241 11697996
11.193851 10.259725 0.543349 11697996
10.961130 10.509722 3.572114 11697996
11.012190 10.138513 2.372376 11697996
9.410943 8.820172 1.774489 11697996
10.440816 11.080764 0.504452 11697996
9.704651 9.020957 2.042217 11697996
9.645019 9.557257 2.054298 11697996
10.271828 9.637901 1.245868 11697996
9.986638 10.543009 1.349016 11697996
10.393157 9.693966 3.537040 11697996
11.206656 8.881429 0.852792 11697996
10.199933 9.176894 2.846136 11697996
9.540241 9.265479 2.125654 11697996
8.751082 9.371451 0.388623 11697996
9.701495 9.501944 0.670424 11697996
9.013110 10.156892 1.881122 11697996
11.064225 10.273345 1.538959 11697996
9.393498 10.070604 0.693366 11697996
10.139013 8.762052 -0.011024 11697996
9.975318 10.474119 3.015598 11697996
9.130807 9.245502 2.533537 11697996
9.306119 9.303114 0.519966 11697996
10.788209 11.146550 3.961001 11697996
9.217368 10.304993 1.540593 11697996
9.892582 9.500126 3.560143 11697996
8.795368 9.415294 2.261741 11697996
10.371930 9.684080 2.796530 11697996
9.736163 11.207861 3.847438 11697996
10.357038 10.567329 3.031809 11697996
10.577905 10.947775 3.976770 11697996
11.208453 9.124258 2.737021 11697996
9.865759 9.371011 2.496944 11697996
10.283009 10.712229 3.259645 11697996
9.510305 10.205720 3.516857 11697996
9.236331 9.973010 0.109762 11697996
10.251451 10.822769 1.712452 11697996
10.744249 10.257238 2.014752 11697996
10.909941 10.596650 1.046267 11697996
10.121340 8.886793 1.861431 11697996
9.967538 10.325523 1.217964 11697996
11.110520 9.623152 1.881753 11697996
10.473347 9.479521 3.608823 11697996
9.974084 10.094744 0.881676 11697996
10.865923 10.910261 1.271470 11697996
10.230152 9.792000 2.558230 11697996
9.711662 9.183439 3.360352 11697996
9.731506 10.870567 2.224728 11697996
9.456468 10.389534 0.877244 11697996
10.905377 10.649422 3.430786 11697996
9.237130 9.610516 2.335568 11697996
9.026568 10.756623 0.037981 11697996
9.404420 10.907684 1.951850 11697996
9.871875 8.835053 3.035542 11697996
8.833029 9.798439 2.022223 11697996
8.991261 10.633647 0.327624 11697996
8.799945 9.280200 1.204716 11697996
10.851951 9.393068 1.054012 11697996
10.911909 10.424053 3.053837 11697996
9.058795 10.845835 3.767852 11697996
10.929831 9.493079 2.961416 11697996
10.890087 8.753386 0.361546 11697996
9.009380 10.352314 1.013688 11697996
10.416162 8.861218 1.931865 11697996
9.354657 9.324181 0.078056 11697996
9.605639 9.928933 1.239571 11697996
10.733828 8.924759 1.096921 11697996
9.091043 10.559372 0.968080 11697996
10.530913 10.184855 0.414751 11697996
11.019309 9.304531 1.855377 11697996
9.092592 9.879232 1.987162 11697996
10.114508 11.121584 2.764719 11697996
8.862164 9.200441 0.639478 11697996
9.506406 10.835918 3.748640 11697996
9.265377 9.624356 2.210052 11697996
9.260888 10.447523 0.165568 11697996
10.707526 9.853389 2.493859 11697996
9.532947 8.850338 3.768379 11697996
10.955422 10.033231 1.473025 11697996
9.065582 10.381475 1.701784 11697996
9.314794 9.396457 2.017401 11697996
10.251971 8.813958 3.900049 11697996
10.068444 9.199837 3.281264 11697996
10.712450 10.053080 3.222423 11697996
11.234915 10.640246 3.795820 11697996
9.292996 9.256990 2.125852 11697996
9.481517 10.970260 3.273106 11697996
10.058561 9.317600 0.474039 11697996
9.522885 10.453123 2.357614 11697996
10.962976 8.936571 1.150548 11697996
9.653624 10.359030 1.567291 11697996
10.528698 10.430505 1.535323 11697996
9.851406 9.052138 2.537777 11697996
9.291717 10.504233 2.119115 11697996
9.222944 10.050558 0.668200 11697996
9.606110 10.455895 3.769750 11697996
10.295002 9.816135 3.609082 11697996
10.006193 9.297716 2.028269 11697996
10.618248 9.810825 0.425504 11697996
11.221911 10.572979 3.155118 11697996
10.718775 9.632246 3.250842 11697996
10.208803 10.340549 0.754093 11697996
9.631341 10.306864 2.681567 11697996
10.999105 11.115497 3.970938 11697996
11.118911 11.196387 2.028168 11697996
9.219543 9.008886 0.253447 11697996
9.775560 9.784211 3.576935 11697996
9.285028 11.075879 1.598133 11697996
8.910491 10.577194 0.412426 11697996
11.192234 11.032726 2.702808 11697996
8.855399 10.701182 1.594174 11697996
10.632120 9.417631 1.048550 11697996
10.836033 9.607990 3.162433 11697996
10.153294 10.196236 0.917814 11697996
9.088533 9.683147 2.380572 11697996
11.078963 9.127046 0.539403 11697996
9.384780 8.825611 2.192014 11697996
10.943995 10.863317 2.296030 11697996
10.442335 10.729641 3.791865 11697996
9.467313 10.917582 0.997551 11697996
9.301810 10.240103 3.517097 11697996
10.349782 9.489309 2.919627 11697996
10.606253 10.452614 3.623430 11697996
8.858179 11.123594 1.185466 11697996
9.536386 10.220596 1.121236 11697996
9.629397 10.036517 3.179617 11697996
10.718433 10.346360 3.206583 11697996
10.145014 9.565838 0.178533 11697996
9.026700 8.905251 0.033965 11697996
9.540549 10.255887 1.429221 11697996
10.653859 9.550268 3.528645 11697996
9.098291 11.155006 0.570758 11697996
9.527580 11.178651 0.454972 11697996
10.715503 8.846931 1.558017 11697996
10.405046 10.805559 2.160979 11697996
11.215114 10.922872 3.059780 11697996
11.157021 8.922521 2.592864 11697996
9.897683 10.782816 3.908057 11697996
9.435786 10.406061 3.928496 11697996
9.118114 9.195168 3.162918 11697996
9.142717 10.546895 3.440677 11697996
10.958085 11.053311 2.795171 11697996
9.610759 10.453863 2.054858 11697996
9.382635 10.025087 3.733458 11697996
10.916787 9.709631 3.777014 11697996
9.616441 9.051603 0.419895 11697996
9.092120 9.172172 0.595555 11697996
9.531425 9.069419 1.363541 11697996
9.741722 10.364513 3.246318 11697996
10.843551 9.278458 0.735873 11697996
9.058903 10.176552 1.973551 11697996
9.485932 10.519406 1.091161 11697996
10.122581 9.229812 2.750441 11697996
9.482323 10.186722 0.026480 11697996
9.393558 9.190499 0.262752 11697996
10.810883 9.872720 1.506596 11697996
9.825149 10.742127 0.194315 11697996
9.039379 9.708844 0.904541 11697996
10.192451 9.452975 2.032336 11697996
10.896299 9.228724 1.032415 11697996
8.868809 10.258245 1.868600 11697996
8.802828 11.013171 3.580753 11697996
10.575729 9.080498 2.347553 11697996
9.293051 10.909831 1.813324 11697996
10.599726 9.947498 0.529695 11697996
9.495779 9.131914 3.717042 11697996
10.322656 10.292194 0.049529 11697996
10.705418 9.014790 3.692341 11697996
9.132006 11.126841 3.992201 11697996
10.287704 9.300141 1.990382 11697996
8.771131 9.011744 3.689519 11697996
10.327616 9.239594 2.655734 11697996
9.754577 9.994545 3.934616 11697996
8.784636 9.787139 1.488220 11697996
9.262208 10.484791 2.132835 11697996
9.675236 10.681560 2.792011 11697996
9.287888 9.844915 2.148056 11697996
8.756490 10.273789 3.193135 11697996
9.297306 10.945673 0.098936 11697996
8.797336 9.454279 2.464174 11697996
10.868188 9.771317 1.558840 11697996
10.238853 9.767591 1.743004 11697996
10.438517 10.037056 2.351247 11697996
10.126657 9.183225 2.908767 11697996
10.109688 10.282422 3.491029 11697996
9.154939 10.100466 0.979468 11697996
9.386176 8.825579 2.618568 11697996
11.248250 11.154886 1.216573 11697996
9.090330 10.202924 2.639470 11697996
9.647693 9.708275 2.723221 11697996
9.354394 9.796057 1.708600 11697996
9.361215 10.859291 3.603091 11697996
10.700268 8.846997 2.774580 11697996
10.157270 9.371433 1.604604 11697996
10.956834 10.719502 3.845022 11697996
9.122915 9.438153 3.363786 11697996
10.079079 9.652370 0.850830 11697996
9.237425 10.956939 0.448692 11697996
9.012236 10.973347 1.971260 11697996
10.924855 10.801522 1.348418 11697996
9.872623 9.221557 3.214199 11697996
10.367313 9.819973 1.352604 11697996
10.276971 9.849119 3.914021 11697996
9.475257 9.090961 3.601597 11697996
9.752708 10.470147 3.223712 11697996
9.013423 9.822109 2.820031 11697996
10.344083 10.991667 0.428602 11697996
10.102403 10.963656 3.012947 11697996
8.985188 9.497739 0.256791 11697996
8.749937 10.150290 0.985375 11697996
9.700600 10.624286 0.581742 11697996
10.369937 10.158813 3.308976 11697996
9.164396 10.232780 3.640948 11697996
11.237418 10.324741 2.532645 11697996
10.951251 10.010770 2.853865 11697996
10.161198 9.974932 0.104674 11697996
10.534353 9.434199 1.672642 11697996
9.072885 9.145082 0.532220 11697996
8.893046 10.905648 0.469691 11697996
9.085765 10.225165 2.251993 11697996
9.794806 10.635496 2.009421 11697996
10.924498 9.409310 3.356162 11697996
9.026397 10.745585 2.035044 11697996
8.836712 10.140455 2.785100 11697996
9.732947 10.065676 0.616291 11697996
10.718216 10.689013 0.502465 11697996
9.347524 10.102808 3.209514 11697996
8.767538 8.943660 1.690140 11697996
9.622868 9.730478 1.430710 11697996
9.558578 11.139049 2.458166 11697996
11.045863 9.870937 2.850662 11697996
9.482011 9.376591 2.567822 11697996
9.331625 9.605466 1.694347 11697996
10.533285 11.196222 0.388299 11697996
9.233015 8.913612 3.429755 11697996
10.547659 9.785842 2.291311 11697996
10.000283 10.647056 1.584086 11697996
9.817492 11.171239 2.175416 11697996
10.613650 11.025883 2.293027 11697996
9.741708 11.096150 3.418742 11697996
10.091677 8.958982 0.096141 11697996
9.780964 10.462663 1.682566 11697996
8.867635 9.758934 2.775164 11697996
10.140876 9.935181 2.395737 11697996
10.970272 9.926833 1.833363 11697996
10.112209 10.698448 1.084651 11697996
9.262251 8.996133 3.200725 11697996
9.622160 9.609375 0.817184 11697996
9.807431 10.162491 1.018663 11697996
10.039968 9.900490 2.430373 11697996
11.202578 10.539736 3.310376 11697996
9.602956 10.000447 1.925440 11697996
10.671527 8.803782 0.217970 11697996
11.126101 9.332932 0.032162 11697996
11.118345 9.324292 0.818183 11697996
9.752837 10.276327 1.577232 11697996
10.416867 8.974926 0.703557 11697996
11.119024 8.893204 2.806730 11697996
11.175805 9.404345 3.273520 11697996
11.094196 9.204522 2.055168 11697996
11.195358 10.737971 3.921439 11697996
10.551120 9.714911 2.597523 11697996
10.123522 10.147911 0.328623 11697996
10.818784 10.485718 1.372782 11697996
9.526469 8.821279 1.551642 11697996
9.308847 9.968395 3.421395 11697996
10.721947 10.546072 2.051816 11697996
10.889724 8.821471 2.308159 11697996
9.031569 8.845297 3.386662 11697996
10.243075 10.749307 0.449179 11697996
11.098283 10.947197 3.454706 11697996
10.640227 10.480665 3.042394 11697996
9.330479 10.008610 3.421166 11697996
10.416646 11.095712 0.766240 11697996
10.065741 9.367502 0.882153 11697996
10.588632 10.375090 1.677994 11697996
10.028182 10.147521 3.399501 11697996
9.618188 10.042386 2.752386 11697996
10.506956 9.156182 1.178317 11697996
9.975621 9.565475 1.828056 11697996
10.769513 10.227097 1.750088 11697996
10.675972 11.048320 0.905552 11697996
11.073157 9.833462 2.077253 11697996
10.460775 10.151930 1.535586 11697996
11.066241 9.267029 3.909759 11697996
9.189471 9.732806 2.565863 11697996
10.532902 10.295895 2.303705 11697996
9.525867 10.823592 1.716821 11697996
10.511283 9.536560 3.934122 11697996
10.311143 10.321547 1.581162 11697996
9.313983 9.768109 0.316103 11697996
9.039912 10.677826 2.494227 11697996
11.054733 10.969326 2.974589 11697996
9.286555 9.540401 0.113192 11697996
9.402554 10.518785 2.637899 11697996
9.277064 10.058374 -0.007666 11697996
10.390059 9.626011 0.278183 11697996
9.919273 11.030058 1.143558 11697996
10.093593 9.882957 0.996230 11697996
9.981081 9.882400 1.778539 11697996
8.935071 9.070539 0.499760 11697996
10.163258 10.357679 3.619490 11697996
10.810510 10.460679 1.555777 11697996
9.304944 10.546363 3.043305 11697996
8.988592 9.292883 3.944592 11697996
9.306096 9.352346 3.770924 11697996
10.523643 10.317760 0.137486 11697996
11.171001 11.073609 2.792675 11697996
10.134312 10.437405 4.006591 11697996
9.056555 11.032464 2.441970 11697996
9.994221 10.584869 1.056056 11697996
10.737625 10.407332 0.974231 11697996
10.295381 9.884151 1.919309 11697996
9.267760 9.884675 3.123677 11697996
10.861093 9.981880 1.307086 11697996
11.242591 8.832746 0.152019 11697996
9.286458 9.566229 1.912204 11697996
9.436265 10.241016 3.953899 11697996
10.599206 10.938655 2.732622 11697996
9.815383 9.428635 2.244539 11697996
11.164949 10.723862 1.644827 11697996
9.104015 10.768096 0.254356 11697996
9.655522 9.685048 0.161898 11697996
9.701361 8.998788 2.263501 11697996
9.870686 11.058464 3.574030 11697996
10.626916 9.143625 3.462597 11697996
9.468790 10.162859 1.878828 11697996
9.672115 9.859457 3.407910 11697996
10.188082 9.591092 3.206815 11697996
10.900512 8.768267 0.608417 11697996
10.149112 9.788819 1.633117 11697996
9.430462 9.015467 3.394588 11697996
10.108833 10.837221 2.310230 11697996
10.129690 9.896874 3.413288 11697996
9.813383 9.073681 3.019406 11697996
11.137437 9.564223 1.175234 11697996
9.208410 9.616681 2.730529 11697996
9.127730 10.048783 1.843740 11697996
10.998803 10.262800 3.445845 11697996
9.073134 9.586315 0.235875 11697996
10.620517 9.795059 1.385977 11697996
11.009033 10.132656 0.079907 11697996
10.429867 10.229375 2.283927 11697996
10.423852 10.589498 2.583432 11697996
10.947361 9.821979 3.772978 11697996
9.423314 10.734854 3.126809 11697996
8.787691 9.791818 3.739308 11697996
10.409346 9.103970 0.431244 11697996
8.885159 9.604074 0.140926 11697996
10.911193 9.914461 1.906579 11697996
10.426954 10.324104 1.413558 11697996
8.996412 9.191174 1.536910 11697996
11.012403 8.972262 1.394845 11697996
9.207611 10.480432 1.192811 11697996
9.537565 11.076074 0.756324 11697996
10.634345 10.985480 2.837476 11697996
11.177063 10.753038 0.161243 11697996
9.160241 8.879951 0.246009 11697996
9.908764 10.014330 3.861016 11697996
10.442524 9.562665 2.682652 11697996
11.034835 10.862769 2.941519 11697996
9.985152 10.766864 0.091993 11697996
10.324159 9.027290 0.276156 11697996
10.394872 10.931046 0.959606 11697996
8.762102 9.448755 0.765598 11697996
9.321723 11.068040 1.196787 11697996
10.743774 8.997467 1.540654 11697996
10.008113 10.650572 0.423980 11697996
10.699546 9.822936 1.731534 11697996
10.283415 10.081036 3.915526 11697996
10.625169 9.424890 3.066615 11697996
10.137116 11.112268 0.296364 11697996
9.020702 9.853080 1.726146 11697996
9.578662 10.153726 3.806781 11697996
9.734779 10.801490 1.245026 11697996
11.015594 11.008694 0.406519 11697996
10.266583 9.205671 2.163439 11697996
8.755947 9.125177 1.826241 11697996
8.772471 9.223125 1.248558 11697996
8.884987 9.540731 2.075804 11697996
9.360468 10.831326 1.827902 11697996
9.037325 10.313951 2.100700 11697996
8.982210 10.665107 1.988981 11697996
9.169744 10.528833 0.318613 11697996
10.092775 11.183283 2.692126 11697996
9.300749 10.170960 3.498721 11697996
11.092303 10.553119 2.643157 11697996
10.716773 9.796448 0.668624 11697996
9.647521 9.018773 2.040348 11697996
10.344404 10.327877 3.013990 11697996
10.201213 9.170336 1.919889 11697996
11.234961 9.837535 1.968293 11697996
11.059014 9.229118 2.233318 11697996
9.974274 11.009710 1.745746 11697996
11.183548 9.525473 1.483890 11697996
9.998630 9.172274 1.397714 11697996
10.667531 10.563445 3.127458 11697996
11.101431 11.190808 3.798184 11697996
9.909581 9.165058 3.637002 11697996
11.185658 11.142499 0.625018 11697996
9.215281 9.247321 3.903211 11697996
10.820506 10.259934 2.590732 11697996
10.176769 10.186559 0.322175 11697996
9.809566 10.220741 0.607674 11697996
10.373506 8.739809 0.310419 11697996
10.473152 9.583718 2.686476 11697996
9.474008 9.163218 2.376178 11697996
8.754711 10.479462 3.898951 11697996
10.853292 10.072237 2.885334 11697996
10.569588 11.026952 3.460644 11697996
9.111376 9.749303 3.645056 11697996
8.837144 9.458112 0.871481 11697996
9.304138 10.839964 2.031397 11697996
10.179863 9.520721 2.923470 11697996
9.622108 9.829696 0.639932 11697996
11.069598 9.804349 2.117256 11697996
10.073752 10.309324 2.295690 11697996
10.740692 11.126990 1.842933 11697996
10.209185 9.676414 3.206031 11697996
8.810078 9.201835 0.237593 11697996
10.762899 9.757577 3.127059 11697996
11.159677 8.804828 1.000846 11697996
9.714498 10.493889 2.726820 11697996
10.903783 10.547205 1.837184 11697996
9.804627 10.810585 3.924022 11697996
10.669003 10.420254 0.120012 11697996
11.049159 8.994720 1.023180 11697996
10.212689 9.204892 0.977485 11697996
10.216897 11.130961 2.423062 11697996
9.506607 11.005003 0.757081 11697996
9.568605 10.618382 0.761571 11697996
9.040256 8.988207 1.459686 11697996
10.727563 9.798990 2.744786 11697996
10.418683 9.996997 2.182384 11697996
10.565252 8.848500 2.496030 11697996
9.039317 11.157359 1.073108 11697996
9.599950 10.136767 3.560151 11697996
9.658671 10.938291 2.876143 11697996
10.584460 9.150233 0.979969 11697996
8.846836 9.169415 1.170466 11697996
11.102530 10.693240 1.714706 11697996
8.922396 9.640936 3.329009 11697996
10.730837 9.152343 2.210770 11697996
10.673994 9.872044 3.838967 11697996
8.864477 9.416952 1.893981 11697996
9.979330 9.289231 1.340291 11697996
10.592690 9.914217 0.754848 11697996
9.528692 10.777336 3.165121 11697996
9.220365 9.588509 3.032225 11697996
10.189834 9.448991 2.914635 11697996
11.212911 9.855677 0.527760 11697996
10.826969 9.520861 0.497058 11697996
10.010209 11.169325 0.817392 11697996
9.602828 9.372355 0.574212 11697996
9.482946 9.595946 3.592179 11697996
9.759654 9.354068 3.469431 11697996
9.861385 9.959478 3.165016 11697996
9.237679 9.800932 2.436996 11697996
9.623497 9.323428 1.811276 11697996
8.802531 10.015172 0.799835 11697996
10.808093 10.571306 0.108345 11697996
8.867733 10.720637 0.386021 11697996
11.064140 11.174221 3.644660 11697996
10.430184 9.269355 1.165993 11697996
10.326232 8.869624 3.433599 11697996
11.168310 11.248639 3.801320 11697996
10.988540 9.799103 1.179345 11697996
11.056930 9.351863 2.872761 11697996
10.052373 10.896600 3.827065 11697996
9.965194 9.942443 2.921412 11697996
10.671340 11.035326 1.471741 11697996
9.907622 10.934275 0.934940 11697996
9.786219 9.631727 2.245128 11697996
10.745403 9.327733 3.270046 11697996
9.492640 9.721530 0.264706 11697996
10.508512 9.106645 2.415028 11697996
8.828604 9.334328 1.336741 11697996
10.518745 9.528264 3.676776 11697996
11.087698 9.123959 1.289613 11697996
10.343616 8.778913 1.674302 11697996
10.927564 10.733683 2.723480 11697996
9.611836 9.009458 1.299194 11697996
8.799747 9.660939 0.382889 11697996
8.824403 9.059403 3.156243 11697996
10.562360 10.704131 2.095883 11697996
10.453421 9.837098 1.404545 11697996
10.399347 8.964511 3.746385 11697996
10.351542 10.736156 2.350904 11697996
11.043204 8.826180 0.184510 11697996
9.035378 9.530520 2.743382 11697996
10.456822 9.755864 2.972292 11697996
10.767221 10.247572 3.111347 11697996
10.425539 9.003434 1.400498 11697996
10.132636 9.659001 2.004356 11697996
9.506319 11.028241 1.889694 11697996
9.749984 9.500457 1.370319 11697996
9.280422 10.527426 3.859663 11697996
10.897845 9.643480 0.687343 11697996
9.779004 10.564841 2.628849 11697996
8.826471 9.850264 1.590592 11697996
10.252157 10.327400 3.734629 11697996
8.755383 9.741913 1.658722 11697996
9.383992 10.193610 1.834767 11697996
9.469679 9.569303 0.041217 11697996
9.890644 10.161748 1.843947 11697996
9.450396 8.765906 2.158738 11697996
9.438329 10.124873 0.445015 11697996
9.302813 8.772577 3.966591 11697996
8.950441 10.395092 2.373553 11697996
9.601540 10.061322 1.699973 11697996
9.259254 9.900111 0.952019 11697996
10.763563 10.870688 1.392725 11697996
11.182631 9.859080 3.160329 11697996
10.522221 10.241265 1.273822 11697996
8.958587 10.605242 3.706359 11697996
10.543276 10.216636 2.718912 11697996
9.711924 9.271295 3.543354 11697996
10.979734 11.143100 0.933332 11697996
10.397671 10.663244 2.573896 11697996
10.191839 10.673031 1.207012 11697996
10.467408 9.450507 2.197021 11697996
9.911386 9.356308 0.046421 11697996
9.586146 10.699759 0.554555 11697996
10.365745 9.267312 0.274528 11697996
9.021549 10.783134 0.493187 11697996
10.420688 10.919080 1.984019 11697996
10.025682 9.043832 2.642062 11697996
10.150346 9.218289 3.800941 11697996
10.850475 9.829969 2.904704 11697996
10.343843 11.185541 1.088668 11697996
10.962961 9.088582 0.513236 11697996
11.137236 10.046391 1.417103 11697996
9.383258 10.201098 3.566022 11697996
9.041286 8.807416 1.236047 11697996
10.324448 10.553693 1.357642 11697996
8.937261 8.902192 3.252184 11697996
10.279153 9.181566 3.907868 11697996
9.119004 10.317839 2.616981 11697996
9.238211 9.800546 0.683361 11697996
9.877644 11.045049 3.356917 11697996
9.034214 10.302540 3.236141 11697996
8.835950 11.255133 2.919070 11697996
9.381371 10.343195 3.575201 11697996
11.119469 11.220526 0.502526 11697996
8.930064 9.250131 0.622973 11697996
10.232145 8.994720 3.663743 11697996
10.450072 11.086078 0.609650 11697996
8.738239 9.842123 3.630512 11697996
10.130708 10.355042 3.535077 11697996
9.566327 10.211927 1.107131 11697996
9.681109 8.776413 3.141498 11697996
10.028302 9.488467 3.088054 11697996
10.529751 9.818378 2.839215 11697996
9.348136 9.029718 1.078813 11697996
10.793615 11.093493 1.603536 11697996
9.913138 9.329143 3.096708 11697996
10.349821 9.417390 1.308825 11697996
10.382662 10.917755 3.319597 11697996
8.832992 9.712514 1.899377 11697996
9.247686 10.796535 3.055612 11697996
9.382161 10.757139 1.298787 11697996
9.328778 9.882593 2.357837 11697996
11.113179 9.013995 0.183675 11697996
10.095195 9.014490 1.863127 11697996
10.670539 9.910209 1.092821 11697996
10.276711 10.171761 0.610064 11697996
10.969074 9.673719 3.089361 11697996
8.886738 10.630694 1.578860 11697996
10.223782 9.649567 3.033501 11697996
9.017390 10.513565 3.422869 11697996
10.243057 10.480466 0.015422 11697996
9.070001 10.371369 2.143368 11697996
9.838342 10.481493 1.643471 11697996
10.061256 9.847922 1.470016 11697996
10.859380 9.909142 1.280003 11697996
9.483792 9.006010 1.816478 11697996
10.584574 9.208521 2.189171 11697996
11.202717 10.341283 3.131772 11697996
11.207219 9.372766 3.461892 11697996
9.929683 9.028799 1.585370 11697996
10.945898 9.808560 1.138716 11697996
11.228057 10.081284 0.431827 11697996
9.858837 8.801661 2.265835 11697996
10.040726 9.500059 2.366821 11697996
10.005845 10.773126 1.707750 11697996
9.926712 9.977538 2.879442 11697996
9.949920 10.664322 3.781718 11697996
10.729389 9.340242 2.459453 11697996
9.439213 8.930104 0.249901 11697996
9.362422 8.838550 0.501473 11697996
9.083826 10.630733 3.260269 11697996
8.952989 9.568215 3.314839 11697996
10.165205 11.017453 0.133605 11697996
8.788231 10.504024 3.798489 11697996
10.292378 8.838728 3.580108 11697996
9.304515 10.557042 1.831120 11697996
9.439118 10.910353 1.881026 11697996
8.967325 9.925792 0.213496 11697996
10.434984 9.488613 2.752037 11697996
10.493226 9.627547 3.276054 11697996
10.270389 9.733170 0.809334 11697996
9.267433 10.123601 0.236685 11697996
8.837490 10.344920 0.924262 11697996
10.480077 11.248723 3.559883 11697996
9.024391 8.926878 2.870013 11697996
9.508955 10.377756 3.710492 11697996
8.785305 10.043375 2.476997 11697996
10.783257 10.561850 3.403428 11697996
11.020283 11.236917 3.649487 11697996
10.490283 8.833346 0.973793 11697996
8.966676 10.273634 0.067710 11697996
9.052911 9.413671 0.702704 11697996
9.246519 8.930871 0.321697 11697996
9.582667 9.173759 0.238524 11697996
10.839436 10.274967 1.718799 11697996
9.825301 10.222393 3.602713 11697996
9.107616 9.784433 1.771206 11697996
9.889585 9.476793 1.243763 11697996
9.388257 9.149687 1.533738 11697996
10.169355 10.491578 3.053947 11697996
10.128697 9.937898 0.759663 11697996
11.013444 9.108907 1.695803 11697996
8.797059 10.485463 0.256562 11697996
10.447258 11.108385 2.023019 11697996
9.900321 9.540983 1.699051 11697996
11.233796 10.167560 0.773976 11697996
9.828497 9.143510 1.788044 11697996
9.777998 9.697368 2.912484 11697996
10.716716 9.432193 3.010875 11697996
10.530786 8.753126 2.933977 11697996
10.627338 10.562083 2.340133 11697996
9.369772 9.881283 3.241887 11697996
10.378942 10.701810 2.626502 11697996
10.374512 10.539880 2.540427 11697996
8.776334 8.883578 0.471734 11697996
10.189364 8.995856 2.633841 11697996
9.916504 10.293656 1.994373 11697996
9.802543 11.213511 2.477632 11697996
8.766068 9.466475 0.007147 11697996
10.610434 9.478279 0.353438 11697996
-9.815049 -10.458182 0.681959 6730418
-10.263940 -10.959821 1.107526 6730418
-10.560557 -9.861032 2.180443 6730418
-10.412162 -9.360257 0.329202 6730418
-9.658110 -9.597045 1.819813 6730418
-9.910860 -9.372972 2.441335 6730418
-10.001073 -10.287646 2.957751 6730418
-9.652044 -9.356839 0.200751 6730418
-9.541663 -9.682749 2.391989 6730418
-9.410139 -10.330165 0.286678 6730418
-10.759762 -9.747217 1.206832 6730418
-9.454532 -10.362364 1.992287 6730418
-9.632130 -10.868737 2.867280 6730418
-10.248838 -10.154354 1.448833 6730418
-9.485614 -10.122288 0.789610 6730418
-9.301096 -10.576883 1.770376 6730418
-10.477542 -9.747643 0.154040 6730418
-9.315246 -10.720506 1.771304 6730418
-9.592275 -10.776369 1.325737 6730418
-9.878295 -10.467089 1.587112 6730418
-9.349565 -10.516983 1.765488 6730418
-9.803813 -9.225698 1.225574 6730418
-9.835569 -9.008213 2.109335 6730418
-9.732962 -10.769990 0.111040 6730418
-10.299823 -10.084097 0.297608 6730418
-10.093111 -9.684830 0.829016 6730418
-10.261882 -10.516574 0.444403 6730418
-9.900064 -9.591061 0.906309 6730418
-10.394782 -10.474792 0.962661 6730418
-9.605269 -10.426390 2.086610 6730418
-10.195440 -10.633790 2.028325 6730418
-9.469991 -9.296761 2.830865 6730418
-9.993326 -10.913358 1.236014 6730418
-10.823987 -9.447528 1.736339 6730418
-9.599829 -9.396591 2.118669 6730418
-10.447643 -9.823557 0.310011 6730418
-9.863293 -9.770153 1.203612 6730418
-9.553185 -10.571207 1.059955 6730418
-9.764503 -10.758170 1.900688 6730418
-9.363667 -9.450559 1.122874 6730418
-9.139647 -10.317171 0.461204 6730418
-9.923349 -10.764604 0.215149 6730418
-10.014167 -9.151904 2.603708 6730418
-9.550468 -10.197892 2.730749 6730418
-9.885342 -9.419613 2.499674 6730418
-10.351513 -9.775437 1.881300 6730418
-9.849974 -10.379329 0.852891 6730418
-9.423487 -9.433667 1.185985 6730418
-10.556286 -10.477574 1.841250 6730418
-9.473642 -9.428114 2.347665 6730418
-10.809117 -10.286266 2.731506 6730418
-9.283478 -9.862123 2.706365 6730418
-10.593665 -10.023208 1.945627 6730418
-9.912539 -10.144403 1.164190 6730418
-10.396137 -10.514924 2.577396 6730418
-9.910003 -10.464467 0.727757 6730418
-9.825766 -9.782461 1.395550 6730418
-9.521426 -10.249729 2.572582 6730418
-9.801049 -9.324756 1.809558 6730418
-9.771406 -10.529520 2.890667 6730418
-10.294581 -10.225521 1.288094 6730418
-9.150303 -9.754046 1.278879 6730418
-9.392131 -9.990663 2.142617 6730418
-10.274010 -9.082177 2.097531 6730418
-9.335693 -9.707259 2.731628 6730418
-10.211624 -9.342297 1.059639 6730418
-9.699265 -9.596912 1.203014 6730418
-10.106513 -9.099379 1.161230 6730418
-9.773911 -9.878695 0.934880 6730418
-10.585687 -10.601683 0.630606 6730418
-9.201948 -10.564339 0.751908 6730418
-10.047415 -10.884096 1.822000 6730418
-10.013727 -9.579058 2.854757 6730418
-9.690595 -10.113865 0.340889 6730418
-9.961919 -10.057375 1.510492 6730418
-9.509176 -9.297148 1.859172 6730418
-9.143298 -9.518048 1.168644 6730418
-10.032932 -9.153474 0.087682 6730418
-9.564837 -9.894332 0.746460 6730418
-9.763682 -9.891064 2.353546 6730418
-9.321480 -10.728968 1.967907 6730418
-10.474959 -9.437184 1.188499 6730418
-10.392398 -9.641134 2.677244 6730418
-9.138351 -9.929613 2.782492 6730418
-9.413994 -10.356493 0.139677 6730418
-10.223580 -9.452047 1.629491 6730418
-10.730587 -9.848742 1.478097 6730418
-10.201352 -9.826572 2.199846 6730418
-10.506707 -9.436149 1.185542 6730418
-9.989360 -9.381199 0.617957 6730418
-10.848989 -10.196114 2.670911 6730418
-9.915915 -9.702368 2.318338 6730418
-10.822136 -9.845628 1.519418 6730418
-10.711715 -9.746280 0.830758 6730418
-9.697304 -10.548038 2.739254 6730418
-10.666565 -10.611660 1.389644 6730418
-10.062450 -10.316260 1.571660 6730418
-9.776224 -10.971521 0.362464 6730418
-10.042317 -10.392938 1.122645 6730418
-9.434765 -10.255088 1.130519 6730418
-9.646374 -10.273758 2.185609 6730418
-9.056032 -9.833247 0.369580 6730418
-10.624662 -10.136146 0.470102 6730418
-9.520549 -10.513529 1.532081 6730418
-9.810530 -10.369238 1.975039 6730418
-9.964964 -10.247421 2.790019 6730418
-10.027160 -10.226866 2.400566 6730418
-9.478566 -9.585841 0.754381 6730418
-9.472362 -9.922622 2.699281 6730418
-9.730143 -10.497483 2.111791 6730418
-9.431850 -10.236889 0.575376 6730418
-9.024973 -10.268192 1.046010 6730418
-9.732596 -9.093558 0.964136 6730418
-9.219529 -10.437072 2.454764 6730418
-9.704665 -9.741470 2.767041 6730418
-9.114804 -10.296041 0.138736 6730418
-9.606619 -10.405877 1.026061 6730418
-10.408125 -10.481840 2.328180 6730418
-9.624019 -9.101287 1.877209 6730418
-9.316602 -10.115082 1.570983 6730418
-9.170979 -9.579352 1.743595 6730418
-9.345324 -9.509358 2.236117 6730418
-10.362711 -10.696074 0.655347 6730418
-9.239165 -10.356824 1.016549 6730418
-9.245545 -9.474567 0.347833 6730418
-9.262424 -10.027922 1.389631 6730418
-9.190473 -10.190443 1.849503 6730418
-10.390578 -9.294158 0.723562 6730418
-10.900950 -10.126947 2.213448 6730418
-9.907221 -9.392551 2.646468 6730418
-10.824319 -9.529401 1.620041 6730418
-9.216545 -10.211422 2.016860 6730418
-9.481808 -10.846318 2.813610 6730418
-9.439485 -10.450491 2.768514 6730418
-10.488195 -10.358847 2.131783 6730418
-9.956980 -10.557334 1.561111 6730418
-9.562106 -9.189001 2.698448 6730418
-9.954941 -10.468058 2.557184 6730418
-10.893505 -10.270535 1.732244 6730418
-10.292678 -9.484231 1.503569 6730418
-9.652040 -10.646823 2.441215 6730418
-9.401534 -9.972259 1.844858 6730418
-9.923482 -10.239918 0.068655 6730418
-10.614567 -10.361628 0.246239 6730418
-9.232141 -10.026123 0.009185 6730418
-10.810476 -10.309465 0.311639 6730418
-9.442410 -9.730824 1.836280 6730418
-10.514291 -9.851818 0.908081 6730418
-9.474884 -9.989280 1.501580 6730418
-9.909004 -10.274721 0.976744 6730418
-9.804379 -10.917926 0.056476 6730418
-10.012506 -9.584826 2.231388 6730418
-9.715602 -10.077613 2.038608 6730418
-9.153378 -10.472635 2.758446 6730418
-10.179839 -9.981144 2.023576 6730418
-10.395337 -9.936573 2.524321 6730418
-9.693469 -10.123626 2.515292 6730418
-10.150587 -9.967526 2.521819 6730418
-9.224761 -10.408760 1.119396 6730418
-10.314072 -10.706951 2.776253 6730418
-10.063581 -9.611057 2.836152 6730418
-9.272852 -10.639738 0.793290 6730418
-10.225512 -9.455988 1.194342 6730418
-9.997164 -9.233314 1.012512 6730418
-10.309250 -9.236957 2.705975 6730418
-9.389063 -10.537784 0.694667 6730418
-10.815227 -10.044463 0.943634 6730418
-9.935481 -10.643883 0.096212 6730418
-9.300062 -9.956928 1.842216 6730418
-9.382293 -9.240954 1.584321 6730418
-10.857540 -9.606541 0.590819 6730418
-9.504478 -9.899569 1.121667 6730418
-10.155316 -9.966011 1.355995 6730418
-10.084752 -9.877348 1.555757 6730418
-10.220219 -10.127507 2.163878 6730418
-9.616374 -9.422723 1.138921 6730418
-10.404269 -9.734143 0.855053 6730418
-10.336284 -9.426475 1.698734 6730418
-10.398159 -10.550113 2.928617 6730418
-10.257812 -10.964264 2.906003 6730418
-9.943069 -10.839458 2.302473 6730418
-9.917919 -9.542850 1.204003 6730418
-9.880160 -9.876356 2.548985 6730418
-9.544179 -9.388608 1.149290 6730418
-10.522982 -10.256638 1.013351 6730418
-9.838435 -9.955100 1.151274 6730418
-9.860230 -10.330501 2.097689 6730418
-9.660748 -9.568358 2.279221 6730418
-9.624324 -10.627642 2.310738 6730418
-9.811954 -9.184028 2.011392 6730418
-10.481213 -10.366529 0.597169 6730418
-10.003453 -10.983450 1.994834 6730418
-9.257250 -10.107553 0.050563 6730418
-10.461408 -9.503683 2.951510 6730418
-9.195002 -9.451583 2.259057 6730418
-10.128124 -9.226228 0.157640 6730418
-9.895203 -9.165489 2.208530 6730418
-9.095140 -9.822127 1.478234 6730418
-10.230184 -10.522080 0.404162 6730418
-9.695050 -9.112544 1.449332 6730418
-9.161551 -9.699829 1.668330 6730418
-9.237694 -9.578726 0.850195 6730418
-9.455207 -10.128421 0.651677 6730418
-9.438957 -10.417355 2.587112 6730418
-10.808666 -10.040306 0.441151 6730418
-10.734143 -9.884972 1.928496 6730418
-9.077891 -9.694644 0.649394 6730418
-9.753833 -9.678326 1.546255 6730418
-10.338899 -10.447659 1.488013 6730418
-9.263657 -9.462451 1.097767 6730418
-10.199981 -9.184260 2.272142 6730418
-10.810373 -9.611288 0.956265 6730418
-9.219262 -9.678471 0.438947 6730418
-9.641580 -9.765891 2.963585 6730418
-10.772226 -10.213828 2.395143 6730418
-9.263974 -9.842148 0.078545 6730418
-10.039216 -9.177662 2.143526 6730418
-9.726079 -10.205044 2.703914 6730418
-10.235144 -10.842236 1.875859 6730418
-9.485994 -10.102805 1.086133 6730418
-10.214206 -10.277450 1.166495 6730418
-10.153651 -9.774159 2.525689 6730418
-10.915899 -9.961899 1.786736 6730418
-9.238770 -9.596506 1.945425 6730418
-9.278838 -9.489070 1.985679 6730418
-9.856720 -10.239939 2.650700 6730418
-10.806878 -10.508006 2.480997 6730418
-9.329666 -10.400386 1.751502 6730418
-10.440339 -9.716150 1.235301 6730418
-10.147660 -10.161789 2.909503 6730418
-9.597035 -9.294532 1.768586 6730418
-9.463692 -10.802891 1.438276 6730418
-9.769390 -10.368445 0.638693 6730418
-9.579359 -10.280932 1.339756 6730418
-9.355875 -10.113989 1.214803 6730418
-9.340636 -9.273307 0.295320 6730418
-10.202685 -10.666169 0.959701 6730418
-10.526466 -10.516179 1.443757 6730418
-10.453660 -10.492266 2.470166 6730418
-10.597799 -9.982348 0.896078 6730418
-9.591208 -10.920394 1.946475 6730418
-9.215130 -10.446886 1.831561 6730418
-10.423433 -9.755119 2.672767 6730418
-10.367493 -10.265167 0.441539 6730418
-9.755735 -10.666577 2.644216 6730418
-10.913756 -10.029274 2.540520 6730418
-9.523728 -9.136694 0.804945 6730418
-10.017913 -10.317953 0.638701 6730418
-10.270355 -9.884420 0.373533 6730418
-9.939944 -9.861388 0.734016 6730418
-9.350599 -10.550996 0.702628 6730418
-10.718652 -10.146591 2.568254 6730418
-9.472533 -9.210727 2.920512 6730418
-9.952676 -9.435660 2.249479 6730418
-10.843997 -9.485273 2.571276 6730418
-9.995785 -10.433268 2.582332 6730418
-10.568735 -10.514044 2.376168 6730418
-9.538178 -9.840850 2.286980 6730418
-10.780207 -10.430449 0.580402 6730418
-10.541629 -9.220188 0.305047 6730418
-9.711538 -9.206468 1.760143 6730418
-9.234396 -10.003777 0.964420 6730418
-10.130412 -10.389048 2.353434 6730418
-10.798756 -10.169770 1.695704 6730418
-9.960166 -9.440661 1.353664 6730418
-9.266837 -10.165550 1.265233 6730418
-9.750818 -10.527161 0.321781 6730418
-10.107951 -10.283418 1.565164 6730418
-10.811587 -10.009233 1.511238 6730418
-10.045798 -10.636310 0.147082 6730418
-10.707009 -9.798420 2.616193 6730418
-9.160447 -10.074904 2.673012 6730418
-9.821006 -10.315907 2.682286 6730418
-10.914842 -10.227501 2.600469 6730418
-10.512309 -9.165876 0.882667 6730418
-10.042326 -9.517250 2.432532 6730418
-9.439539 -10.467218 0.853070 6730418
-10.575435 -9.209495 2.241503 6730418
-10.110761 -10.205003 1.154125 6730418
-9.478062 -9.155213 2.049297 6730418
-9.370159 -9.623656 2.147687 6730418
-9.993032 -9.867612 2.326147 6730418
-10.279612 -9.293346 0.060785 6730418
-10.103846 -9.507903 1.575606 6730418
-10.699141 -10.577106 1.050670 6730418
-10.651631 -9.868958 1.934147 6730418
-9.090884 -9.931291 1.880891 6730418
-9.377439 -9.802759 1.246372 6730418
-9.836658 -9.165684 1.304217 6730418
-9.852165 -9.166934 0.079221 6730418
-9.030626 -9.955553 0.067043 6730418
-9.390945 -10.702884 0.511119 6730418
-10.604854 -9.850777 0.438344 6730418
-10.515553 -10.181847 2.559591 6730418
-9.678736 -10.264328 1.081907 6730418
-9.497098 -9.449918 0.587377 6730418
-9.480190 -10.797673 1.615985 6730418
-9.995372 -9.510472 0.255662 6730418
-10.697842 -10.003538 1.269465 6730418
-9.776976 -10.674954 0.641940 6730418
-9.159966 -9.568204 0.766098 6730418
-9.612920 -9.444325 2.174062 6730418
-9.836243 -10.899864 0.189754 6730418
-10.132486 -9.228202 2.408899 6730418
-10.389615 -9.501076 1.057958 6730418
-10.719062 -10.303472 1.944451 6730418
-10.881730 -10.409723 2.208082 6730418
-10.341963 -10.600415 1.119305 6730418
-10.063064 -10.697674 1.025295 6730418
-9.683270 -9.760285 1.488406 6730418
-10.608243 -10.309209 1.214114 6730418
-10.596422 -10.773426 2.158938 6730418
-10.917411 -10.199060 2.596928 6730418
-10.747369 -10.476313 2.218849 6730418
-10.112267 -9.404210 1.182233 6730418
-9.497496 -10.336694 0.532826 6730418
-10.150208 -10.674230 0.679436 6730418
-9.419066 -10.722991 0.067169 6730418
-9.497620 -9.461459 1.569369 6730418
-10.552306 -9.326386 1.575533 6730418
-10.525706 -10.560178 2.093638 6730418
-10.131620 -9.671281 2.035505 6730418
-10.806767 -9.644131 0.653497 6730418
-10.519956 -9.984415 2.882785 6730418
-10.881744 -9.903847 2.941316 6730418
-9.749470 -9.753612 1.131173 6730418
-10.906669 -9.675830 0.161986 6730418
-9.888604 -9.769197 2.589514 6730418
-9.464621 -9.248431 2.613828 6730418
-9.274200 -9.348309 0.301284 6730418
-9.885223 -9.713855 2.406001 6730418
-10.365203 -9.667997 0.319614 6730418
-10.805979 -9.991711 0.606231 6730418
-9.994683 -9.156535 1.646895 6730418
-9.750208 -9.076291 2.248915 6730418
-10.450286 -9.211196 1.205571 6730418
-10.086913 -10.048028 1.982854 6730418
-9.561699 -10.071674 0.156860 6730418
-9.394051 -9.197104 2.636046 6730418
-10.401215 -10.069933 0.992104 6730418
-10.269400 -10.221820 1.074494 6730418
-10.641525 -10.244755 0.556125 6730418
-10.490926 -10.161120 2.234744 6730418
-9.900331 -9.414546 2.253120 6730418
-9.301987 -9.341710 0.696909 6730418
-9.991885 -10.117802 1.475780 6730418
-10.407347 -9.656921 1.769683 6730418
-10.483195 -10.137675 2.468078 6730418
-9.793354 -10.382278 2.352849 6730418
-9.594772 -9.534771 2.998242 6730418
-10.698765 -9.957701 2.784073 6730418
-9.506972 -10.318382 2.315492 6730418
-10.019711 -10.040150 2.559324 6730418
-10.313432 -10.601191 1.192380 6730418
-10.083227 -9.924459 1.248285 6730418
-10.288018 -9.147398 1.347926 6730418
-9.580394 -10.212014 0.634844 6730418
-9.844017 -10.596683 0.167002 6730418
-9.788042 -10.232051 0.868674 6730418
-10.679580 -10.636077 2.915227 6730418
-9.601811 -9.356319 0.760684 6730418
-10.948920 -10.290660 1.357882 6730418
-10.350178 -9.920105 2.204493 6730418
-9.691217 -9.526224 0.910774 6730418
-9.787535 -9.149605 2.381334 6730418
-9.599891 -9.638564 1.372529 6730418
-9.212914 -9.681213 2.464642 6730418
-10.069998 -9.377909 2.608104 6730418
-10.555323 -9.710274 2.856833 6730418
-9.626320 -10.393204 2.155855 6730418
-9.458033 -10.768430 1.871989 6730418
-10.291775 -9.065705 1.835835 6730418
-10.314768 -10.349048 1.705787 6730418
-9.498752 -9.319471 1.192867 6730418
-9.873810 -10.216739 2.170938 6730418
-10.178870 -9.714552 1.825866 6730418
-10.839348 -10.291576 0.847174 6730418
-10.701639 -9.749022 0.645903 6730418
-9.326281 -9.315564 1.789239 6730418
-9.064215 -9.951242 0.068335 6730418
-10.717956 -9.492745 0.256716 6730418
-10.117899 -9.575298 1.740731 6730418
-10.463980 -9.524370 1.276224 6730418
-10.739189 -9.456820 1.157394 6730418
-10.307222 -10.030245 2.078419 6730418
-9.988132 -9.430887 2.772870 6730418
-10.820751 -9.577273 1.768458 6730418
-10.607126 -10.010369 1.100770 6730418
-10.911310 -9.717351 0.512231 6730418
-10.078344 -10.156452 0.977687 6730418
-9.410505 -9.654476 2.045422 6730418
-10.096160 -9.492757 2.781586 6730418
-10.645338 -9.415256 0.507273 6730418
-10.076994 -9.437573 0.859213 6730418
-10.726360 -10.230610 2.046855 6730418
-10.454817 -9.925188 0.641119 6730418
-9.375963 -10.501988 1.151360 6730418
-9.644510 -10.638810 1.773385 6730418
-9.958038 -10.340893 2.993889 6730418
-10.729124 -10.633233 0.375598 6730418
-10.074720 -10.032083 1.053061 6730418
-10.393728 -9.127727 0.766267 6730418
-10.095110 -10.504255 0.284855 6730418
-10.481922 -10.196426 1.735610 6730418
-9.236270 -9.360309 0.067953 6730418
-10.351922 -9.989836 0.743983 6730418
-10.459803 -9.531719 2.587370 6730418
-9.218912 -10.035004 2.903029 6730418
-10.546788 -9.778623 2.186300 6730418
-9.835767 -10.097022 0.961863 6730418
-10.342768 -10.543095 0.229399 6730418
-10.909678 -9.947807 1.624739 6730418
-9.217907 -9.875746 2.309112 6730418
-9.758697 -9.125235 0.228569 6730418
-10.561459 -10.002382 2.362910 6730418
-10.099128 -10.772141 1.990152 6730418
-10.923156 -9.775015 -0.001373 6730418
-10.671373 -9.877098 0.840024 6730418
-10.186090 -10.339372 2.520023 6730418
-10.440706 -10.636061 1.207186 6730418
-10.691545 -9.331032 2.624554 6730418
-9.188469 -10.614397 0.507708 6730418
-9.875159 -9.660146 2.525006 6730418
-9.146518 -9.876720 2.404556 6730418
-10.196719 -10.358558 1.070876 6730418
-9.366861 -9.833564 1.025362 6730418
-10.336601 -10.742511 2.757970 6730418
-9.684061 -10.229411 0.718926 6730418
-10.593895 -9.807932 2.073354 6730418
-9.950966 -10.948700 2.270053 6730418
-9.808225 -9.715315 2.216448 6730418
-10.170470 -9.253901 1.051973 6730418
-10.197173 -10.418148 1.628390 6730418
-9.583484 -9.906794 0.557885 6730418
-10.161448 -10.143694 2.314289 6730418
-9.282130 -10.688247 1.188692 6730418
-9.179070 -10.272052 0.615233 6730418
-9.579506 -9.894807 1.060636 6730418
-9.845598 -9.638225 2.584396 6730418
-10.472026 -9.775595 0.625174 6730418
-10.225648 -9.888614 0.470570 6730418
-10.461623 -10.668626 2.975903 6730418
-9.501241 -9.713718 2.463512 6730418
-9.122661 -10.263422 2.821765 6730418
-9.911733 -10.732481 0.865624 6730418
-9.877008 -10.741960 2.984294 6730418
-10.304532 -10.235988 0.999847 6730418
-10.477013 -10.390976 1.209698 6730418
-10.465041 -10.362214 1.847281 6730418
-10.510468 -10.769868 2.441336 6730418
-10.144217 -9.625284 2.146909 6730418
-9.977185 -9.562456 0.582467 6730418
-10.811502 -10.481681 1.180179 6730418
-9.081737 -10.089940 1.444125 6730418
-10.354670 -10.876495 0.067930 6730418
-9.783269 -9.535038 2.726197 6730418
-10.377212 -10.486874 2.446546 6730418
-9.908944 -10.695030 2.148309 6730418
-9.177689 -9.832301 0.935933 6730418
-9.364758 -10.762671 2.855441 6730418
-10.582342 -10.544414 0.077455 6730418
-9.978794 -9.894261 0.879238 6730418
-10.068069 -9.708188 2.037707 6730418
-9.751901 -9.886619 0.490496 6730418
-9.118643 -10.322499 0.517274 6730418
-9.812144 -10.373243 1.328198 6730418
-10.673104 -10.098253 1.380620 6730418
-9.039695 -9.878271 2.132157 6730418
-10.438898 -10.561895 0.684998 6730418
-10.136568 -9.774930 2.901860 6730418
-9.124587 -10.463640 0.089136 6730418
-10.988096 -9.849208 1.464125 6730418
-10.196774 -10.089171 2.138188 6730418
-10.358587 -10.287827 0.331173 6730418
-9.274249 -10.608396 1.035474 6730418
-10.081117 -10.063476 1.056908 6730418
-10.729673 -10.234369 2.517122 6730418
-9.786404 -10.491397 2.988362 6730418
-9.874371 -10.013378 1.266397 6730418
-9.720504 -10.789706 2.361801 6730418
-9.161131 -10.284920 1.511942 6730418
-10.472038 -9.581762 1.447539 6730418
-9.641055 -10.197618 2.730582 6730418
-10.609076 -9.393579 2.107770 6730418
-10.038123 -9.276141 1.617169 6730418
-10.424134 -9.825287 0.285585 6730418
-9.240624 -10.175244 2.874907 6730418
-10.726091 -10.086776 0.198805 6730418
-9.320426 -10.185344 2.811016 6730418
-10.100342 -10.828416 1.471132 6730418
-9.683779 -10.210430 1.128125 6730418
-10.906008 -9.985348 2.062764 6730418
-9.630775 -9.244227 2.525289 6730418
-10.591660 -9.250609 0.274941 6730418
-9.114998 -10.303675 2.765181 6730418
-10.210122 -10.659401 1.663528 6730418
-9.325559 -10.224494 0.428982 6730418
-10.387465 -10.294853 1.444862 6730418
-10.321019 -9.536459 2.593496 6730418
-10.831409 -9.513371 2.878406 6730418
-9.966164 -9.251376 0.837899 6730418
-9.258471 -9.508404 2.429375 6730418
-10.146972 -9.215762 2.771348 6730418
-10.764390 -9.764459 2.618419 6730418
-9.437559 -9.480206 0.290208 6730418
-9.323412 -9.513494 2.102417 6730418
-10.172344 -10.914090 0.408101 6730418
-9.111611 -10.321518 0.433671 6730418
-10.866220 -9.560338 1.405989 6730418
-9.936853 -10.108362 0.552927 6730418
-10.291685 -9.778067 1.573810 6730418
-10.656448 -9.730058 2.403031 6730418
-10.148250 -9.422032 1.671030 6730418
-9.467465 -10.124094 2.441233 6730418
-10.356108 -10.764245 2.935546 6730418
-10.011273 -10.450462 0.506578 6730418
-9.525700 -10.630476 2.266953 6730418
-9.550437 -10.727965 0.049531 6730418
-9.543553 -9.249988 1.182818 6730418
-9.441617 -9.472791 2.431854 6730418
-9.581264 -9.161416 0.177441 6730418
-10.268309 -10.225412 0.689566 6730418
-9.752056 -10.300920 0.030795 6730418
-10.358313 -9.310382 2.413511 6730418
-10.305160 -10.447395 0.123439 6730418
-9.460124 -10.709749 2.567118 6730418
-9.632103 -9.407771 0.512627 6730418
-9.115582 -10.027755 2.690800 6730418
-9.978805 -10.015517 2.769107 6730418
-10.521873 -10.483475 0.477346 6730418
-9.565498 -10.789200 1.837508 6730418
-10.705581 -10.392596 0.930886 6730418
-10.327854 -9.256863 1.246281 6730418
-10.569685 -10.037022 0.189320 6730418
-10.726943 -10.124382 0.742913 6730418
-9.865441 -10.838456 2.511397 6730418
-10.446898 -9.585309 2.836439 6730418
-10.720650 -10.432177 2.975817 6730418
-9.539372 -10.323013 1.693016 6730418
-10.395858 -9.945335 1.925506 6730418
-10.400944 -10.455179 0.963472 6730418
-10.311133 -9.787943 0.283994 6730418
-9.723536 -10.370700 0.119781 6730418
-10.697522 -10.033998 1.583188 6730418
-10.669338 -10.572435 0.227827 6730418
-10.274745 -10.181400 0.933630 6730418
-9.359848 -10.317600 1.243259 6730418
