# .PCD v0.7 - Point Cloud Data file format
VERSION 0.7
FIELDS x y z rgb
SIZE 4 4 4 4
TYPE F F F U
COUNT 1 1 1 1
WIDTH 1288
HEIGHT 1
VIEWPOINT 0 0 0 1 0 0 0
POINTS 1288
DATA ascii
10.276650 10.080239 1.195556 11697996
8.759766 10.456217 3.077320 11697996
10.338360 9.226529 1.361470 11697996
9.769577 9.244829 0.003117 11697996
9.264148 9.968162 2.856643 11697996
10.531722 9.508865 0.891652 11697996
10.219588 10.188791 3.574905 11697996
8.935603 11.104105 1.849817 11697996
11.009829 9.203204 1.313549 11697996
9.214251 9.787930 2.965343 11697996
8.927519 9.065307 2.162602 11697996
9.436712 10.235518 1.052836 11697996
11.070965 9.617636 3.501102 11697996
9.627872 10.069342 1.951619 11697996
10.591426 11.188232 0.078471 11697996
9.690127 9.639756 1.371143 11697996
10.770039 8.900215 3.663856 11697996
9.592451 10.434292 0.299569 11697996
10.787434 9.990202 2.906703 11697996
9.084800 10.078038 3.768608 11697996
8.995862 10.844151 3.477921 11697996
10.687003 8.925943 1.519083 11697996
9.134946 10.557415 2.736816 11697996
9.967223 10.037930 3.981829 11697996
10.142421 10.918293 2.286515 11697996
9.869395 10.140774 0.322383 11697996
8.854683 8.902808 2.168004 11697996
10.240637 9.767241 3.822299 11697996
10.633950 11.184123 2.217681 11697996
9.296070 10.101639 3.181534 11697996
9.883023 9.937504 2.657598 11697996
8.921778 10.279084 0.204020 11697996
10.771210 10.491303 1.941664 11697996
10.155555 9.671473 3.327052 11697996
10.963051 10.194060 3.393978 11697996
8.955081 9.207627 3.949192 11697996
9.306812 10.812989 3.339933 11697996
10.319983 10.741791 0.971872 11697996
10.805113 9.889179 2.243676 11697996
10.473399 8.765710 3.499764 11697996
10.828732 8.955661 0.898335 11697996
9.375806 10.255404 2.538180 11697996
9.131858 10.807896 1.141817 11697996
10.312780 8.852724 3.262604 11697996
9.690986 10.814933 2.951733 11697996
9.887390 10.526263 1.155835 11697996
11.140681 11.001875 1.420340 11697996
9.586690 8.856761 3.891892 11697996
10.726460 9.854678 2.280737 11697996
8.761884 9.331769 1.144501 11697996
10.861175 11.073741 3.722511 11697996
10.684620 10.933834 2.504223 11697996
9.529710 9.776419 1.164191 11697996
10.204335 9.285207 1.993969 11697996
9.758751 10.000459 2.736271 11697996
10.034028 9.724538 0.846746 11697996
10.317512 11.232579 1.892208 11697996
10.672030 9.175516 0.203234 11697996
9.501712 10.689821 1.212171 11697996
11.176800 11.019990 2.546999 11697996
10.497565 9.720399 2.104753 11697996
8.992114 10.383555 3.891425 11697996
9.184690 10.626171 0.168908 11697996
10.287210 10.042742 3.682824 11697996
10.786712 10.602479 3.087872 11697996
9.621056 11.215343 3.637865 11697996
9.382762 9.247124 2.975571 11697996
9.998977 9.270727 1.211738 11697996
9.165506 8.945743 0.815804 11697996
10.394882 9.631923 3.101953 11697996
10.589026 11.063807 2.264330 11697996
10.192066 8.925552 0.538004 11697996
10.694768 10.101393 3.452919 11697996
9.089529 10.947656 2.190386 11697996
11.020947 10.124875 1.571255 11697996
10.647807 10.371902 0.573928 11697996
8.816211 10.822149 2.841059 11697996
8.811930 10.479447 0.254607 11697996
9.364038 10.158257 3.544756 11697996
9.034243 9.326312 2.095001 11697996
9.657338 9.743387 2.080862 11697996
10.307645 10.028277 1.864188 11697996
9.233068 9.349934 2.333292 11697996
9.480190 10.902218 3.378344 11697996
10.021248 10.008176 3.336568 11697996
10.678965 8.803391 0.848212 11697996
9.171334 11.249012 3.915685 11697996
9.427475 9.859770 0.951147 11697996
8.908272 11.211441 2.709980 11697996
10.141965 9.589681 3.439852 11697996
11.238893 10.357971 0.194384 11697996
9.291775 8.997343 2.733363 11697996
8.947787 9.295303 1.310548 11697996
9.014134 9.762929 1.600174 11697996
8.894594 9.686796 2.172596 11697996
11.067725 11.067810 3.587227 11697996
10.394846 9.857971 3.036450 11697996
8.777843 9.707661 3.491915 11697996
10.309057 9.580843 0.342387 11697996
10.399198 10.558075 1.859780 11697996
10.747894 9.641915 0.081331 11697996
11.159207 8.949780 4.011430 11697996
10.543464 10.460662 2.018167 11697996
10.215248 10.212777 0.722186 11697996
9.995103 9.172721 1.458978 11697996
11.137824 9.299081 2.175725 11697996
9.035440 11.185245 0.944672 11697996
9.003393 9.466117 3.353450 11697996
10.486626 9.993464 2.760185 11697996
8.788776 11.220281 1.168265 11697996
10.537575 9.798903 3.081365 11697996
9.148503 10.684284 3.399986 11697996
9.128253 10.180064 3.985942 11697996
10.931315 10.253945 1.928991 11697996
10.921414 9.649274 1.039709 11697996
9.390368 8.964648 3.889334 11697996
8.785503 9.804706 2.457641 11697996
10.282022 10.454706 1.864649 11697996
11.057345 10.915167 3.570221 11697996
8.848739 9.455224 3.889039 11697996
9.895187 9.093128 3.463832 11697996
9.967896 9.627494 2.148520 11697996
8.907280 9.995564 2.425272 11697996
9.630498 9.930101 3.701938 11697996
9.923748 10.900431 2.649230 11697996
10.934065 11.127882 0.851471 11697996
9.350389 9.062210 0.083762 11697996
9.684842 10.877831 0.147246 11697996
10.180332 10.338609 3.540797 11697996
10.906982 9.045122 0.954184 11697996
9.278984 11.028140 1.780131 11697996
10.130996 9.241333 2.199181 11697996
8.777585 9.995831 0.780891 11697996
9.737383 9.912832 3.922720 11697996
9.968046 11.179069 2.374426 11697996
9.375453 10.904381 2.954218 11697996
10.653722 9.626375 2.219472 11697996
10.904523 9.051068 2.771076 11697996
10.889467 10.858262 1.811131 11697996
11.232318 9.879313 2.240498 11697996
9.666509 9.337299 2.494362 11697996
9.329547 8.832203 2.931110 11697996
11.028279 9.000755 2.690864 11697996
9.842118 8.784709 0.585476 11697996
9.820732 9.043478 3.565791 11697996
10.962970 9.795526 0.873969 11697996
11.121886 9.029323 3.673508 11697996
10.469327 9.155642 2.282159 11697996
10.775872 10.398696 1.363950 11697996
9.380721 10.555145 0.162724 11697996
9.374902 10.712779 2.738176 11697996
9.558712 9.342284 3.928702 11697996
9.048378 10.936931 2.221049 11697996
9.764449 9.943108 0.544499 11697996
10.542345 10.118176 1.776860 11697996
11.204494 11.016163 0.312172 11697996
8.925589 10.429728 2.845808 11697996
10.389307 10.080145 1.555332 11697996
10.619905 10.344841 0.783259 11697996
10.546865 9.677296 3.587173 11697996
11.086061 8.840651 0.324943 11697996
11.004910 11.234448 0.005499 11697996
10.768499 9.732874 3.560924 11697996
9.689135 10.809459 3.353625 11697996
9.538315 9.423138 2.251418 11697996
10.515338 9.552583 1.556056 11697996
11.025078 9.415892 1.960053 11697996
10.408930 9.999882 0.558750 11697996
9.785596 11.144868 2.391610 11697996
11.091576 8.891497 2.321329 11697996
10.963755 9.642297 2.547427 11697996
9.731627 10.890278 2.617130 11697996
9.148175 10.324051 0.917097 11697996
9.308348 8.852860 2.181551 11697996
11.062531 9.863577 3.003871 11697996
9.432901 10.886371 1.284232 11697996
10.281058 9.258942 1.468086 11697996
9.627783 10.454937 1.951082 11697996
9.729904 9.147891 2.264037 11697996
9.213190 9.121487 0.664905 11697996
10.491966 11.096360 3.440527 11697996
9.871914 9.800449 2.118631 11697996
10.160296 9.180320 3.335870 11697996
10.433084 10.113679 1.539439 11697996
9.246936 10.852798 1.181685 11697996
9.660135 10.208963 3.928574 11697996
9.789145 8.961867 3.526615 11697996
8.939272 9.514248 0.277299 11697996
10.645118 10.434978 0.121834 11697996
9.333899 10.489213 1.891028 11697996
10.501545 8.981813 2.465003 11697996
10.468769 10.320053 0.649041 11697996
9.943711 10.083274 3.647557 11697996
9.802427 9.735081 0.634169 11697996
11.183949 10.493909 2.820973 11697996
9.685964 10.632414 1.976163 11697996
9.101494 10.848039 3.750930 11697996
9.273144 11.040403 1.250113 11697996
11.120198 11.152811 3.815205 11697996
10.374770 10.199402 2.408243 11697996
9.887602 10.094130 3.653252 11697996
9.073435 9.137667 1.792888 11697996
9.578998 9.952620 3.296338 11697996
10.938725 9.258023 0.145967 11697996
11.058011 9.183814 0.652310 11697996
9.802817 11.127991 2.566902 11697996
11.022990 9.340746 1.464150 11697996
9.316529 9.912971 2.543004 11697996
11.203421 11.130083 0.879007 11697996
11.211160 10.594821 1.831035 11697996
10.375240 8.831667 3.761305 11697996
9.307304 9.741944 3.147528 11697996
10.307797 9.031849 0.849120 11697996
9.590718 9.424502 0.039260 11697996
10.060574 8.905196 3.130385 11697996
10.806013 10.384291 3.037522 11697996
8.733197 9.105163 3.468463 11697996
9.955066 9.545949 1.118045 11697996
10.328658 9.431872 2.302721 11697996
11.125154 9.602123 3.454364 11697996
9.877753 11.166561 3.225746 11697996
11.006111 10.533552 2.667264 11697996
10.723209 10.401863 0.634822 11697996
9.008608 9.097055 2.279730 11697996
10.185976 9.504406 3.770205 11697996
10.804152 10.718162 0.694920 11697996
11.231268 8.816244 0.900248 11697996
9.297056 9.570955 3.765412 11697996
11.264399 10.221252 1.595243 11697996
10.927127 9.406405 1.647649 11697996
11.008643 10.185937 2.417393 11697996
8.919778 10.782055 1.265754 11697996
9.619166 9.860489 0.349812 11697996
10.295963 8.969309 3.256969 11697996
9.542376 8.840294 1.284855 11697996
11.040201 9.103458 1.171303 11697996
10.348314 8.806365 0.413210 11697996
9.857080 9.667628 2.814771 11697996
10.835609 9.748393 3.965344 11697996
9.047961 9.313054 3.384281 11697996
10.029250 10.859126 0.727868 11697996
10.137913 8.827332 3.062870 11697996
10.841585 9.277487 3.631354 11697996
9.503124 9.749138 3.430464 11697996
9.459589 8.960810 3.443336 11697996
10.129450 9.205029 1.291768 11697996
10.549418 9.093315 1.760964 11697996
9.844060 10.889565 3.615757 11697996
11.065814 9.661924 3.522503 11697996
9.746271 10.910516 3.264261 11697996
10.068958 9.533360 0.506402 11697996
9.186512 9.280350 2.896388 11697996
10.456597 8.964987 3.134979 11697996
9.856579 9.602516 0.436713 11697996
8.793856 10.858725 3.321524 11697996
10.283754 9.647883 0.699832 11697996
10.503067 10.903265 1.650753 11697996
9.735468 10.736372 1.963419 11697996
9.243517 10.174134 2.073298 11697996
10.548044 10.704469 3.629375 11697996
10.089592 9.890138 3.137305 11697996
9.932750 9.663476 1.584733 11697996
9.343352 9.864263 3.457392 11697996
9.934614 11.163898 3.840194 11697996
8.998430 11.182628 0.969060 11697996
10.588939 10.102287 0.126687 11697996
10.512720 10.334848 1.776051 11697996
10.069550 9.103808 0.798048 11697996
9.401799 9.568702 2.569580 11697996
11.137095 10.939577 1.005756 11697996
10.628899 11.129708 1.054345 11697996
9.607924 10.394382 1.020315 11697996
8.869253 11.209920 1.634419 11697996
10.207461 10.082355 2.965593 11697996
8.962025 9.285818 1.969794 11697996
11.027222 9.010486 0.650063 11697996
9.810197 8.753232 0.756150 11697996
9.154183 10.430013 1.655302 11697996
10.843214 9.208573 0.546467 11697996
9.819098 9.565624 2.819322 11697996
9.736449 10.245746 0.264306 11697996
10.993359 10.466441 0.402035 11697996
9.471745 10.115324 1.544391 11697996
8.725795 11.081983 2.495825 11697996
10.318752 9.479299 0.540430 11697996
10.678287 8.873336 0.201010 11697996
11.231734 9.438984 2.615754 11697996
9.507443 10.741359 1.259572 11697996
10.233392 9.011461 1.015489 11697996
10.753188 10.842762 1.688734 11697996
9.516630 9.991204 2.350795 11697996
10.370225 9.155965 0.506622 11697996
10.610723 9.031723 2.439763 11697996
10.711622 10.159760 1.154895 11697996
9.364213 9.213369 1.755224 11697996
9.867456 10.254132 2.066544 11697996
9.163882 9.032048 1.645997 11697996
9.631291 8.964802 2.451197 11697996
9.488523 11.217226 1.595421 11697996
11.187171 9.639370 1.519935 11697996
9.647959 8.859741 0.381438 11697996
10.324766 10.641306 2.665592 11697996
11.022758 8.760484 2.026384 11697996
9.527659 9.037840 0.064138 11697996
10.012146 10.337173 2.642833 11697996
9.433487 9.671910 1.594150 11697996
9.407315 10.708369 2.875294 11697996
9.919759 9.733386 1.044333 11697996
9.155928 10.267867 2.857167 11697996
9.403776 10.662024 0.795243 11697996
10.054579 9.754363 3.920971 11697996
9.089613 10.616241 2.232262 11697996
8.757467 8.945723 1.142447 11697996
10.627038 9.165284 1.344633 11697996
10.056676 9.727894 2.223763 11697996
11.095993 10.361592 0.251070 11697996
11.082911 10.328095 3.517923 11697996
9.083304 10.205650 1.810236 11697996
9.888000 10.856462 3.217412 11697996
10.686993 10.683956 1.184514 11697996
11.194891 10.095865 1.938353 11697996
10.932560 11.206717 1.342441 11697996
10.719145 11.053922 3.774087 11697996
9.887131 10.281541 1.958793 11697996
11.273782 10.357236 0.446359 11697996
10.510245 10.029866 2.080351 11697996
10.110996 9.808172 3.650287 11697996
9.384369 10.684704 2.046648 11697996
9.594844 10.285810 2.708972 11697996
9.827497 9.612239 0.954779 11697996
9.101857 8.878116 3.365222 11697996
9.504197 8.955425 0.038762 11697996
10.766036 10.051432 2.281992 11697996
9.480334 9.157249 3.801328 11697996
9.924836 9.900856 2.128624 11697996
9.380279 10.553461 0.415252 11697996
9.682884 10.198136 2.076387 11697996
9.400968 11.102181 3.822523 11697996
9.932008 9.983982 2.227496 11697996
8.961890 10.266294 0.937610 11697996
9.635902 9.605642 2.325974 11697996
11.127181 10.448661 1.171759 11697996
10.905390 10.438318 1.635674 11697996
9.396198 9.373544 0.097080 11697996
9.911107 10.055346 1.293672 11697996
11.167680 9.868593 1.106414 11697996
9.775552 9.283087 0.010815 11697996
9.030837 9.511961 1.785948 11697996
10.855945 9.441936 0.643562 11697996
9.636083 10.030772 1.442305 11697996
9.735081 10.818570 0.243406 11697996
11.230625 10.315820 3.998736 11697996
8.795247 9.737966 2.614723 11697996
9.999334 10.797984 3.180871 11697996
10.087827 9.995974 2.272056 11697996
11.142133 9.877821 2.126779 11697996
9.780293 10.197013 3.478489 11697996
8.952184 9.187275 2.386622 11697996
9.658724 10.416756 2.812924 11697996
10.537694 9.839181 3.798898 11697996
10.537319 9.582391 2.862735 11697996
8.992455 9.492043 2.933895 11697996
10.803266 11.228418 2.820270 11697996
11.229923 10.717960 0.445850 11697996
11.225059 8.765285 1.770663 11697996
9.839554 9.916701 2.501379 11697996
10.464565 8.876224 3.644183 11697996
10.676682 9.600831 1.685259 11697996
10.305225 8.920885 1.246127 11697996
9.700171 10.449883 3.798884 11697996
10.598346 10.450583 1.313779 11697996
10.164255 10.302114 3.682228 11697996
10.174650 9.224693 0.606864 11697996
9.841188 9.062314 1.060678 11697996
10.596817 10.648675 1.764618 11697996
9.946815 10.145638 0.474956 11697996
10.068539 10.421969 3.714919 11697996
10.216586 9.647267 1.563211 11697996
11.073219 9.449530 3.299613 11697996
9.761494 8.771664 3.544662 11697996
9.376023 9.781735 1.287662 11697996
8.926079 8.945882 3.449472 11697996
10.509780 10.506041 1.250466 11697996
10.232881 10.108382 0.211730 11697996
9.018854 10.440710 2.996920 11697996
10.674608 8.824075 1.098274 11697996
8.992265 9.048037 3.304197 11697996
9.759532 11.149287 2.926252 11697996
9.782649 10.921793 0.183314 11697996
11.021513 9.481107 2.014533 11697996
10.496308 10.113051 3.052904 11697996
9.234307 10.580914 2.783988 11697996
11.145761 10.884579 0.143037 11697996
10.092597 9.161114 1.876856 11697996
10.661757 10.248954 2.266554 11697996
11.202950 9.877810 3.092320 11697996
9.029882 10.065578 2.486257 11697996
10.920919 9.109572 1.213261 11697996
11.172677 10.808882 0.136681 11697996
10.419493 10.979944 3.265656 11697996
10.680977 10.831688 3.050699 11697996
9.487782 9.328187 1.065500 11697996
8.863628 9.910257 2.712165 11697996
9.990311 10.560360 3.691277 11697996
10.292001 10.451248 0.938241 11697996
10.308105 9.382225 2.760855 11697996
11.210658 10.991145 2.732810 11697996
9.559808 8.829060 1.078653 11697996
9.463119 9.577915 1.490543 11697996
10.155103 11.122714 2.569418 11697996
9.122820 9.244331 1.711070 11697996
9.395935 8.946809 2.932941 11697996
9.691043 9.693624 1.986842 11697996
10.710266 11.064940 3.681867 11697996
11.120944 10.397171 3.794164 11697996
10.958732 9.180302 0.019174 11697996
11.092323 10.420662 3.216195 11697996
8.973390 9.008020 1.222919 11697996
8.901522 10.250191 3.022516 11697996
8.999830 9.527296 0.967426 11697996
9.327767 9.576333 2.666405 11697996
10.047653 9.169450 3.170740 11697996
8.774547 8.960752 0.442400 11697996
10.153525 10.336007 1.250518 11697996
8.816228 10.255863 0.859370 11697996
9.476951 10.134645 0.441679 11697996
9.609177 9.906694 1.774592 11697996
9.286873 9.152713 1.358353 11697996
9.988782 9.023570 0.984652 11697996
9.389788 9.535127 0.404968 11697996
9.278431 9.584092 0.290062 11697996
9.542281 10.341923 1.890515 11697996
9.066500 9.842432 3.749379 11697996
9.491036 10.005412 0.545189 11697996
9.755518 10.362328 0.694396 11697996
10.782211 11.183991 1.680881 11697996
10.975321 10.234178 0.748830 11697996
9.326584 9.115379 2.467772 11697996
10.069710 9.457393 1.657065 11697996
9.497728 10.043474 2.818737 11697996
10.088180 10.522010 2.632396 11697996
10.960510 9.749651 2.163004 11697996
10.860241 9.512833 0.731489 11697996
9.477067 11.220585 3.652346 11697996
11.206964 10.299401 0.549688 11697996
10.953477 10.506510 3.546330 11697996
11.009326 10.122563 2.404483 11697996
9.410784 8.846706 1.783040 11697996
10.413627 11.075903 0.508017 11697996
9.707438 9.015076 2.029193 11697996
9.625525 9.546563 2.055601 11697996
10.299306 9.601333 1.249247 11697996
9.956967 10.521793 1.325276 11697996
10.380360 9.653130 3.511202 11697996
11.213546 8.870952 0.854579 11697996
10.176216 9.141060 2.868658 11697996
9.540438 9.315369 2.098543 11697996
8.761461 9.347847 0.384088 11697996
9.696874 9.486970 0.693029 11697996
9.044827 10.162996 1.862859 11697996
11.068605 10.261019 1.538770 11697996
9.383343 10.094486 0.665366 11697996
10.124975 8.767722 0.036202 11697996
9.989951 10.481143 3.017247 11697996
9.109493 9.248696 2.553691 11697996
9.322471 9.309303 0.498884 11697996
10.771315 11.159637 3.973410 11697996
9.221441 10.323848 1.530655 11697996
9.884705 9.519965 3.519305 11697996
8.775099 9.437249 2.217902 11697996
10.351161 9.671221 2.797816 11697996
9.756840 11.210260 3.821966 11697996
10.363796 10.564197 3.046943 11697996
10.577735 10.989955 3.959544 11697996
11.204832 9.104633 2.754451 11697996
9.835519 9.388205 2.473771 11697996
10.300702 10.717668 3.279963 11697996
9.494178 10.211859 3.536709 11697996
9.255782 9.967486 0.108826 11697996
10.249040 10.797571 1.690187 11697996
10.758643 10.254029 1.987553 11697996
10.892100 10.619844 1.062160 11697996
10.146356 8.859351 1.849373 11697996
9.983432 10.311978 1.239346 11697996
11.127339 9.659068 1.927760 11697996
10.441651 9.462374 3.630892 11697996
9.983428 10.097784 0.900201 11697996
10.835506 10.943334 1.242554 11697996
10.224929 9.811197 2.594552 11697996
9.750526 9.163482 3.357274 11697996
9.706565 10.904298 2.194827 11697996
9.463598 10.391784 0.878268 11697996
10.901882 10.638620 3.402368 11697996
9.238659 9.629982 2.353860 11697996
8.998722 10.754778 0.015604 11697996
9.406482 10.922572 1.928124 11697996
9.875432 8.817364 3.042098 11697996
8.816257 9.796547 2.034279 11697996
8.959736 10.645817 0.315616 11697996
8.807641 9.284086 1.178555 11697996
10.896783 9.373213 1.065939 11697996
10.887158 10.454535 3.041186 11697996
9.071492 10.891733 3.808123 11697996
10.947783 9.467572 2.982307 11697996
10.889563 8.775372 0.336953 11697996
9.012757 10.342409 1.034092 11697996
10.449455 8.871094 1.911763 11697996
9.352278 9.299572 0.091084 11697996
9.610510 9.937540 1.255969 11697996
10.726589 8.922865 1.103418 11697996
9.104217 10.536538 0.961425 11697996
10.543111 10.170630 0.384984 11697996
11.016730 9.316155 1.882403 11697996
9.069752 9.844444 1.993060 11697996
10.122576 11.102914 2.748546 11697996
8.848070 9.195681 0.644766 11697996
9.536742 10.816681 3.746575 11697996
9.268150 9.612190 2.223079 11697996
9.257552 10.446393 0.194660 11697996
10.686091 9.874889 2.474305 11697996
9.511102 8.833796 3.758269 11697996
10.939305 10.025059 1.495721 11697996
9.057701 10.361831 1.690989 11697996
9.318280 9.387314 2.045415 11697996
10.249805 8.849488 3.911015 11697996
10.048917 9.132257 3.320296 11697996
10.696099 10.062615 3.218460 11697996
11.271390 10.615450 3.794687 11697996
9.310963 9.287314 2.098868 11697996
9.521532 10.938258 3.261486 11697996
10.037961 9.342933 0.463818 11697996
9.547062 10.461678 2.378296 11697996
10.933358 8.896864 1.143025 11697996
9.639965 10.336789 1.561995 11697996
10.519844 10.452388 1.527524 11697996
9.850213 9.043815 2.521843 11697996
9.285608 10.525359 2.088056 11697996
9.224237 10.064531 0.671197 11697996
9.651544 10.464223 3.771841 11697996
10.317181 9.831903 3.602544 11697996
10.047750 9.308387 2.000722 11697996
10.610210 9.794533 0.414684 11697996
11.262776 10.557816 3.184783 11697996
10.684367 9.636061 3.249474 11697996
10.233939 10.356956 0.747950 11697996
9.579720 10.338007 2.645725 11697996
11.007630 11.151820 3.949511 11697996
11.106286 11.193019 1.994845 11697996
9.229898 9.031786 0.243754 11697996
9.758845 9.790290 3.570696 11697996
9.301785 11.105742 1.630731 11697996
8.917272 10.589194 0.393169 11697996
11.186116 11.012689 2.704886 11697996
8.851011 10.693446 1.609602 11697996
10.680294 9.405984 1.050187 11697996
10.873251 9.548935 3.149100 11697996
10.131609 10.198632 0.941849 11697996
9.106682 9.667698 2.363117 11697996
11.094305 9.109603 0.527807 11697996
9.366705 8.797579 2.179092 11697996
10.930045 10.885868 2.302316 11697996
10.437640 10.735569 3.779973 11697996
9.460731 10.930634 0.965050 11697996
9.302096 10.226433 3.519748 11697996
10.347506 9.476438 2.920088 11697996
10.564452 10.442343 3.625954 11697996
8.848611 11.114959 1.190793 11697996
9.550672 10.188807 1.104182 11697996
9.641389 10.018029 3.191679 11697996
10.680011 10.374836 3.222145 11697996
10.122402 9.521235 0.151097 11697996
9.082822 8.895971 0.007829 11697996
9.545484 10.233214 1.427801 11697996
10.623839 9.574699 3.550323 11697996
9.103258 11.169154 0.562815 11697996
9.551539 11.141523 0.477932 11697996
10.728782 8.847101 1.550048 11697996
10.426507 10.820953 2.144712 11697996
11.217291 10.952065 3.046302 11697996
11.149376 8.910581 2.568026 11697996
9.895452 10.813932 3.937905 11697996
9.470392 10.432593 3.911270 11697996
9.132349 9.185116 3.138244 11697996
9.149518 10.553115 3.423242 11697996
10.934551 11.058016 2.823123 11697996
9.590206 10.435075 2.058983 11697996
9.364377 9.976409 3.731316 11697996
10.967831 9.738516 3.793565 11697996
9.614178 9.064958 0.412882 11697996
9.092494 9.215486 0.586441 11697996
9.529403 9.035676 1.334864 11697996
9.720672 10.384796 3.265734 11697996
10.818276 9.315525 0.759713 11697996
9.057976 10.175571 1.975121 11697996
9.537374 10.521085 1.101921 11697996
10.121027 9.241968 2.775139 11697996
9.475080 10.190408 0.019663 11697996
9.380194 9.180276 0.244890 11697996
10.839935 9.852956 1.498587 11697996
9.816142 10.756614 0.188346 11697996
8.975905 9.693557 0.907372 11697996
10.202323 9.449037 2.055128 11697996
10.911609 9.248544 1.035822 11697996
8.866261 10.255950 1.835677 11697996
8.804304 10.998781 3.603017 11697996
10.587247 9.095712 2.377532 11697996
9.270387 10.902786 1.811216 11697996
10.583606 9.906631 0.532775 11697996
9.445599 9.154334 3.710186 11697996
10.318082 10.276792 0.031866 11697996
10.702106 9.011003 3.712380 11697996
9.134646 11.114387 3.955094 11697996
10.277477 9.272516 1.959621 11697996
8.778342 9.020617 3.670496 11697996
10.292514 9.232243 2.673099 11697996
9.740770 10.002140 3.918826 11697996
8.796865 9.818264 1.468286 11697996
9.235140 10.477610 2.153299 11697996
9.656250 10.676344 2.787980 11697996
9.304407 9.860542 2.151831 11697996
8.780898 10.270546 3.206630 11697996
9.327205 10.957653 0.118832 11697996
8.803514 9.452057 2.500047 11697996
10.865697 9.822976 1.529078 11697996
10.273590 9.759387 1.768225 11697996
10.425249 10.052020 2.300868 11697996
10.136076 9.223327 2.915972 11697996
10.117042 10.298141 3.501642 11697996
9.162049 10.084887 0.984136 11697996
9.350197 8.820951 2.624725 11697996
11.284409 11.122515 1.198209 11697996
9.076378 10.180437 2.626452 11697996
9.623240 9.721634 2.753541 11697996
9.372208 9.748260 1.708193 11697996
9.402095 10.845987 3.593488 11697996
10.721848 8.878945 2.753867 11697996
10.172288 9.363162 1.580062 11697996
10.969107 10.732824 3.831827 11697996
9.098516 9.451826 3.342723 11697996
10.076718 9.663291 0.886109 11697996
9.218026 10.951691 0.468004 11697996
9.017183 11.003718 1.957419 11697996
10.936173 10.822336 1.317568 11697996
9.896202 9.275064 3.188564 11697996
10.404414 9.828378 1.340958 11697996
10.274438 9.857265 3.897404 11697996
9.459064 9.073517 3.588379 11697996
9.773802 10.453746 3.227346 11697996
8.984931 9.837786 2.820849 11697996
10.374146 10.987503 0.408170 11697996
10.108906 10.974511 3.003818 11697996
9.000973 9.513656 0.268813 11697996
8.779061 10.168962 0.998320 11697996
9.661819 10.649547 0.567465 11697996
10.354441 10.157834 3.300604 11697996
9.125502 10.229800 3.678904 11697996
11.200897 10.291031 2.508512 11697996
10.930241 10.033478 2.858097 11697996
10.167839 9.998404 0.149321 11697996
10.543752 9.432745 1.667067 11697996
9.086464 9.119415 0.484702 11697996
8.912340 10.887547 0.497739 11697996
9.112787 10.211283 2.280952 11697996
9.785482 10.606554 2.024415 11697996
10.919933 9.409044 3.353947 11697996
8.998021 10.770530 2.021873 11697996
8.859193 10.118430 2.767176 11697996
9.747585 10.089127 0.620896 11697996
10.730439 10.675985 0.499908 11697996
9.358389 10.087522 3.230713 11697996
8.782692 8.970853 1.700981 11697996
9.642391 9.702946 1.420155 11697996
9.580593 11.157431 2.512958 11697996
11.049867 9.885642 2.830886 11697996
9.436764 9.368000 2.579402 11697996
9.334990 9.597091 1.690690 11697996
10.536447 11.219918 0.389995 11697996
9.261497 8.899988 3.432379 11697996
10.561813 9.808086 2.292781 11697996
9.989527 10.670826 1.582604 11697996
9.807306 11.160203 2.152328 11697996
10.632764 10.994699 2.287144 11697996
9.748365 11.096223 3.411659 11697996
10.103903 8.946433 0.082560 11697996
9.766827 10.480120 1.643224 11697996
8.867317 9.746716 2.798531 11697996
10.141663 9.894309 2.395825 11697996
10.967066 9.886556 1.836972 11697996
10.119767 10.667327 1.089089 11697996
9.248066 8.994686 3.208747 11697996
9.642585 9.638053 0.809243 11697996
9.775586 10.128210 0.985142 11697996
10.036345 9.893313 2.448182 11697996
11.209307 10.516118 3.351000 11697996
9.611516 9.969733 1.926453 11697996
10.674437 8.830503 0.196746 11697996
11.167810 9.357652 0.012668 11697996
11.136864 9.346307 0.844722 11697996
9.733221 10.282391 1.581684 11697996
10.410412 8.947742 0.680133 11697996
11.096912 8.901049 2.818694 11697996
11.211653 9.432281 3.272777 11697996
11.087215 9.185781 2.102632 11697996
11.195098 10.749395 3.908765 11697996
10.557874 9.700346 2.578398 11697996
10.115276 10.157380 0.329124 11697996
10.836480 10.476529 1.391170 11697996
9.508582 8.829537 1.542029 11697996
9.312240 9.964417 3.409674 11697996
10.720612 10.546143 2.097449 11697996
10.910739 8.831877 2.267699 11697996
9.029739 8.885574 3.418092 11697996
10.213840 10.767765 0.412902 11697996
11.122182 10.940684 3.458392 11697996
10.655457 10.419950 3.060007 11697996
9.333077 10.022099 3.417349 11697996
10.424893 11.113059 0.758963 11697996
10.074806 9.383485 0.890903 11697996
10.574651 10.364077 1.678634 11697996
10.016335 10.127626 3.414930 11697996
9.616673 10.015808 2.754485 11697996
10.544495 9.166935 1.157477 11697996
9.973088 9.606001 1.785793 11697996
10.755730 10.251989 1.779222 11697996
10.696385 11.054466 0.937957 11697996
11.091496 9.866499 2.092092 11697996
10.457251 10.163694 1.541581 11697996
11.053242 9.281968 3.890420 11697996
9.217679 9.704646 2.574057 11697996
10.537253 10.309843 2.321795 11697996
9.562173 10.801251 1.725526 11697996
10.527199 9.495742 3.967036 11697996
10.315457 10.328249 1.557323 11697996
9.262770 9.782851 0.295250 11697996
9.022149 10.680969 2.481452 11697996
11.025752 11.031844 2.990379 11697996
9.281216 9.512683 0.128118 11697996
9.413243 10.522408 2.602230 11697996
9.272942 10.045338 -0.015998 11697996
10.399522 9.605222 0.306271 11697996
9.922609 11.026068 1.126327 11697996
10.115542 9.891169 0.982693 11697996
9.959351 9.871692 1.778967 11697996
8.930769 9.039860 0.506138 11697996
10.205282 10.379927 3.622027 11697996
10.794779 10.493427 1.543037 11697996
9.284558 10.555779 3.039941 11697996
8.950967 9.305513 3.908890 11697996
9.282328 9.377650 3.736138 11697996
10.490808 10.317717 0.164482 11697996
11.179103 11.050217 2.779407 11697996
10.141543 10.402797 4.005471 11697996
9.011931 11.007336 2.431871 11697996
9.979273 10.597138 1.085063 11697996
10.710173 10.415758 0.986843 11697996
10.289338 9.886692 1.928136 11697996
9.234785 9.881216 3.126721 11697996
10.858822 9.964617 1.272744 11697996
11.223794 8.838954 0.137073 11697996
9.293791 9.592469 1.902312 11697996
9.439525 10.230198 3.931832 11697996
10.613410 10.956710 2.726965 11697996
9.768220 9.443341 2.268207 11697996
11.189060 10.725331 1.635665 11697996
9.075386 10.805381 0.262891 11697996
9.659626 9.706867 0.161278 11697996
9.710479 9.018308 2.270605 11697996
9.852954 11.056694 3.590658 11697996
10.647895 9.132576 3.456960 11697996
9.429935 10.160712 1.866125 11697996
9.663462 9.862817 3.419225 11697996
10.188421 9.579720 3.177245 11697996
10.874610 8.804121 0.634992 11697996
10.139712 9.799706 1.646967 11697996
9.441452 8.999190 3.378612 11697996
10.073626 10.774770 2.287958 11697996
10.135518 9.856829 3.426291 11697996
9.793762 9.055868 3.019536 11697996
11.159450 9.553306 1.177853 11697996
9.183391 9.619219 2.751256 11697996
9.141652 10.084447 1.817834 11697996
11.003383 10.293575 3.420290 11697996
9.042477 9.580278 0.218261 11697996
10.612726 9.825422 1.372575 11697996
10.964644 10.145288 0.074840 11697996
10.434224 10.189809 2.317325 11697996
10.407723 10.576587 2.605761 11697996
10.954700 9.807648 3.769469 11697996
9.441502 10.749932 3.109465 11697996
8.786439 9.785673 3.754670 11697996
10.421107 9.074240 0.401654 11697996
8.906735 9.604990 0.115381 11697996
10.964681 9.895207 1.907333 11697996
10.409760 10.335662 1.400950 11697996
9.038013 9.184872 1.568242 11697996
11.015768 8.946745 1.402421 11697996
9.204429 10.464308 1.184631 11697996
9.556728 11.040691 0.762163 11697996
10.637884 10.960149 2.853717 11697996
11.144498 10.771409 0.150676 11697996
9.138378 8.869566 0.246725 11697996
9.887576 10.014518 3.837265 11697996
10.440344 9.554040 2.681341 11697996
11.048905 10.872792 2.962544 11697996
9.987413 10.743963 0.089735 11697996
10.320477 9.020723 0.297877 11697996
10.426595 10.951715 0.972312 11697996
8.765347 9.437182 0.773825 11697996
9.320152 11.080669 1.211412 11697996
10.703239 9.002352 1.559330 11697996
9.995329 10.639331 0.411315 11697996
10.710728 9.847082 1.721231 11697996
10.276504 10.062571 3.887097 11697996
10.629703 9.409031 3.066339 11697996
10.148609 11.153338 0.297471 11697996
9.006281 9.891727 1.705879 11697996
9.570748 10.111579 3.794656 11697996
9.700879 10.755256 1.256973 11697996
11.034082 11.013655 0.437449 11697996
10.278153 9.184020 2.149374 11697996
8.750551 9.119541 1.850269 11697996
8.744662 9.228092 1.226225 11697996
8.848909 9.528403 2.080013 11697996
9.396204 10.853839 1.803156 11697996
9.033799 10.306410 2.134496 11697996
8.946239 10.683043 1.992683 11697996
9.155890 10.521778 0.326688 11697996
10.106906 11.158989 2.687308 11697996
9.288095 10.155113 3.490845 11697996
11.103155 10.545065 2.640246 11697996
10.718404 9.776011 0.688949 11697996
9.634671 8.986481 2.045715 11697996
10.378745 10.288988 3.021375 11697996
10.175409 9.202410 1.919037 11697996
11.208467 9.836204 1.954454 11697996
11.066763 9.225971 2.215772 11697996
9.969643 11.047030 1.755816 11697996
11.210556 9.504054 1.494677 11697996
9.992825 9.168689 1.396720 11697996
10.696045 10.581462 3.147231 11697996
11.075424 11.186669 3.800035 11697996
9.918707 9.184111 3.613630 11697996
11.206570 11.172069 0.607217 11697996
9.179511 9.251360 3.897617 11697996
10.828495 10.260645 2.552563 11697996
10.157929 10.207435 0.351361 11697996
9.812585 10.208846 0.618157 11697996
10.374900 8.761188 0.290084 11697996
10.440384 9.639130 2.658714 11697996
9.444841 9.165376 2.372221 11697996
8.775787 10.530268 3.923795 11697996
10.871875 10.080521 2.871454 11697996
10.556666 11.011399 3.446795 11697996
9.076453 9.722779 3.622408 11697996
8.816081 9.495985 0.856446 11697996
9.323256 10.823420 2.031014 11697996
10.163861 9.506705 2.953729 11697996
9.645780 9.806196 0.632604 11697996
11.040339 9.807698 2.103887 11697996
10.078400 10.310158 2.296521 11697996
10.768132 11.115404 1.852042 11697996
10.168484 9.655247 3.224734 11697996
8.834424 9.166932 0.251441 11697996
10.781569 9.793786 3.129176 11697996
11.215355 8.784650 1.001689 11697996
9.697629 10.499098 2.716932 11697996
10.923818 10.562765 1.842273 11697996
9.832393 10.793373 3.951703 11697996
10.655190 10.399525 0.159724 11697996
11.057366 9.021375 1.009947 11697996
10.201189 9.182323 0.969786 11697996
10.224499 11.139989 2.425046 11697996
9.479051 11.011680 0.784162 11697996
9.555088 10.598642 0.779875 11697996
9.037935 8.973910 1.455489 11697996
10.742689 9.772844 2.744469 11697996
10.435883 9.991591 2.186507 11697996
10.568527 8.851506 2.497181 11697996
9.017670 11.196403 1.084924 11697996
9.637821 10.136685 3.542815 11697996
9.684846 10.927741 2.872158 11697996
10.580630 9.158735 0.964257 11697996
8.825468 9.134542 1.139823 11697996
11.097251 10.683767 1.720924 11697996
8.924622 9.643488 3.313457 11697996
10.700874 9.131834 2.237891 11697996
10.683673 9.859142 3.850281 11697996
8.891275 9.417844 1.882539 11697996
9.993266 9.277668 1.364010 11697996
10.564279 9.921111 0.754038 11697996
9.534472 10.777029 3.138819 11697996
9.226501 9.540570 3.065581 11697996
10.195354 9.471866 2.905846 11697996
11.196531 9.865438 0.515012 11697996
10.874352 9.511209 0.531403 11697996
10.008973 11.166861 0.794345 11697996
9.615147 9.338127 0.562337 11697996
9.500108 9.601414 3.628585 11697996
9.743324 9.364895 3.475120 11697996
9.854813 9.989710 3.151736 11697996
9.265393 9.765574 2.391326 11697996
9.582381 9.321679 1.792247 11697996
8.791958 10.000090 0.788462 11697996
10.811059 10.545225 0.092334 11697996
8.886079 10.701556 0.358773 11697996
11.110826 11.210253 3.648889 11697996
10.456539 9.248632 1.192954 11697996
10.331616 8.844237 3.440963 11697996
11.178128 11.218611 3.800172 11697996
10.956347 9.780692 1.162593 11697996
11.050691 9.353884 2.873785 11697996
10.027262 10.891451 3.806031 11697996
9.975389 9.971305 2.980924 11697996
10.670409 11.023355 1.474956 11697996
9.886679 10.918633 0.954182 11697996
9.824030 9.620271 2.263268 11697996
10.735226 9.301002 3.298241 11697996
9.478030 9.701619 0.286874 11697996
10.516805 9.099973 2.407085 11697996
8.841170 9.331719 1.314537 11697996
10.559856 9.540406 3.672267 11697996
11.060815 9.085842 1.264740 11697996
10.300182 8.785574 1.685772 11697996
10.896505 10.708342 2.719389 11697996
9.598309 8.966714 1.294721 11697996
8.761032 9.663835 0.358667 11697996
8.816058 9.076969 3.134059 11697996
10.597528 10.709530 2.054257 11697996
10.445799 9.854868 1.357956 11697996
10.363662 8.954485 3.740504 11697996
10.321410 10.718788 2.398257 11697996
11.003387 8.811240 0.182042 11697996
9.018341 9.522068 2.726292 11697996
10.483036 9.751410 2.943872 11697996
10.801848 10.264055 3.106606 11697996
10.399651 8.971974 1.393548 11697996
10.120919 9.684137 2.044552 11697996
9.559542 11.050710 1.909387 11697996
9.764479 9.507874 1.380679 11697996
9.284328 10.499108 3.826144 11697996
10.905158 9.650597 0.659560 11697996
9.778072 10.590802 2.634724 11697996
8.877241 9.838570 1.607636 11697996
10.274815 10.304989 3.731089 11697996
8.729037 9.771781 1.633998 11697996
9.408223 10.194099 1.824240 11697996
9.459754 9.552488 0.058000 11697996
9.889623 10.190633 1.840318 11697996
9.453055 8.766405 2.153346 11697996
9.437717 10.121103 0.408608 11697996
9.320369 8.783216 3.945310 11697996
8.939929 10.387667 2.379531 11697996
9.632583 10.052726 1.688611 11697996
9.277897 9.914492 0.910508 11697996
10.782668 10.801767 1.404188 11697996
11.176400 9.886058 3.191377 11697996
10.558959 10.211500 1.236867 11697996
8.940845 10.617087 3.680913 11697996
10.516099 10.240685 2.739350 11697996
9.717339 9.294876 3.523698 11697996
10.975896 11.160814 0.943677 11697996
10.388908 10.671452 2.596915 11697996
10.225628 10.648144 1.197473 11697996
10.515086 9.469588 2.217870 11697996
9.873287 9.339668 0.050670 11697996
9.590198 10.675333 0.578760 11697996
10.353366 9.247409 0.246895 11697996
9.018605 10.784129 0.490207 11697996
10.411677 10.922621 1.995469 11697996
10.066332 9.047743 2.620527 11697996
10.190854 9.204762 3.771935 11697996
10.869878 9.838310 2.883749 11697996
10.348550 11.161427 1.080444 11697996
10.977289 9.071072 0.503309 11697996
11.136209 10.017997 1.416887 11697996
9.363042 10.207101 3.564919 11697996
9.051794 8.796912 1.255331 11697996
10.356140 10.547251 1.370533 11697996
8.941383 8.919180 3.258910 11697996
10.252316 9.189829 3.905241 11697996
9.132751 10.322301 2.643706 11697996
9.215983 9.802223 0.671572 11697996
9.873858 11.088566 3.316581 11697996
8.962080 10.292481 3.219426 11697996
8.781631 11.229039 2.894459 11697996
9.393371 10.296199 3.555092 11697996
11.162389 11.200291 0.513528 11697996
8.937651 9.259933 0.656229 11697996
10.238576 8.992256 3.662476 11697996
10.425688 11.079225 0.623997 11697996
8.773586 9.826004 3.630128 11697996
10.099822 10.370740 3.553865 11697996
9.609949 10.217662 1.110398 11697996
9.698560 8.765678 3.099310 11697996
9.997325 9.515684 3.080869 11697996
10.542167 9.856807 2.855712 11697996
9.356487 9.019491 1.097512 11697996
10.789562 11.058831 1.571366 11697996
9.923326 9.324794 3.105933 11697996
10.322593 9.409511 1.329364 11697996
10.403498 10.904272 3.303812 11697996
8.828810 9.664981 1.902629 11697996
9.240918 10.806773 3.041999 11697996
9.395160 10.781389 1.314819 11697996
9.329341 9.878489 2.342826 11697996
11.084565 8.994565 0.188276 11697996
10.092470 9.005643 1.886388 11697996
10.693184 9.905785 1.092427 11697996
10.303936 10.179715 0.606453 11697996
10.984859 9.670317 3.101742 11697996
8.876075 10.663467 1.596291 11697996
10.233392 9.633659 3.050195 11697996
9.034745 10.499707 3.389272 11697996
10.222310 10.502126 0.027396 11697996
9.070881 10.384164 2.139142 11697996
9.856311 10.495996 1.663786 11697996
10.057595 9.851452 1.493045 11697996
10.842105 9.924623 1.285720 11697996
9.483396 8.987499 1.814503 11697996
10.602446 9.210567 2.172175 11697996
11.200494 10.344993 3.109967 11697996
11.212884 9.365561 3.458639 11697996
9.966877 9.061210 1.560084 11697996
10.964363 9.818179 1.126911 11697996
11.271645 10.056317 0.418407 11697996
9.872679 8.792558 2.299685 11697996
10.055545 9.478127 2.350160 11697996
9.987020 10.764767 1.742416 11697996
9.929429 9.967356 2.855325 11697996
9.948343 10.680737 3.779674 11697996
10.688629 9.322310 2.499815 11697996
9.460292 8.933757 0.264423 11697996
9.343919 8.871041 0.488597 11697996
9.067393 10.603869 3.204580 11697996
8.904515 9.551368 3.324914 11697996
10.108697 10.999413 0.126114 11697996
8.775331 10.524919 3.807523 11697996
10.297339 8.827428 3.562287 11697996
9.297624 10.578410 1.774872 11697996
9.440830 10.917576 1.891637 11697996
8.941033 9.883438 0.180930 11697996
10.386151 9.455234 2.730800 11697996
10.472545 9.612550 3.271363 11697996
10.288330 9.762798 0.845214 11697996
9.261234 10.103607 0.222288 11697996
8.850420 10.338258 0.936748 11697996
10.442660 11.248905 3.567798 11697996
9.022622 8.915156 2.881476 11697996
9.536907 10.377176 3.735162 11697996
8.786672 10.050913 2.449535 11697996
10.752460 10.621745 3.403397 11697996
11.007224 11.238367 3.637867 11697996
10.492296 8.829615 0.942886 11697996
8.938623 10.274971 0.042444 11697996
9.072170 9.405150 0.741261 11697996
9.246950 8.914074 0.276509 11697996
9.586627 9.169599 0.228169 11697996
10.899112 10.323665 1.700150 11697996
9.828672 10.233161 3.598306 11697996
9.128207 9.836336 1.811202 11697996
9.918412 9.462490 1.254979 11697996
9.380524 9.173597 1.507800 11697996
10.166187 10.479059 3.066651 11697996
10.112952 9.923028 0.759543 11697996
11.031372 9.084158 1.683892 11697996
8.744203 10.488134 0.228262 11697996
10.424665 11.100792 2.063439 11697996
9.888923 9.541084 1.711199 11697996
11.210482 10.146894 0.782575 11697996
9.849546 9.186051 1.771914 11697996
9.766282 9.649828 2.918437 11697996
10.739672 9.452983 3.005770 11697996
10.587881 8.768229 2.904659 11697996
10.603454 10.546963 2.345787 11697996
9.355421 9.863401 3.245484 11697996
10.388968 10.697467 2.601202 11697996
10.320176 10.516274 2.531127 11697996
8.765326 8.891742 0.500441 11697996
10.208539 9.029484 2.614736 11697996
9.911364 10.302258 1.989678 11697996
9.796801 11.173408 2.461032 11697996
8.749138 9.453470 0.025794 11697996
10.603755 9.467812 0.331490 11697996
-9.826204 -10.482754 0.700102 6730418
-10.236098 -10.951044 1.087575 6730418
-10.587155 -9.851464 2.192710 6730418
-10.394501 -9.382909 0.336014 6730418
-9.671017 -9.592106 1.827157 6730418
-9.885893 -9.370629 2.426538 6730418
-9.999928 -10.298971 2.935170 6730418
-9.622109 -9.365111 0.165684 6730418
-9.551310 -9.699106 2.413333 6730418
-9.415757 -10.318728 0.283971 6730418
-10.765370 -9.741599 1.203442 6730418
-9.412298 -10.356910 1.965253 6730418
-9.659453 -10.850944 2.905942 6730418
-10.247169 -10.148534 1.442459 6730418
-9.510169 -10.108995 0.794153 6730418
-9.309282 -10.587059 1.764018 6730418
-10.474365 -9.769028 0.147020 6730418
-9.328650 -10.730460 1.789387 6730418
-9.577233 -10.779571 1.337675 6730418
-9.878898 -10.503536 1.594646 6730418
-9.370279 -10.537668 1.770984 6730418
-9.826039 -9.222044 1.225821 6730418
-9.850719 -9.004653 2.120142 6730418
-9.725752 -10.806694 0.116008 6730418
-10.310641 -10.040926 0.311255 6730418
-10.134068 -9.708178 0.860125 6730418
-10.265689 -10.506640 0.456409 6730418
-9.942495 -9.598878 0.889011 6730418
-10.380999 -10.459176 0.965524 6730418
-9.604555 -10.420547 2.103372 6730418
-10.220065 -10.668451 2.050464 6730418
-9.483078 -9.298366 2.814675 6730418
-9.965702 -10.886761 1.253541 6730418
-10.808339 -9.456531 1.726596 6730418
-9.593323 -9.356922 2.100857 6730418
-10.485123 -9.836666 0.323748 6730418
-9.849264 -9.771065 1.200717 6730418
-9.581886 -10.545628 1.035814 6730418
-9.758876 -10.768306 1.880314 6730418
-9.375463 -9.445402 1.119760 6730418
-9.115933 -10.308125 0.457979 6730418
-9.916448 -10.738900 0.238829 6730418
-10.031305 -9.150610 2.554501 6730418
-9.535221 -10.170023 2.722842 6730418
-9.894451 -9.429004 2.500477 6730418
-10.341983 -9.821693 1.825280 6730418
-9.844917 -10.388417 0.885333 6730418
-9.406292 -9.427785 1.189057 6730418
-10.529061 -10.459785 1.865167 6730418
-9.462303 -9.440615 2.336108 6730418
-10.783668 -10.310099 2.755907 6730418
-9.281229 -9.850820 2.696382 6730418
-10.610665 -10.025082 1.931043 6730418
-9.908246 -10.129356 1.163142 6730418
-10.364952 -10.523530 2.569204 6730418
-9.930392 -10.464363 0.727983 6730418
-9.842427 -9.815043 1.423581 6730418
-9.490790 -10.243204 2.587919 6730418
-9.787317 -9.323725 1.793723 6730418
-9.771517 -10.522800 2.910999 6730418
-10.281980 -10.219994 1.268486 6730418
-9.140285 -9.741979 1.249827 6730418
-9.373146 -9.990675 2.109257 6730418
-10.228849 -9.091540 2.098307 6730418
-9.306719 -9.724590 2.722654 6730418
-10.189751 -9.316871 1.044979 6730418
-9.695422 -9.609698 1.203485 6730418
-10.051799 -9.045899 1.181155 6730418
-9.778162 -9.942810 0.916610 6730418
-10.579009 -10.613378 0.643489 6730418
-9.183371 -10.584123 0.765472 6730418
-10.059200 -10.898526 1.798929 6730418
-9.980363 -9.599542 2.840057 6730418
-9.692014 -10.118214 0.373976 6730418
-9.981273 -10.054898 1.527606 6730418
-9.513912 -9.337075 1.895475 6730418
-9.132169 -9.557692 1.139054 6730418
-10.021114 -9.147915 0.111303 6730418
-9.589884 -9.915733 0.721674 6730418
-9.792072 -9.885183 2.324860 6730418
-9.374352 -10.723115 1.987598 6730418
-10.473595 -9.425285 1.181087 6730418
-10.365352 -9.628984 2.656468 6730418
-9.157366 -9.931703 2.811636 6730418
-9.396735 -10.388781 0.130532 6730418
-10.213569 -9.446326 1.604945 6730418
-10.776006 -9.845428 1.441649 6730418
-10.183465 -9.824928 2.213655 6730418
-10.517767 -9.421906 1.173490 6730418
-10.004436 -9.394528 0.595303 6730418
-10.865237 -10.172633 2.662122 6730418
-9.965603 -9.713675 2.314945 6730418
-10.806394 -9.885154 1.511903 6730418
-10.700152 -9.753448 0.852049 6730418
-9.712591 -10.518003 2.733128 6730418
-10.688058 -10.612735 1.420870 6730418
-10.079019 -10.341061 1.579843 6730418
-9.741817 -10.968410 0.372999 6730418
-10.028187 -10.375752 1.124644 6730418
-9.410076 -10.295227 1.135438 6730418
-9.606495 -10.250406 2.185800 6730418
-9.086820 -9.834625 0.348571 6730418
-10.618713 -10.137005 0.454141 6730418
-9.528280 -10.508354 1.531090 6730418
-9.786883 -10.373617 1.958152 6730418
-9.958759 -10.232744 2.831151 6730418
-10.000083 -10.257118 2.417016 6730418
-9.450871 -9.569013 0.725389 6730418
-9.486450 -9.905219 2.674191 6730418
-9.735676 -10.521218 2.071672 6730418
-9.436732 -10.227070 0.570037 6730418
-9.027370 -10.274560 1.072974 6730418
-9.746880 -9.090065 0.951111 6730418
-9.203757 -10.435967 2.433938 6730418
-9.692034 -9.750072 2.762819 6730418
-9.089489 -10.305646 0.138990 6730418
-9.645200 -10.394544 0.994216 6730418
-10.376132 -10.476234 2.298147 6730418
-9.660155 -9.109033 1.834107 6730418
-9.283275 -10.115881 1.568322 6730418
-9.134377 -9.602918 1.777069 6730418
-9.350251 -9.521879 2.236659 6730418
-10.357280 -10.676288 0.643957 6730418
-9.222466 -10.380549 1.011636 6730418
-9.256498 -9.481846 0.325258 6730418
-9.275900 -10.020946 1.395404 6730418
-9.183443 -10.203830 1.832629 6730418
-10.406679 -9.292894 0.717781 6730418
-10.899522 -10.079432 2.213499 6730418
-9.891602 -9.393714 2.637976 6730418
-10.842461 -9.495159 1.611514 6730418
-9.249556 -10.211649 2.006397 6730418
-9.487867 -10.841185 2.809415 6730418
-9.424193 -10.449626 2.786220 6730418
-10.528957 -10.358428 2.125796 6730418
-9.960583 -10.558113 1.568818 6730418
-9.561244 -9.173324 2.685148 6730418
-9.965719 -10.506788 2.590621 6730418
-10.912732 -10.279887 1.722717 6730418
-10.266008 -9.509161 1.474062 6730418
-9.614733 -10.668925 2.421107 6730418
-9.403152 -9.967154 1.830972 6730418
-9.916604 -10.234196 0.056822 6730418
-10.613834 -10.385541 0.256861 6730418
-9.204882 -10.002968 0.041247 6730418
-10.777988 -10.328046 0.300032 6730418
-9.463367 -9.721399 1.871092 6730418
-10.502065 -9.829783 0.922413 6730418
-9.491245 -10.016151 1.491377 6730418
-9.896590 -10.312194 0.970134 6730418
-9.799302 -10.926348 0.052797 6730418
-10.016071 -9.545932 2.273555 6730418
-9.696601 -10.062368 2.028755 6730418
-9.163877 -10.449500 2.773189 6730418
-10.174015 -9.971733 2.015801 6730418
-10.409945 -9.942945 2.510175 6730418
-9.673375 -10.159919 2.545956 6730418
-10.132887 -9.956959 2.532179 6730418
-9.219374 -10.367129 1.147708 6730418
-10.320409 -10.734113 2.802024 6730418
-10.096265 -9.610897 2.824214 6730418
-9.258778 -10.643159 0.782623 6730418
-10.225665 -9.461228 1.239744 6730418
-10.012963 -9.236012 1.008208 6730418
-10.339151 -9.192334 2.721194 6730418
-9.398734 -10.555026 0.711087 6730418
-10.782786 -10.029840 0.949616 6730418
-9.944981 -10.629327 0.067596 6730418
-9.303926 -9.951982 1.836184 6730418
-9.382923 -9.242199 1.564745 6730418
-10.855201 -9.577209 0.636928 6730418
-9.490834 -9.874383 1.120249 6730418
-10.138845 -9.985351 1.359921 6730418
-10.096862 -9.882896 1.552665 6730418
-10.257669 -10.149910 2.150440 6730418
-9.614369 -9.401696 1.118272 6730418
-10.449227 -9.732159 0.845212 6730418
-10.343824 -9.399312 1.657238 6730418
-10.414777 -10.557421 2.939333 6730418
-10.232168 -10.975230 2.894189 6730418
-9.969049 -10.838907 2.281890 6730418
-9.904670 -9.571598 1.199210 6730418
-9.856594 -9.921419 2.552210 6730418
-9.541965 -9.398887 1.166617 6730418
-10.496440 -10.271574 1.000408 6730418
-9.823706 -9.931021 1.106858 6730418
-9.823825 -10.301078 2.108124 6730418
-9.653816 -9.560004 2.290386 6730418
-9.620790 -10.628134 2.329976 6730418
-9.821823 -9.205904 2.035249 6730418
-10.466103 -10.364348 0.614719 6730418
-9.994020 -10.958711 1.996714 6730418
-9.272521 -10.113583 0.064472 6730418
-10.424281 -9.448620 2.953204 6730418
-9.206015 -9.426068 2.260099 6730418
-10.145851 -9.220300 0.126389 6730418
-9.880707 -9.146061 2.210676 6730418
-9.064443 -9.828856 1.499143 6730418
-10.239235 -10.511572 0.405860 6730418
-9.707581 -9.112544 1.451129 6730418
-9.166847 -9.683308 1.659504 6730418
-9.231045 -9.574405 0.825154 6730418
-9.440131 -10.117261 0.671702 6730418
-9.451869 -10.401344 2.588659 6730418
-10.789252 -10.027515 0.430511 6730418
