# .PCD v0.7 - Point Cloud Data file format
VERSION 0.7
FIELDS x y z rgb
SIZE 4 4 4 4
TYPE F F F U
COUNT 1 1 1 1
WIDTH 1291
HEIGHT 1
VIEWPOINT 0 0 0 1 0 0 0
POINTS 1291
DATA ascii
10.757909 9.853158 2.799083 11697996
10.124079 10.681009 1.646533 11697996
9.597473 11.230097 2.101159 11697996
10.483976 9.811162 0.568007 11697996
9.649209 11.062446 0.406618 11697996
11.076499 10.424520 0.195592 11697996
9.912247 8.931449 2.389228 11697996
9.614834 10.249415 3.528456 11697996
9.707310 9.408284 3.190722 11697996
10.307264 9.630048 0.905050 11697996
10.162903 9.693851 3.080707 11697996
9.044393 9.779543 1.520808 11697996
9.547813 8.921876 1.852230 11697996
10.275701 9.610341 2.376258 11697996
10.582887 10.317915 3.420380 11697996
11.038349 10.116519 0.250415 11697996
10.212811 8.775016 1.850663 11697996
10.734924 11.038355 1.124849 11697996
9.903659 9.289245 0.328718 11697996
9.074707 8.817648 0.405368 11697996
9.607541 10.136302 1.105601 11697996
11.146195 10.909052 2.072642 11697996
9.767881 10.360680 3.654240 11697996
9.810659 9.630258 3.578360 11697996
10.374108 9.516066 1.043033 11697996
8.735227 10.536249 3.531575 11697996
10.451506 10.216599 3.872115 11697996
10.076540 9.841710 0.298576 11697996
9.076280 9.510064 2.997642 11697996
9.801126 9.520383 2.306279 11697996
9.850297 10.278854 2.175820 11697996
10.219853 9.204269 1.088395 11697996
11.076824 9.172190 0.585875 11697996
10.631256 9.751629 1.593273 11697996
10.792312 11.164650 1.055662 11697996
9.931194 10.188167 3.666736 11697996
10.157521 10.899999 1.436416 11697996
9.589396 8.912474 3.398550 11697996
9.761963 10.846865 3.042403 11697996
9.339817 9.991541 3.953228 11697996
10.795172 9.677550 1.482225 11697996
10.481032 10.431077 3.624063 11697996
9.445215 10.245200 0.879573 11697996
10.029140 9.071521 3.094043 11697996
10.646827 9.081432 1.844557 11697996
9.338687 10.974653 2.302784 11697996
10.869067 11.031796 0.547910 11697996
9.483186 9.611649 3.005441 11697996
9.013473 9.391817 2.361741 11697996
10.158748 8.985709 3.710991 11697996
9.055143 10.787278 1.606975 11697996
10.885206 10.017315 1.436756 11697996
9.206328 9.171222 2.038156 11697996
11.244781 9.285974 2.086250 11697996
9.121709 11.184471 1.277327 11697996
10.119138 9.963487 1.632554 11697996
9.154247 10.493608 1.247297 11697996
8.817259 9.417343 3.006870 11697996
10.803220 11.052989 2.424278 11697996
10.489505 10.939645 1.074206 11697996
9.176410 8.937099 3.932971 11697996
11.225576 8.826649 3.032901 11697996
9.130948 9.594481 1.994994 11697996
9.183167 9.953986 1.334944 11697996
9.928400 8.940421 1.609986 11697996
10.652612 10.867878 1.257930 11697996
9.114642 10.410276 1.138486 11697996
9.238961 8.774774 2.788489 11697996
10.934766 10.201754 1.269665 11697996
9.781486 9.842001 3.103625 11697996
10.333685 8.825531 0.839294 11697996
9.654439 11.060962 0.226343 11697996
10.887623 9.605760 2.437658 11697996
8.727203 10.896523 2.785780 11697996
9.267017 10.842941 2.597049 11697996
10.175333 9.529660 0.615121 11697996
9.637651 9.772514 2.324902 11697996
8.902757 8.894843 1.709179 11697996
9.614305 9.072445 1.991956 11697996
9.104938 9.397096 2.710151 11697996
9.369600 8.937088 1.417900 11697996
9.503307 8.820435 2.774558 11697996
9.631366 9.043411 2.092566 11697996
11.005334 10.346284 3.513903 11697996
9.956285 10.150613 0.482594 11697996
10.499537 10.942327 0.741091 11697996
9.949535 10.683726 1.101669 11697996
9.137598 9.551050 3.814074 11697996
8.821306 9.124524 3.403560 11697996
8.895789 8.798553 0.578356 11697996
11.120163 10.450138 2.102460 11697996
9.330699 8.777565 3.452076 11697996
10.589603 9.643225 2.050892 11697996
8.902877 11.102909 0.808117 11697996
8.837363 9.783412 3.949449 11697996
10.335326 9.657664 2.593240 11697996
10.056739 10.396258 3.383643 11697996
10.610978 10.561481 1.048792 11697996
10.535860 11.229584 0.685913 11697996
10.676873 8.925579 1.518082 11697996
10.934267 11.101254 3.276802 11697996
11.030304 10.862772 0.254469 11697996
11.149937 8.935224 0.609367 11697996
10.124307 11.061205 1.452430 11697996
8.794582 10.483746 0.779870 11697996
9.241510 8.837759 2.511761 11697996
8.954366 9.662926 0.850000 11697996
9.167572 10.853185 2.323068 11697996
9.117138 9.077521 1.534664 11697996
10.022117 9.125650 0.391281 11697996
9.799157 10.155330 1.528444 11697996
9.396916 10.374023 1.705980 11697996
11.159808 10.072357 2.732512 11697996
10.325388 9.625871 0.231844 11697996
9.333466 9.191901 0.227117 11697996
10.856982 10.740838 0.468226 11697996
11.059567 10.951735 3.468966 11697996
10.588638 9.543022 3.564981 11697996
10.556834 9.183765 3.956061 11697996
9.681395 10.486086 2.580125 11697996
10.430389 10.769234 0.974413 11697996
10.458601 9.701218 0.736997 11697996
10.878895 10.747527 0.779949 11697996
10.768833 9.701913 1.210014 11697996
10.214453 10.112617 0.820860 11697996
10.507689 9.714803 0.274670 11697996
9.021630 8.965733 3.167004 11697996
10.186059 10.789662 0.670636 11697996
9.900497 9.912203 1.939373 11697996
9.113809 11.208879 1.761549 11697996
8.770924 10.139646 2.780160 11697996
9.030166 11.172724 1.956213 11697996
9.987143 10.637010 3.851365 11697996
10.174129 9.219735 0.951317 11697996
10.446245 9.597293 1.754096 11697996
9.740206 9.045045 2.755100 11697996
10.625298 8.803055 3.710962 11697996
9.422606 10.115621 1.870593 11697996
8.903590 8.843736 0.339233 11697996
11.063445 10.737617 3.584242 11697996
9.927198 10.308855 2.306957 11697996
9.468910 10.949934 0.676936 11697996
9.232632 9.427940 1.408780 11697996
8.750019 10.388878 2.169146 11697996
9.538074 11.063414 3.408856 11697996
9.213033 9.657144 2.717671 11697996
10.727040 9.774957 1.814572 11697996
9.567853 10.786302 1.170774 11697996
11.144178 9.027839 1.296297 11697996
10.670635 9.226466 1.453293 11697996
9.785076 10.941713 2.180688 11697996
10.947518 8.824958 1.141925 11697996
10.180129 11.170670 2.078829 11697996
10.848761 9.978770 2.931878 11697996
10.255974 10.633162 3.602059 11697996
10.037626 10.426772 2.785498 11697996
8.787586 8.994536 3.188106 11697996
10.983612 10.567196 1.125387 11697996
9.680490 10.269629 3.889079 11697996
10.107170 9.643449 0.907701 11697996
10.242629 10.057479 2.901776 11697996
8.792397 10.162339 2.944806 11697996
10.844073 9.290790 1.617134 11697996
10.391669 9.597592 1.104807 11697996
9.115572 8.906082 2.765088 11697996
9.327101 8.939296 2.784107 11697996
10.103318 8.841413 1.269018 11697996
10.805990 9.310637 -0.001247 11697996
10.087317 10.576582 3.316093 11697996
10.791433 10.044838 3.287415 11697996
9.888537 10.441313 2.017498 11697996
9.226549 9.198274 2.110126 11697996
8.923381 10.861281 3.890589 11697996
10.678807 9.571104 1.233443 11697996
9.234012 10.252912 1.260290 11697996
10.073051 10.807570 2.005405 11697996
11.075468 11.068542 1.231371 11697996
9.149898 10.413978 2.452075 11697996
9.584108 9.051590 1.777371 11697996
10.884806 9.554202 0.558180 11697996
9.595126 8.944212 2.809426 11697996
10.442169 11.244308 0.589428 11697996
11.112631 10.083378 1.918490 11697996
11.208744 9.747088 2.424253 11697996
10.568646 8.786097 1.233845 11697996
10.431474 11.041397 1.734436 11697996
11.188950 9.278037 0.401107 11697996
10.627994 10.615446 1.910163 11697996
9.704998 9.621037 1.425254 11697996
10.615899 9.779311 0.463443 11697996
10.738267 9.678156 0.224656 11697996
9.535375 11.241742 2.478594 11697996
9.546800 11.031705 2.376071 11697996
9.374112 8.788432 3.160083 11697996
10.862095 9.804982 1.083927 11697996
9.828923 10.607933 1.589375 11697996
9.924158 9.196548 3.322831 11697996
10.462932 10.975515 0.833432 11697996
8.764221 11.107964 0.060178 11697996
10.595113 8.936584 1.505618 11697996
10.606829 8.954761 2.447815 11697996
9.770243 9.306934 3.612679 11697996
11.095184 10.209642 2.044464 11697996
11.063972 11.059675 -0.006011 11697996
11.096222 9.103197 1.996392 11697996
10.254081 9.799066 2.063737 11697996
10.034240 9.270516 0.229290 11697996
8.858348 9.148311 2.083923 11697996
9.645060 9.676228 0.187367 11697996
8.798098 9.534180 1.875906 11697996
10.513748 8.836317 1.753799 11697996
9.137169 9.594028 0.295005 11697996
11.003212 8.772422 3.765158 11697996
10.581108 8.974828 1.879781 11697996
10.174791 9.183265 2.561452 11697996
9.311148 8.943866 0.176414 11697996
9.897213 10.715202 2.444346 11697996
9.234167 10.546483 3.005735 11697996
9.912348 10.409911 1.836360 11697996
9.092263 9.714938 1.757671 11697996
9.726801 10.383170 0.399284 11697996
10.049279 10.894135 2.390760 11697996
10.709310 9.920582 2.184175 11697996
9.755493 10.396797 3.602000 11697996
9.562014 10.289678 3.997811 11697996
8.837017 10.673728 1.034705 11697996
10.049885 10.836123 1.508887 11697996
8.751822 9.711929 0.348796 11697996
8.904195 9.861629 1.373399 11697996
10.418553 8.985507 2.603790 11697996
10.635536 10.824700 0.088836 11697996
11.160989 10.260894 1.789616 11697996
10.688783 10.129521 0.550319 11697996
11.193179 8.743144 2.274900 11697996
10.968877 9.296809 0.423632 11697996
9.001452 10.455329 1.606755 11697996
10.588440 10.681067 0.973019 11697996
10.751581 10.021693 2.755580 11697996
10.747231 10.126432 1.644925 11697996
10.234977 10.706889 3.547123 11697996
10.237345 11.107027 3.118486 11697996
9.203108 10.714329 1.153169 11697996
11.162844 9.532393 0.009700 11697996
10.383820 8.776592 0.672004 11697996
9.883382 10.100965 3.805494 11697996
9.775180 10.019736 3.312259 11697996
10.850846 11.176620 1.424984 11697996
10.082796 8.924392 0.116223 11697996
10.153351 10.593186 1.197294 11697996
10.610355 9.332986 2.018611 11697996
10.938378 9.825905 1.313302 11697996
8.769428 10.601258 1.201759 11697996
10.679543 9.683178 1.801989 11697996
10.881042 9.705974 3.609466 11697996
9.667780 9.162211 3.478675 11697996
9.729255 8.893917 3.219873 11697996
11.235964 9.059108 3.898206 11697996
9.263787 9.200908 2.742567 11697996
10.331785 10.678392 1.018412 11697996
10.285873 10.129431 0.920299 11697996
11.141364 11.161443 3.630734 11697996
9.459878 11.054902 3.353800 11697996
10.480455 9.514941 2.835876 11697996
11.131970 9.687052 0.676099 11697996
10.020759 9.171990 2.464126 11697996
10.779979 9.844504 0.124302 11697996
10.429572 11.104476 0.714782 11697996
9.259846 9.397644 2.057421 11697996
10.690701 11.042834 0.747765 11697996
9.743720 8.879448 1.926344 11697996
11.125680 9.080562 2.907604 11697996
10.976299 9.821219 0.423635 11697996
10.652829 11.228860 2.757467 11697996
9.282101 10.966244 0.352792 11697996
9.031360 9.522186 0.728205 11697996
10.232521 9.462896 1.631715 11697996
9.909786 8.990355 0.009833 11697996
9.712972 9.027363 0.702644 11697996
10.791075 9.002131 0.566742 11697996
9.776112 11.057904 0.919688 11697996
11.103523 10.926438 1.842511 11697996
10.068970 8.809241 3.417898 11697996
8.904887 10.711758 2.157760 11697996
10.103722 8.913685 1.572279 11697996
10.551724 10.253291 2.182484 11697996
10.570742 10.124310 2.117562 11697996
10.941255 9.595942 3.919865 11697996
10.560188 10.778739 3.848268 11697996
8.985950 9.587793 2.326926 11697996
9.886251 10.229053 2.273088 11697996
9.937787 10.878457 2.857002 11697996
10.309889 9.273050 0.036342 11697996
9.801734 8.770569 3.453794 11697996
9.892016 8.784918 1.805032 11697996
10.584648 9.424310 0.938128 11697996
10.377514 10.204193 1.392447 11697996
9.835413 10.624568 0.943084 11697996
10.789093 8.910452 2.529825 11697996
10.820876 11.235808 3.673900 11697996
11.016809 10.707045 1.325470 11697996
10.583390 11.047533 3.519541 11697996
11.156231 10.881710 3.828088 11697996
10.880183 10.207588 2.231673 11697996
9.771825 10.572688 0.144713 11697996
10.673847 9.669676 3.080717 11697996
9.116465 10.219468 3.401746 11697996
11.173971 10.434581 3.713453 11697996
10.097266 10.826178 0.151471 11697996
9.442406 9.466916 0.177198 11697996
10.447697 10.215939 0.731841 11697996
10.244111 10.686319 0.011120 11697996
8.960602 11.092082 1.845525 11697996
9.355940 9.668482 0.128979 11697996
9.480759 8.813931 3.866893 11697996
10.328507 10.229180 3.776411 11697996
9.602550 10.988843 3.417773 11697996
11.176998 9.760303 0.828485 11697996
9.531631 9.712051 0.816381 11697996
10.582710 10.520792 2.069987 11697996
10.180141 8.871896 2.188969 11697996
10.018973 10.677153 1.627364 11697996
10.327765 9.798102 0.668920 11697996
9.809014 11.208792 0.426274 11697996
10.703420 9.740520 1.122380 11697996
10.481052 9.703693 3.555972 11697996
9.838805 10.548123 2.272978 11697996
11.230091 9.894546 0.370692 11697996
9.711662 9.298373 1.402485 11697996
8.987236 10.388689 3.613958 11697996
9.944165 9.084087 2.181733 11697996
11.237763 9.552891 0.997977 11697996
9.002742 9.889382 1.564714 11697996
11.205352 9.984588 0.270838 11697996
9.188456 11.121562 2.560824 11697996
10.847404 9.648189 1.796738 11697996
10.521230 10.545218 0.255538 11697996
10.717427 10.745390 2.402634 11697996
10.520363 10.085297 1.788928 11697996
11.159624 9.053863 0.978952 11697996
9.630352 11.125533 0.156436 11697996
9.589812 10.052134 3.745521 11697996
10.107368 9.700642 2.407158 11697996
9.426796 10.815801 2.706930 11697996
11.062229 10.522802 1.284618 11697996
9.060852 9.025433 0.972887 11697996
9.026938 10.337317 2.540111 11697996
10.792754 9.298583 0.056547 11697996
10.233951 10.626230 2.698455 11697996
9.638581 8.793413 3.553695 11697996
10.658302 10.480134 0.570430 11697996
10.671360 8.918273 2.168042 11697996
9.771472 10.072775 1.072306 11697996
10.098623 9.182649 2.322955 11697996
9.496930 9.715031 1.441614 11697996
9.003828 9.289669 0.241429 11697996
10.324326 9.892048 2.280124 11697996
10.809796 10.556205 3.730182 11697996
9.535909 9.246399 0.123951 11697996
9.583124 10.271971 0.515565 11697996
10.485362 9.258318 1.169983 11697996
9.459427 9.291823 2.786440 11697996
10.052404 9.158303 3.865579 11697996
11.127185 9.977318 2.714485 11697996
10.857212 9.571560 1.441889 11697996
10.136685 10.686435 3.781489 11697996
10.313611 10.785564 1.950609 11697996
10.986829 10.479976 1.415010 11697996
11.166483 10.828119 0.679348 11697996
9.724142 10.496854 1.095583 11697996
8.949014 9.852836 3.427526 11697996
11.086327 9.495905 3.163724 11697996
9.471355 10.719595 2.738832 11697996
10.196841 9.627479 1.990912 11697996
10.440165 9.170958 2.818059 11697996
11.259154 8.795715 3.280867 11697996
11.224709 9.955876 1.425509 11697996
10.387261 11.004195 0.408815 11697996
9.688259 11.105714 3.053287 11697996
9.642637 10.623630 1.504373 11697996
10.706798 9.468605 2.475722 11697996
10.203098 10.482162 3.918614 11697996
10.162548 10.870111 3.572038 11697996
9.194869 10.186569 2.155231 11697996
11.140567 11.008954 0.427936 11697996
10.304003 9.406664 3.716946 11697996
11.230624 9.608742 1.467924 11697996
10.318843 11.237827 3.753632 11697996
9.972557 9.583514 3.565494 11697996
11.110114 9.873370 0.693759 11697996
9.395243 9.101056 1.090827 11697996
10.179211 10.749952 0.420323 11697996
11.255400 10.306995 0.744913 11697996
9.729618 9.535922 1.441681 11697996
10.669794 9.046706 0.847964 11697996
9.319562 9.875669 3.638197 11697996
11.040091 9.627679 0.731244 11697996
9.554549 8.806788 3.777586 11697996
10.501891 9.208165 0.842264 11697996
8.985541 9.911557 3.932824 11697996
8.797627 11.197733 3.365267 11697996
8.828504 11.092628 1.012852 11697996
9.820977 10.041365 3.277518 11697996
9.876365 9.779889 1.730724 11697996
11.125949 10.772801 2.554571 11697996
9.116014 9.795905 2.275616 11697996
10.580576 9.331527 0.210901 11697996
10.941028 9.437698 0.021992 11697996
9.314511 9.411934 2.526221 11697996
11.163797 10.419317 1.031158 11697996
10.890318 10.210760 3.637998 11697996
10.459999 10.237741 3.484087 11697996
10.943717 9.475242 3.235314 11697996
9.955607 9.451384 3.832393 11697996
10.360633 10.609763 1.392776 11697996
9.002560 9.198019 2.709626 11697996
10.732702 9.373450 3.043635 11697996
10.921330 9.972504 1.361305 11697996
10.449576 8.808070 1.169018 11697996
10.727875 10.068534 1.345810 11697996
9.769493 9.815892 2.791185 11697996
11.139663 9.197028 0.644550 11697996
10.995118 11.240999 0.851913 11697996
9.119702 8.769302 1.630387 11697996
9.489553 11.154776 2.136397 11697996
10.764484 9.485215 1.074696 11697996
9.031549 9.339470 2.104272 11697996
10.394325 8.993177 1.299219 11697996
9.603871 9.617979 0.069701 11697996
10.369553 10.080230 1.581668 11697996
10.525132 9.532221 2.828216 11697996
11.106731 10.873368 1.728250 11697996
10.805085 11.104130 3.533672 11697996
9.442515 9.078184 0.062933 11697996
9.571782 8.949027 2.077309 11697996
10.013722 9.800467 3.290542 11697996
9.320629 10.300568 1.496549 11697996
8.868116 11.184429 2.798305 11697996
9.717441 9.361755 1.644589 11697996
9.245796 9.570024 3.894028 11697996
9.623907 8.860183 3.217165 11697996
10.280953 10.904597 2.055382 11697996
9.817379 9.392816 0.800499 11697996
9.342405 11.193110 1.963575 11697996
10.919802 9.240465 3.322023 11697996
9.576498 9.649738 3.030996 11697996
9.335765 9.850290 1.930138 11697996
9.022624 9.387675 1.670307 11697996
8.876342 10.364007 3.466148 11697996
9.014921 9.330094 2.443263 11697996
9.306400 9.897158 3.693266 11697996
10.491838 10.920509 3.708325 11697996
10.070750 10.327191 2.940435 11697996
10.081103 10.720549 0.084536 11697996
10.579036 9.230199 2.106284 11697996
8.797721 11.213358 0.411012 11697996
9.704574 10.778440 0.049484 11697996
10.949299 9.030881 0.956737 11697996
9.322563 8.950027 1.193269 11697996
10.916946 9.061055 3.809530 11697996
10.895327 10.845881 1.216255 11697996
9.877188 9.124215 3.920255 11697996
8.766754 9.290020 3.093888 11697996
10.409356 9.266825 0.782083 11697996
10.267548 9.289976 1.168911 11697996
10.957325 9.144291 0.371872 11697996
9.094590 9.957999 1.520262 11697996
9.813511 11.176104 2.206940 11697996
10.486644 10.893946 2.302867 11697996
9.527387 10.635191 1.266031 11697996
10.210751 9.737661 3.952047 11697996
9.471403 10.182813 1.408095 11697996
9.904553 10.712380 0.386186 11697996
10.099236 9.282179 3.687700 11697996
11.055931 9.963396 1.082034 11697996
10.697129 10.097433 2.412369 11697996
9.523991 10.001660 1.710619 11697996
11.052653 9.835968 2.197428 11697996
11.229951 11.110337 1.057014 11697996
11.136464 11.114861 3.709443 11697996
11.153483 10.900199 3.071717 11697996
9.352031 9.659369 2.995330 11697996
8.861526 10.289133 2.744202 11697996
10.603737 8.985320 1.556677 11697996
11.096062 11.101064 2.282211 11697996
8.807202 10.780719 1.964564 11697996
10.454595 9.461889 1.495161 11697996
9.797501 10.201530 0.094011 11697996
8.859030 10.795853 3.849099 11697996
10.494321 9.111853 3.257907 11697996
10.975577 10.169041 3.521218 11697996
11.213626 8.882245 1.503095 11697996
10.961199 11.082282 0.765474 11697996
10.951483 9.733447 3.084892 11697996
10.584083 10.421204 3.594883 11697996
10.770041 10.265694 3.860458 11697996
9.534008 9.636171 0.627468 11697996
10.170233 10.567304 2.061979 11697996
10.004231 9.242644 0.620832 11697996
9.834857 8.918477 1.350269 11697996
8.769379 10.303019 1.043727 11697996
9.240407 11.092355 2.086837 11697996
10.431755 9.929043 1.980334 11697996
9.750846 9.826731 0.698045 11697996
9.469419 9.868423 2.350774 11697996
10.656012 9.479742 0.321871 11697996
10.545650 9.342670 1.893952 11697996
10.373537 11.143154 2.698314 11697996
10.381910 10.997699 2.424259 11697996
10.007607 10.272835 2.997339 11697996
9.679769 9.886215 1.247583 11697996
9.500780 10.622696 1.526810 11697996
9.039392 9.841331 2.683981 11697996
10.148501 9.553294 0.846211 11697996
10.814657 10.626169 2.000454 11697996
11.114650 10.587511 1.211429 11697996
10.210643 10.639812 3.699381 11697996
9.515705 9.419700 3.651691 11697996
10.448180 8.815773 2.617442 11697996
9.033461 10.172064 3.901325 11697996
10.942327 10.103963 3.902497 11697996
10.424859 10.853023 0.087193 11697996
11.076056 9.379167 3.887041 11697996
10.428877 10.295876 0.837438 11697996
11.156282 10.581594 3.724314 11697996
10.606386 9.390874 3.035393 11697996
10.747554 8.885031 3.505852 11697996
10.996857 9.804420 1.049495 11697996
9.333178 10.796036 0.575071 11697996
9.857731 9.976161 3.149243 11697996
8.980571 8.784304 3.653890 11697996
11.226570 10.288113 2.815522 11697996
9.666929 11.014011 2.382732 11697996
10.470247 9.834926 2.697304 11697996
10.267734 10.728897 2.993512 11697996
8.844687 8.808280 2.750103 11697996
10.634372 11.074472 1.931437 11697996
8.775553 9.064529 2.718314 11697996
9.314542 10.455584 2.119115 11697996
9.450201 9.002111 0.714323 11697996
9.175823 9.271796 2.215743 11697996
10.792044 9.193615 3.667154 11697996
11.185187 9.630334 0.266757 11697996
9.942454 10.389403 3.556619 11697996
9.300029 10.430266 2.203612 11697996
9.590669 9.070995 2.195388 11697996
10.631406 10.651145 0.060245 11697996
11.055375 11.178276 2.838535 11697996
10.684044 11.214784 0.058396 11697996
10.801625 9.992643 3.984618 11697996
10.195274 10.735343 3.817015 11697996
9.933468 8.771689 1.270180 11697996
10.911512 8.970881 3.180391 11697996
8.827876 9.536140 1.476069 11697996
9.985562 8.953164 1.312428 11697996
9.060848 10.314976 0.449599 11697996
10.799548 9.167534 3.316707 11697996
10.144290 9.576681 2.046270 11697996
9.678573 10.070499 3.977448 11697996
11.202546 11.200036 3.965146 11697996
9.811203 9.237200 3.472776 11697996
11.137552 9.751667 1.359772 11697996
9.032034 9.839236 2.939373 11697996
8.799191 10.487658 3.245749 11697996
10.335426 9.271864 3.393690 11697996
10.697992 9.539542 1.743094 11697996
10.415247 8.792916 1.762783 11697996
10.676001 9.877013 2.296386 11697996
8.853805 9.302608 2.984426 11697996
9.800040 10.861748 3.098386 11697996
9.512381 9.612286 3.536572 11697996
9.949955 9.746799 1.446455 11697996
8.874418 11.123740 3.007811 11697996
9.022177 10.322306 1.941157 11697996
8.773162 10.708286 0.110115 11697996
9.797363 9.326118 2.530048 11697996
11.163923 9.353788 1.274058 11697996
9.251173 9.846740 2.008813 11697996
8.934462 11.015482 0.529542 11697996
10.057889 10.009149 2.204159 11697996
9.835078 10.303058 3.069800 11697996
11.040445 10.625264 3.584042 11697996
8.806532 9.077696 2.008116 11697996
9.800071 8.889462 0.529553 11697996
10.395307 8.989838 3.360047 11697996
9.898404 10.240724 1.558099 11697996
10.308842 8.872377 1.458239 11697996
11.027980 9.263765 1.353286 11697996
10.225850 10.228420 3.186227 11697996
9.934778 9.183120 2.525605 11697996
10.447603 10.377724 1.365130 11697996
11.028369 10.934686 1.352266 11697996
9.018286 10.416271 0.705022 11697996
9.104684 10.281686 1.659201 11697996
8.975959 9.297296 0.142659 11697996
10.813920 9.141985 1.141760 11697996
10.387237 10.171875 2.262073 11697996
9.404577 10.848486 1.025590 11697996
8.925793 10.661702 1.415896 11697996
11.021419 10.736904 0.388225 11697996
9.991279 10.133756 2.638208 11697996
9.349134 10.675186 2.828941 11697996
10.862185 8.972453 3.868850 11697996
10.898944 10.074885 2.553861 11697996
9.773646 9.921596 3.929113 11697996
11.177910 11.042959 2.153095 11697996
10.485606 10.322680 1.373451 11697996
10.541823 9.278229 1.169254 11697996
10.781034 9.150057 2.822760 11697996
8.859511 10.797708 0.594375 11697996
10.427143 8.908430 2.951052 11697996
9.528577 9.881949 1.439290 11697996
9.352781 9.569202 0.405355 11697996
10.837902 10.480966 3.633300 11697996
10.631353 9.788408 3.879653 11697996
8.816586 10.847936 2.167253 11697996
9.676875 9.796351 2.963728 11697996
9.033566 8.793876 2.580173 11697996
11.041490 9.640638 1.585442 11697996
10.728895 10.850237 0.148889 11697996
9.388059 11.105469 2.724093 11697996
10.340440 10.174790 2.589660 11697996
9.564028 9.530910 2.041873 11697996
8.887942 9.996213 1.977656 11697996
9.084214 10.741246 0.881019 11697996
8.790359 10.800776 1.724110 11697996
9.796500 9.998386 2.018206 11697996
10.322962 8.974751 1.717018 11697996
9.483656 9.911527 0.530930 11697996
9.327159 9.676381 0.708418 11697996
8.818330 10.282220 3.129725 11697996
10.463186 10.267727 3.712871 11697996
10.795798 10.812549 0.070261 11697996
10.277409 10.147849 0.476705 11697996
11.008327 9.879160 1.892231 11697996
9.827621 9.269669 2.241953 11697996
10.057508 9.024190 0.085689 11697996
9.688603 10.028401 0.922936 11697996
10.599002 10.082677 1.570598 11697996
9.248327 11.109982 2.422372 11697996
9.683417 10.092171 0.759626 11697996
9.913250 10.912425 0.173071 11697996
10.389707 10.501266 2.076477 11697996
9.157885 10.010957 0.510035 11697996
8.865222 11.001204 0.883624 11697996
11.096399 9.321959 0.812785 11697996
10.134055 9.226327 2.572417 11697996
10.989325 10.821940 0.477560 11697996
10.434452 10.999028 2.136098 11697996
9.002411 10.293806 3.531475 11697996
9.458941 9.600339 0.157458 11697996
11.083882 9.011882 3.013138 11697996
11.096306 8.996591 3.894549 11697996
8.836980 10.512356 0.436131 11697996
8.871177 9.466675 0.758896 11697996
10.302399 11.150084 2.985201 11697996
8.781359 10.176847 0.881501 11697996
8.790949 8.800072 3.808729 11697996
11.238454 10.563684 2.116902 11697996
10.395580 9.058529 3.170212 11697996
9.343060 9.202623 0.558852 11697996
10.947796 9.701982 3.356953 11697996
10.619664 10.446396 0.411152 11697996
9.780093 8.977533 3.788632 11697996
9.325701 9.446682 2.430217 11697996
9.112845 9.240725 3.885371 11697996
9.822426 9.740711 2.005324 11697996
10.455391 10.560778 0.062777 11697996
9.538220 10.835078 1.223556 11697996
10.354287 10.411474 2.584221 11697996
11.025078 10.960636 0.639380 11697996
9.226405 9.459224 1.093686 11697996
9.581815 9.295030 2.821223 11697996
9.650083 10.364522 1.396744 11697996
10.076572 10.930619 3.166009 11697996
11.137661 9.786456 0.050607 11697996
9.445066 9.553692 0.951658 11697996
8.958917 10.686562 1.260434 11697996
9.103200 9.091731 3.685467 11697996
10.845451 9.818019 2.445791 11697996
11.223594 8.915932 4.022838 11697996
9.972768 10.812819 1.850023 11697996
8.935329 8.972470 0.974191 11697996
9.694180 10.196455 1.035608 11697996
10.334689 9.566170 1.537970 11697996
10.823022 10.363067 1.336855 11697996
10.253063 9.362966 3.946429 11697996
10.100596 9.555212 3.292195 11697996
9.016284 10.383905 0.914782 11697996
9.860818 9.214802 3.754745 11697996
11.156014 8.963590 2.111699 11697996
10.807883 10.787906 0.412375 11697996
9.177035 10.308024 0.851928 11697996
9.384167 11.120760 3.185096 11697996
9.804306 8.999310 0.156734 11697996
10.000635 9.616595 0.398688 11697996
8.831657 10.069954 2.494594 11697996
9.945341 11.082720 0.878693 11697996
10.426301 9.941663 0.062258 11697996
10.314276 9.608347 3.007897 11697996
10.046648 9.249851 3.322445 11697996
10.320893 9.787939 3.802876 11697996
9.323536 11.137655 1.610073 11697996
9.081467 10.532541 1.403769 11697996
8.870296 9.947004 2.258089 11697996
9.846894 10.253498 2.373122 11697996
10.862836 10.573800 1.381945 11697996
10.967328 9.902740 3.737099 11697996
10.287572 10.060353 2.674839 11697996
8.863954 9.656347 2.001753 11697996
10.946056 10.773019 1.451432 11697996
10.811393 8.815058 3.013184 11697996
9.036553 10.264913 3.181669 11697996
10.789364 8.927777 1.577942 11697996
9.236349 10.927755 0.480082 11697996
10.798328 9.932918 0.040439 11697996
10.693087 10.362359 3.574999 11697996
10.834011 10.964816 2.320385 11697996
10.039733 9.537789 3.357222 11697996
11.004970 10.255061 0.238367 11697996
8.886241 9.267424 2.627531 11697996
9.430073 8.839589 3.001097 11697996
9.402217 10.161285 1.944092 11697996
10.798638 10.820810 3.218851 11697996
8.943622 8.901289 0.465810 11697996
10.811045 10.657770 3.133325 11697996
9.938719 10.085873 3.267982 11697996
11.168559 10.630702 2.869019 11697996
11.100836 10.065239 1.974159 11697996
9.195718 10.003548 2.798646 11697996
10.602441 10.795116 3.217781 11697996
9.369661 10.739428 1.717538 11697996
11.203032 9.448800 3.547127 11697996
10.963110 9.601434 1.018986 11697996
8.903735 11.014436 0.442191 11697996
8.833477 10.904502 0.157572 11697996
10.233316 10.014562 1.323615 11697996
10.628472 10.280757 1.466516 11697996
8.935843 9.947899 3.776224 11697996
10.462959 10.580147 1.811493 11697996
9.612207 11.157983 2.699281 11697996
10.894497 9.666479 3.137379 11697996
8.855095 10.905090 3.928524 11697996
10.854763 10.459569 1.866794 11697996
10.731360 9.708431 1.111432 11697996
9.748510 9.400921 0.373536 11697996
10.066044 10.097476 2.745131 11697996
9.781670 11.171527 0.774719 11697996
8.966792 10.050249 3.961310 11697996
10.482406 9.838719 3.111652 11697996
9.409769 9.751665 0.702627 11697996
8.954324 11.171822 3.090969 11697996
9.263081 9.053186 3.738006 11697996
11.150841 9.007428 2.153373 11697996
11.235516 10.797532 0.921044 11697996
10.855518 10.606998 3.675375 11697996
9.092946 9.654976 3.948874 11697996
10.767373 10.604736 2.176821 11697996
10.623251 10.550449 0.443906 11697996
9.227736 9.014124 1.642211 11697996
9.322449 9.942847 3.770019 11697996
8.864017 9.633204 1.856686 11697996
10.662427 8.952179 1.615718 11697996
10.711687 10.519207 2.352089 11697996
10.622892 9.817163 1.838894 11697996
10.888155 10.111366 4.005247 11697996
9.040949 9.447279 2.798842 11697996
10.461049 9.693888 3.164866 11697996
10.769894 8.989124 2.160243 11697996
9.129056 10.802912 0.108626 11697996
9.305500 11.083822 3.216462 11697996
9.885163 10.926925 0.802977 11697996
10.873606 10.762809 0.856581 11697996
9.192550 9.443235 1.069528 11697996
10.471174 9.664408 3.660712 11697996
10.881959 11.191799 0.751376 11697996
9.220756 11.152313 2.175297 11697996
9.612826 10.680251 1.783014 11697996
10.062230 9.881941 3.927951 11697996
9.359211 10.951779 2.703645 11697996
10.863823 10.503597 3.199160 11697996
10.801528 10.886624 3.077318 11697996
9.709423 10.516264 1.360052 11697996
10.816286 9.324273 1.140732 11697996
9.985628 9.348425 0.543310 11697996
9.000051 9.581472 1.061561 11697996
9.151855 9.189033 0.186795 11697996
9.315447 10.299010 3.854451 11697996
9.715553 8.932795 0.449710 11697996
9.220148 8.733379 2.288710 11697996
10.882323 9.153328 2.981848 11697996
8.909129 9.681007 3.865925 11697996
9.561513 10.162283 3.688598 11697996
11.058747 9.224800 0.911352 11697996
10.709317 9.463163 1.242673 11697996
9.834106 9.609985 1.580088 11697996
8.768194 11.157250 2.130817 11697996
11.135860 10.263367 2.339467 11697996
11.190972 9.598207 1.181229 11697996
11.214808 9.798201 0.689164 11697996
9.132381 9.792029 2.517813 11697996
9.121053 10.300015 3.245754 11697996
9.528678 9.418509 2.866386 11697996
8.804918 9.561506 3.741178 11697996
10.182812 10.836813 2.576848 11697996
10.588010 10.292665 3.831770 11697996
10.029974 10.109759 3.882155 11697996
8.811929 8.907463 1.724859 11697996
10.228293 8.961427 0.252618 11697996
9.127740 10.955681 0.766450 11697996
8.786201 8.880111 3.115879 11697996
9.911058 8.933849 3.154165 11697996
11.150287 10.950024 2.203274 11697996
9.257619 8.769228 0.933056 11697996
8.982721 9.090682 1.615394 11697996
9.306864 10.243244 1.374001 11697996
10.508492 8.747649 3.289135 11697996
10.741403 9.816804 3.710834 11697996
9.601821 9.728778 0.408372 11697996
9.358279 8.822083 3.320664 11697996
10.709654 9.538594 2.437530 11697996
10.143261 9.495051 3.995315 11697996
9.595642 9.797087 1.664943 11697996
9.782029 10.149177 3.023949 11697996
10.005177 9.371764 1.859631 11697996
10.717448 10.907887 1.417499 11697996
9.961863 8.804193 1.506511 11697996
9.206329 10.423606 1.916426 11697996
9.163182 11.057535 2.062449 11697996
10.002630 9.799555 3.662776 11697996
11.012856 10.083488 0.187505 11697996
9.368048 10.983923 1.397735 11697996
9.881934 10.183132 3.386904 11697996
11.237736 10.672163 0.225115 11697996
10.035498 9.599224 1.300394 11697996
10.862106 9.412101 2.373923 11697996
10.607720 8.761074 1.636103 11697996
8.868679 10.823942 2.357144 11697996
9.038461 9.452560 1.785339 11697996
9.222968 8.841814 3.782613 11697996
9.792849 9.076274 1.089927 11697996
9.596016 8.823720 3.045258 11697996
10.627934 8.773938 2.834635 11697996
11.194213 9.451009 0.297358 11697996
11.246398 9.856739 2.870360 11697996
10.167420 11.216613 0.643462 11697996
10.052837 10.793353 1.958859 11697996
9.775088 10.524835 1.088434 11697996
10.696048 9.829676 2.523929 11697996
10.738834 8.879066 1.741266 11697996
10.662673 9.194393 0.602108 11697996
10.429580 10.758156 0.655190 11697996
8.753147 9.242901 3.441634 11697996
9.923825 10.396204 0.977274 11697996
9.996768 10.826780 1.683578 11697996
8.873384 10.286850 3.848536 11697996
9.429464 10.025454 1.577976 11697996
10.845600 9.802358 1.583267 11697996
8.813935 8.903779 1.041620 11697996
9.432562 11.120446 1.665689 11697996
10.881694 9.483279 1.637233 11697996
8.846766 11.198335 2.959759 11697996
8.891476 10.101099 0.895276 11697996
10.610616 10.760497 0.835765 11697996
9.090063 8.810012 2.623985 11697996
10.044983 9.532069 2.590311 11697996
8.832050 10.086138 3.346483 11697996
10.567794 9.481882 2.523980 11697996
8.880428 9.825496 0.530474 11697996
9.568965 10.155752 3.925428 11697996
8.800310 9.899937 1.323214 11697996
9.243006 10.368089 3.124346 11697996
11.248462 11.050856 0.877439 11697996
9.809015 9.872683 0.341989 11697996
9.655511 9.887750 0.253738 11697996
10.965150 9.942858 1.363414 11697996
9.247160 11.185236 0.629635 11697996
11.105742 11.092896 2.988961 11697996
11.081097 10.686305 1.326017 11697996
10.443249 10.494565 0.252327 11697996
10.011623 11.195772 1.451004 11697996
10.538655 10.233600 3.814246 11697996
9.398986 10.522487 0.555238 11697996
10.617559 9.405679 3.127620 11697996
10.203164 10.697039 0.761419 11697996
8.813270 10.051571 1.647608 11697996
11.158776 9.712858 1.509930 11697996
8.957876 9.286288 3.435724 11697996
10.290342 8.828803 3.577171 11697996
10.426780 8.851562 3.912998 11697996
9.267267 9.103886 2.122094 11697996
10.455500 10.806921 0.596610 11697996
10.655473 9.716294 0.441146 11697996
10.679247 9.874220 1.900303 11697996
9.412628 9.779746 3.626002 11697996
8.898541 9.140769 2.853117 11697996
10.299013 9.186973 2.852859 11697996
10.037200 11.061859 3.062948 11697996
10.355346 10.597520 3.505860 11697996
10.093126 10.105902 0.853607 11697996
9.939646 9.602102 0.450600 11697996
9.470236 11.010610 1.505605 11697996
10.132895 8.884552 1.151086 11697996
10.116937 11.178719 2.636895 11697996
10.097555 9.373301 2.260760 11697996
9.004505 8.863156 0.255859 11697996
9.254279 9.222802 2.038247 11697996
9.295495 10.891950 0.817030 11697996
11.199801 9.677380 1.932277 11697996
10.491766 11.261885 2.001212 11697996
9.180562 11.056306 0.568737 11697996
8.780509 11.248869 0.096813 11697996
9.411128 10.129424 0.746336 11697996
10.607723 10.532120 2.649473 11697996
10.743979 10.357634 1.048926 11697996
9.593066 11.018238 1.486812 11697996
9.022647 9.004717 1.564675 11697996
9.724482 10.984813 1.277915 11697996
9.771758 9.077550 0.572331 11697996
9.232181 8.972405 2.026826 11697996
10.946638 10.384180 0.075270 11697996
10.631167 9.248116 1.795383 11697996
10.010195 9.923900 1.123960 11697996
10.298077 10.506662 3.154335 11697996
9.943021 10.970412 0.356686 11697996
9.097938 10.547377 3.405714 11697996
9.642224 11.189280 3.395693 11697996
8.976374 10.567655 0.460083 11697996
10.112773 8.896256 3.238764 11697996
10.781950 10.311432 0.782883 11697996
10.081931 8.865626 2.447814 11697996
11.268851 9.085927 0.451053 11697996
9.509309 9.217120 0.640317 11697996
11.218119 8.987581 3.271060 11697996
9.182702 9.742211 0.740904 11697996
9.310020 9.241105 3.970886 11697996
10.501408 9.229785 2.541049 11697996
9.844331 9.396969 1.029697 11697996
10.037180 11.246854 2.932698 11697996
11.095275 10.352197 0.275947 11697996
10.780943 9.266289 1.055507 11697996
10.589442 10.660894 3.198313 11697996
10.567226 10.912503 1.455810 11697996
9.958407 9.037587 0.786949 11697996
10.707641 9.771824 0.193511 11697996
9.064038 10.001770 0.457030 11697996
10.817302 9.668649 1.401167 11697996
10.646064 11.233223 3.917030 11697996
10.643290 9.604849 3.751037 11697996
11.180586 9.925881 2.959702 11697996
11.085318 9.967741 3.083583 11697996
8.824424 10.883038 2.764472 11697996
11.051925 9.820746 2.759159 11697996
9.279110 9.773112 3.443537 11697996
9.353910 8.983947 3.441936 11697996
9.858407 10.707980 2.538838 11697996
10.904698 9.209688 0.177289 11697996
10.708781 10.512197 1.277418 11697996
9.925372 10.697404 2.345508 11697996
9.124052 10.436326 1.762926 11697996
10.186131 9.328262 2.216867 11697996
11.029953 10.170198 0.221422 11697996
10.034844 11.139865 2.967832 11697996
10.643089 11.003121 3.821606 11697996
9.749704 8.831833 1.536456 11697996
9.596979 9.460970 1.399036 11697996
10.673310 10.727981 1.592324 11697996
9.621376 10.467861 2.765668 11697996
10.210926 11.247617 0.306887 11697996
9.599091 8.839869 3.312617 11697996
9.525025 10.282318 3.159676 11697996
10.376053 9.087556 3.305918 11697996
9.394206 10.333337 2.960303 11697996
9.629325 10.643078 1.729435 11697996
9.102857 10.805574 2.149403 11697996
10.803695 10.543798 0.891886 11697996
10.824389 10.952435 3.722778 11697996
10.719534 10.945712 1.673863 11697996
11.199045 9.292937 3.288477 11697996
9.843060 11.210746 1.741810 11697996
8.796087 8.777284 2.472850 11697996
9.162691 10.109876 3.128650 11697996
10.595807 10.066682 0.206026 11697996
8.843357 10.207513 3.408251 11697996
10.302590 9.538330 0.824985 11697996
10.244855 8.986797 1.405833 11697996
9.591715 8.894548 3.589545 11697996
9.748521 9.809083 1.554908 11697996
10.893686 9.966438 3.052557 11697996
10.667272 10.344093 3.289372 11697996
10.804485 10.486661 0.664806 11697996
10.745985 10.232174 3.848880 11697996
11.111977 9.491183 1.660619 11697996
9.494487 10.801324 2.604579 11697996
10.190638 8.777325 3.102894 11697996
11.152544 9.511370 2.710081 11697996
10.311808 10.065782 2.049338 11697996
10.355159 10.029850 0.992721 11697996
8.894008 11.003584 3.424887 11697996
10.652260 9.895378 1.746504 11697996
9.505231 9.994167 2.183202 11697996
10.119618 10.699556 3.261915 11697996
9.255825 10.490273 1.896042 11697996
9.248859 9.724229 2.733792 11697996
9.806823 9.108589 3.533796 11697996
9.590041 11.013598 2.012708 11697996
10.620294 8.848469 1.297217 11697996
8.938625 11.152803 0.062267 11697996
11.007738 10.366689 2.088621 11697996
8.882365 11.185419 0.021667 11697996
9.288614 11.115236 1.586491 11697996
10.160690 9.174273 1.432769 11697996
9.149066 10.583342 0.513021 11697996
10.790025 10.954695 3.789496 11697996
10.154713 9.795030 2.654641 11697996
10.988126 10.426684 2.340261 11697996
11.164984 9.913212 2.114408 11697996
9.979608 10.199605 2.206665 11697996
9.998285 10.169374 2.046541 11697996
8.916807 9.547857 0.952994 11697996
10.394296 11.033991 2.205536 11697996
10.999966 10.953686 1.697612 11697996
9.978207 8.852759 0.506688 11697996
9.318851 10.384342 3.302620 11697996
11.159188 9.232330 3.192340 11697996
11.072780 10.667989 2.404564 11697996
10.855639 11.170266 1.213315 11697996
10.735233 9.584137 2.726405 11697996
9.989648 10.843093 1.118415 11697996
11.070641 10.040159 1.281549 11697996
8.987147 10.061419 2.580651 11697996
10.083364 10.391870 0.453388 11697996
10.810017 9.917020 3.400089 11697996
9.863438 10.387464 3.070257 11697996
10.095254 11.157691 1.589947 11697996
9.545418 9.942606 1.554721 11697996
10.316696 10.213905 3.239367 11697996
10.941459 10.678799 3.172004 11697996
10.729493 10.682392 0.878225 11697996
10.726143 10.087992 1.587426 11697996
9.708702 10.684749 3.982168 11697996
10.853574 9.552877 1.430564 11697996
9.050150 10.151064 3.895186 11697996
9.139258 9.582829 0.255939 11697996
10.959942 10.936278 1.624177 11697996
10.137905 10.245614 2.375200 11697996
9.558523 10.949171 1.820160 11697996
10.132154 10.711724 0.206029 11697996
10.897280 8.889559 0.764139 11697996
9.108109 10.838473 0.671595 11697996
11.025885 10.998230 0.527610 11697996
10.074798 10.174378 3.187744 11697996
10.374212 9.963061 0.235001 11697996
10.246324 8.954256 1.579469 11697996
9.275059 8.892887 1.502722 11697996
8.965612 10.327750 3.097308 11697996
10.472669 9.353493 1.532057 11697996
9.145707 9.326422 3.715940 11697996
9.494959 9.203936 0.588442 11697996
10.347890 11.030105 1.180722 11697996
10.508144 9.175687 1.474990 11697996
11.144895 10.360744 1.892420 11697996
10.619566 8.976589 3.682259 11697996
10.939216 10.817141 0.818444 11697996
10.844853 9.218179 1.517769 11697996
9.561638 11.161445 1.859015 11697996
8.915114 10.183009 1.797435 11697996
11.236631 10.115705 0.247597 11697996
9.993476 11.007957 3.610796 11697996
10.619070 10.319998 0.273424 11697996
8.847771 10.548093 0.631900 11697996
8.997901 8.832957 1.473037 11697996
10.915607 9.474967 0.160180 11697996
10.368499 9.465003 3.722697 11697996
10.238719 10.432730 0.701734 11697996
10.384775 10.764983 0.148914 11697996
10.780552 9.172091 1.249959 11697996
10.957568 9.775054 3.735113 11697996
10.482928 9.587937 1.591685 11697996
8.863780 8.967384 0.555865 11697996
10.172046 10.275909 3.693306 11697996
9.255665 10.996595 0.655198 11697996
10.765447 8.801209 0.573589 11697996
8.987871 10.694057 2.558396 11697996
10.728925 9.454946 3.109510 11697996
9.548003 9.777526 0.829427 11697996
10.986063 11.176341 2.361298 11697996
9.609576 10.544556 2.877658 11697996
9.664780 11.117319 1.290967 11697996
9.816940 11.157609 2.777638 11697996
10.366282 10.301256 3.040441 11697996
10.416065 10.642919 3.522013 11697996
10.907010 10.677379 1.440814 11697996
9.112445 10.900226 2.668197 11697996
10.864237 9.651059 0.384456 11697996
10.988490 10.539962 3.115849 11697996
8.788433 9.091701 4.029024 11697996
9.493765 9.450141 2.511343 11697996
10.729480 10.229134 2.470574 11697996
8.799672 9.430037 0.678877 11697996
10.278837 9.225887 3.715785 11697996
10.154555 9.118279 2.568035 11697996
10.336496 11.026399 2.546430 11697996
9.082515 9.527206 1.928931 11697996
10.044988 9.385020 2.211068 11697996
9.177894 9.409741 0.666258 11697996
11.047166 9.570184 3.976204 11697996
10.235327 10.757265 1.825470 11697996
11.021716 10.012874 2.426681 11697996
10.281684 10.928275 1.678942 11697996
9.620235 9.785787 3.299285 11697996
10.608824 8.876746 1.964852 11697996
9.269301 10.720300 1.532456 11697996
9.360729 9.239780 2.073084 11697996
9.110603 9.064739 3.252308 11697996
9.408005 10.486952 2.030280 11697996
11.082569 9.044480 2.302293 11697996
11.121480 9.895037 2.440712 11697996
9.319716 11.148565 2.928168 11697996
9.618423 11.207607 1.222601 11697996
9.077513 9.535002 3.208388 11697996
11.152193 8.954793 1.374983 11697996
10.212890 9.958333 1.699592 11697996
10.072639 10.480147 2.663944 11697996
9.350819 9.156950 0.765597 11697996
9.976348 9.422432 0.401130 11697996
9.086475 8.925333 1.381194 11697996
8.809113 10.327682 2.395516 11697996
9.753836 8.958429 2.953202 11697996
10.129118 10.987780 0.847408 11697996
11.046728 9.272285 4.014721 11697996
10.771369 8.978875 1.269207 11697996
9.625946 9.951735 2.847303 11697996
10.052481 9.357406 2.843691 11697996
10.078405 11.115871 3.066081 11697996
11.030192 10.904999 3.179340 11697996
9.405850 10.910262 0.988454 11697996
9.548665 10.747751 1.061269 11697996
8.739658 9.329798 0.064149 11697996
10.519341 10.792453 2.019465 11697996
10.455410 10.654079 2.451133 11697996
10.160870 9.086187 2.925391 11697996
10.291981 9.602648 3.730148 11697996
9.135814 10.711436 3.711880 11697996
9.706567 10.839972 2.582082 11697996
10.992160 9.895056 0.452237 11697996
10.601589 10.846306 3.337410 11697996
10.749864 10.292734 2.082576 11697996
10.334988 10.418042 0.325168 11697996
10.991586 10.445792 2.675010 11697996
9.705524 9.665468 2.594608 11697996
11.135854 10.932215 1.344151 11697996
9.402504 9.493450 3.138035 11697996
10.907765 8.941370 3.580675 11697996
11.234868 9.852521 1.927098 11697996
10.459834 10.307436 2.633630 11697996
9.665714 9.116760 0.426570 11697996
11.227584 10.420382 0.285245 11697996
9.931353 9.295103 1.002899 11697996
10.403338 10.340640 2.371603 11697996
10.810102 8.780330 1.178466 11697996
9.962158 9.055896 0.551521 11697996
9.694703 11.191917 0.836787 11697996
10.138242 9.158367 1.174541 11697996
8.888566 9.539582 1.560762 11697996
9.710809 8.894326 1.727364 11697996
9.826704 9.894569 1.064908 11697996
10.069865 10.853702 3.373034 11697996
10.285144 8.915351 1.113638 11697996
9.070091 10.186296 1.309909 11697996
11.086357 8.867883 2.014789 11697996
11.082520 9.329557 2.221006 11697996
11.064366 9.190342 3.955529 11697996
8.906986 10.416448 2.293403 11697996
8.834203 10.431084 0.528246 11697996
9.049923 11.102444 3.774519 11697996
9.184252 9.688514 0.817222 11697996
9.225175 10.805335 1.396846 11697996
9.344551 10.746287 1.309370 11697996
10.991032 10.243011 1.992559 11697996
10.369426 10.520782 2.569023 11697996
8.873212 10.231319 3.273415 11697996
9.493315 10.210897 3.568162 11697996
9.095032 10.927235 3.188444 11697996
11.148519 10.288987 0.701614 11697996
9.422496 9.061876 2.437721 11697996
9.125637 10.053257 1.063039 11697996
11.097901 9.480831 2.029329 11697996
10.806464 9.489190 0.247911 11697996
9.754102 10.377055 1.838694 11697996
10.245663 10.100559 1.207608 11697996
8.758321 10.463115 3.064408 11697996
10.310777 9.219709 1.378356 11697996
9.752429 9.301669 0.038935 11697996
9.261479 9.942415 2.853407 11697996
10.571571 9.550976 0.865047 11697996
10.235751 10.194505 3.520039 11697996
8.920335 11.088481 1.872324 11697996
11.040440 9.219058 1.292617 11697996
9.214463 9.792538 2.935904 11697996
8.890380 9.078628 2.132101 11697996
9.405716 10.252157 1.060878 11697996
11.087860 9.632258 3.488762 11697996
9.614475 10.064745 1.930978 11697996
10.609017 11.189413 0.056166 11697996
9.691056 9.668992 1.378596 11697996
10.758353 8.920837 3.639641 11697996
9.612315 10.419691 0.255933 11697996
10.759853 10.001182 2.857128 11697996
9.125963 10.029801 3.786865 11697996
9.003808 10.826189 3.458297 11697996
10.725979 8.937035 1.533949 11697996
9.147640 10.558237 2.760244 11697996
9.971182 10.055723 3.970258 11697996
10.154106 10.937413 2.309979 11697996
9.844859 10.142468 0.320727 11697996
8.873464 8.917995 2.177936 11697996
10.231152 9.802004 3.846584 11697996
10.622695 11.165512 2.221298 11697996
9.315468 10.124677 3.184474 11697996
9.867803 9.917840 2.634631 11697996
8.948978 10.247475 0.186765 11697996
10.786085 10.487418 1.940146 11697996
10.123036 9.650762 3.346725 11697996
10.958076 10.155212 3.392873 11697996
8.972285 9.216108 3.923205 11697996
9.323508 10.850351 3.322309 11697996
10.289957 10.728750 0.975716 11697996
10.807860 9.927048 2.275337 11697996
10.501373 8.744792 3.536690 11697996
10.849977 8.921340 0.833875 11697996
9.394911 10.249749 2.546337 11697996
9.108334 10.799329 1.146602 11697996
10.355408 8.829992 3.300608 11697996
9.697460 10.797999 2.963975 11697996
9.869925 10.513020 1.130471 11697996
11.147969 11.004578 1.448053 11697996
9.579981 8.840690 3.911944 11697996
10.730132 9.878876 2.281096 11697996
8.789001 9.324663 1.187159 11697996
10.825165 11.085241 3.712223 11697996
10.682819 10.929501 2.514110 11697996
9.554575 9.780406 1.221605 11697996
10.211537 9.256010 2.014670 11697996
9.755279 9.994145 2.720909 11697996
10.039841 9.700168 0.809580 11697996
10.334218 11.198253 1.901426 11697996
10.679071 9.185333 0.188739 11697996
9.528186 10.729273 1.201723 11697996
11.187356 10.990312 2.571168 11697996
10.521071 9.718531 2.089366 11697996
8.988997 10.385767 3.877345 11697996
9.189535 10.611655 0.151446 11697996
10.294607 10.044098 3.649056 11697996
10.760558 10.651698 3.076946 11697996
9.615460 11.229335 3.673510 11697996
9.380885 9.225263 3.003901 11697996
10.039195 9.311655 1.233647 11697996
9.121198 8.975087 0.847751 11697996
10.402476 9.631058 3.107713 11697996
10.585766 11.076629 2.266216 11697996
10.191769 8.897144 0.519119 11697996
10.721786 10.064317 3.454385 11697996
9.102737 10.984294 2.163620 11697996
11.008729 10.143270 1.578832 11697996
10.628221 10.397706 0.584519 11697996
8.845562 10.837501 2.835198 11697996
8.818457 10.475088 0.258873 11697996
9.372628 10.180135 3.526418 11697996
9.029043 9.315635 2.115487 11697996
9.671118 9.733664 2.101487 11697996
10.349471 10.036276 1.906050 11697996
9.244622 9.338341 2.366514 11697996
9.476922 10.903249 3.363639 11697996
10.071474 10.007601 3.330497 11697996
10.693652 8.793983 0.836712 11697996
9.195047 11.242414 3.936775 11697996
9.392773 9.891374 0.959653 11697996
8.854105 11.198874 2.728450 11697996
10.160573 9.597867 3.428469 11697996
11.243748 10.320617 0.185610 11697996
9.328241 9.006538 2.721912 11697996
8.951634 9.308148 1.307643 11697996
9.030210 9.783923 1.632613 11697996
8.916894 9.688648 2.166471 11697996
11.070480 11.068773 3.601169 11697996
10.386103 9.879833 2.986581 11697996
8.760599 9.728278 3.479842 11697996
10.278924 9.655457 0.339679 11697996
10.433725 10.569357 1.877711 11697996
10.733462 9.635079 0.078416 11697996
11.189074 8.941145 3.967050 11697996
