# .PCD v0.7 - Point Cloud Data file format
VERSION 0.7
FIELDS x y z rgb
SIZE 4 4 4 4
TYPE F F F U
COUNT 1 1 1 1
WIDTH 1291
HEIGHT 1
VIEWPOINT 0 0 0 1 0 0 0
POINTS 1291
DATA ascii
9.484559 10.957506 0.697528 11697996
9.235898 9.441483 1.416345 11697996
8.786035 10.404405 2.146029 11697996
9.530281 11.047372 3.419110 11697996
9.216083 9.641807 2.715949 11697996
10.728260 9.781449 1.803906 11697996
9.565018 10.787269 1.170740 11697996
11.178440 9.035151 1.305147 11697996
10.669740 9.256099 1.440280 11697996
9.793715 10.908710 2.139150 11697996
10.911213 8.824089 1.134325 11697996
10.194550 11.214173 2.078574 11697996
10.837790 9.996627 2.930528 11697996
10.251990 10.633282 3.557345 11697996
10.039203 10.432072 2.803767 11697996
8.826442 8.987165 3.184711 11697996
11.006208 10.570949 1.149665 11697996
9.645686 10.286787 3.916015 11697996
10.114789 9.656969 0.942877 11697996
10.224447 10.066957 2.902423 11697996
8.795252 10.158067 2.965055 11697996
10.835845 9.316463 1.640350 11697996
10.410864 9.609107 1.114659 11697996
9.097480 8.908212 2.744028 11697996
9.341599 8.955557 2.749494 11697996
10.092139 8.822979 1.277559 11697996
10.802444 9.339152 -0.025178 11697996
10.100588 10.558814 3.319066 11697996
10.760433 10.038711 3.307063 11697996
9.858973 10.445389 2.018591 11697996
9.218115 9.245403 2.142953 11697996
8.957530 10.877431 3.885979 11697996
10.638489 9.580235 1.262270 11697996
9.235271 10.238062 1.241983 11697996
10.078055 10.804729 1.999182 11697996
11.075100 11.081346 1.218345 11697996
9.141673 10.378108 2.451845 11697996
9.589475 9.050517 1.755581 11697996
10.906643 9.574205 0.550019 11697996
9.588784 8.922086 2.827177 11697996
10.431705 11.215055 0.631099 11697996
11.101831 10.042042 1.932090 11697996
11.199770 9.764474 2.413955 11697996
10.569032 8.792225 1.219921 11697996
10.448185 11.007220 1.758719 11697996
11.202182 9.310704 0.389895 11697996
10.615603 10.639163 1.905798 11697996
9.734683 9.639909 1.423000 11697996
10.632493 9.775695 0.499883 11697996
10.737495 9.712295 0.216831 11697996
9.562771 11.211772 2.475196 11697996
9.551100 11.055941 2.368403 11697996
9.317486 8.760877 3.149244 11697996
10.878931 9.803399 1.093003 11697996
9.866273 10.625259 1.593908 11697996
9.939424 9.207481 3.327214 11697996
10.449347 10.964440 0.846157 11697996
8.792933 11.094015 0.084319 11697996
10.615364 8.920391 1.504588 11697996
10.584923 8.966134 2.427785 11697996
9.773161 9.323898 3.633289 11697996
11.098271 10.198895 2.027678 11697996
11.035000 11.073253 -0.002762 11697996
11.099912 9.081855 2.023264 11697996
10.235530 9.769430 2.063362 11697996
9.993913 9.273640 0.210605 11697996
8.888871 9.167651 2.100536 11697996
9.669542 9.671792 0.172212 11697996
8.777706 9.511567 1.899904 11697996
10.505392 8.804955 1.739238 11697996
9.130188 9.603662 0.291769 11697996
11.037877 8.789760 3.776289 11697996
10.546166 8.994487 1.851320 11697996
10.165315 9.194575 2.574416 11697996
9.252635 8.950789 0.198164 11697996
9.843233 10.697330 2.468915 11697996
9.243845 10.569588 3.015859 11697996
9.902165 10.419842 1.843128 11697996
9.070819 9.697219 1.732511 11697996
9.701710 10.384207 0.392359 11697996
10.023993 10.878562 2.393564 11697996
10.729069 9.931179 2.171122 11697996
9.730907 10.390160 3.663330 11697996
9.567554 10.290330 3.971541 11697996
8.842008 10.677042 1.035793 11697996
10.068193 10.843330 1.501105 11697996
8.771402 9.686458 0.356947 11697996
8.937568 9.895436 1.376905 11697996
10.436317 8.954906 2.581346 11697996
10.632778 10.837106 0.067770 11697996
11.190144 10.213151 1.790198 11697996
10.729692 10.136241 0.570308 11697996
11.195381 8.747293 2.306725 11697996
10.976660 9.325733 0.422290 11697996
8.996087 10.432995 1.638631 11697996
10.558441 10.668831 0.986533 11697996
10.730411 9.999116 2.772397 11697996
10.714426 10.123412 1.665087 11697996
10.219600 10.692774 3.549395 11697996
10.240948 11.078557 3.133299 11697996
9.232856 10.743268 1.149793 11697996
11.184674 9.529148 0.033597 11697996
10.394641 8.804837 0.686242 11697996
9.890432 10.105835 3.813791 11697996
9.785320 9.994552 3.298883 11697996
10.848982 11.139043 1.420967 11697996
10.109921 8.879766 0.090834 11697996
10.140029 10.602342 1.217302 11697996
10.583091 9.313222 2.027288 11697996
10.884051 9.837581 1.298116 11697996
8.754343 10.594582 1.193652 11697996
10.679601 9.687515 1.799071 11697996
10.881718 9.665693 3.634238 11697996
9.718512 9.139198 3.455682 11697996
9.726203 8.876221 3.213267 11697996
11.231006 9.053451 3.903503 11697996
9.260992 9.174673 2.737262 11697996
10.346913 10.652109 1.010722 11697996
10.274544 10.125860 0.924279 11697996
11.123787 11.159609 3.612738 11697996
9.475823 11.019027 3.384117 11697996
10.498289 9.520251 2.840998 11697996
11.101001 9.688515 0.670448 11697996
9.995430 9.145780 2.457494 11697996
10.811707 9.846197 0.150074 11697996
10.420415 11.099262 0.693932 11697996
9.251456 9.401615 2.037842 11697996
10.725632 11.058617 0.780010 11697996
9.746351 8.918264 1.959423 11697996
11.113079 9.085412 2.916916 11697996
10.985622 9.836082 0.437243 11697996
10.677566 11.235326 2.731140 11697996
9.257115 10.948462 0.324463 11697996
9.016730 9.492094 0.729922 11697996
10.242147 9.452626 1.664514 11697996
9.913077 8.989088 0.026921 11697996
9.742805 9.031237 0.700553 11697996
10.766151 8.974937 0.555166 11697996
9.800950 11.060225 0.926341 11697996
11.140416 10.935745 1.829444 11697996
10.038048 8.777468 3.404567 11697996
8.904428 10.681068 2.159417 11697996
10.123626 8.904110 1.534652 11697996
10.567851 10.211876 2.220287 11697996
10.586016 10.159157 2.143887 11697996
10.968766 9.582376 3.883952 11697996
10.579219 10.762563 3.887079 11697996
9.018231 9.583210 2.306631 11697996
9.879368 10.224538 2.225268 11697996
9.924139 10.833682 2.862065 11697996
10.286696 9.269348 0.030371 11697996
9.789417 8.773315 3.447047 11697996
9.895627 8.798989 1.805550 11697996
10.593583 9.428372 0.934950 11697996
10.386777 10.223703 1.388328 11697996
9.874887 10.633859 0.906068 11697996
10.800473 8.868746 2.540523 11697996
10.857026 11.256343 3.679106 11697996
11.018269 10.737836 1.316944 11697996
10.572637 11.048632 3.533188 11697996
11.172386 10.853553 3.820462 11697996
10.906135 10.164628 2.236515 11697996
9.810046 10.568525 0.110042 11697996
10.670882 9.659494 3.084939 11697996
9.129490 10.202470 3.401446 11697996
11.156574 10.465966 3.722716 11697996
10.074151 10.846261 0.143960 11697996
9.450965 9.463759 0.191224 11697996
10.435383 10.225700 0.744339 11697996
10.242269 10.665354 0.005439 11697996
8.984571 11.082751 1.834767 11697996
9.347807 9.638523 0.147395 11697996
9.436184 8.819289 3.879651 11697996
10.349695 10.225419 3.762145 11697996
9.607080 10.994920 3.359124 11697996
11.160892 9.808583 0.811596 11697996
9.529563 9.737360 0.809643 11697996
10.595321 10.537770 2.048990 11697996
10.184580 8.810386 2.197520 11697996
10.034440 10.673812 1.620319 11697996
10.327353 9.829464 0.683617 11697996
9.805699 11.214278 0.431664 11697996
10.758622 9.759301 1.112298 11697996
10.477976 9.682886 3.552092 11697996
9.817988 10.544957 2.312132 11697996
11.236417 9.872353 0.339580 11697996
9.759410 9.272516 1.384711 11697996
9.014120 10.382111 3.630091 11697996
9.928039 9.074780 2.194602 11697996
11.216415 9.563679 1.012887 11697996
9.029047 9.916431 1.560347 11697996
11.201663 10.027174 0.274071 11697996
9.236355 11.124257 2.535059 11697996
10.798264 9.668776 1.843279 11697996
10.533447 10.555797 0.256293 11697996
10.726374 10.690557 2.392432 11697996
10.503826 10.078119 1.823766 11697996
11.173818 9.040009 0.985496 11697996
9.611451 11.110937 0.163725 11697996
9.557838 10.092122 3.730020 11697996
10.131898 9.712763 2.402409 11697996
9.414554 10.827649 2.746380 11697996
11.031080 10.505660 1.316677 11697996
9.062160 9.041506 0.971885 11697996
8.992765 10.349290 2.579182 11697996
10.774071 9.282704 0.033843 11697996
10.223053 10.612605 2.690204 11697996
9.628073 8.790627 3.536511 11697996
10.654906 10.471227 0.604927 11697996
10.712437 8.906835 2.172881 11697996
9.763414 10.078305 1.069497 11697996
10.114359 9.185303 2.344206 11697996
9.522261 9.685455 1.428242 11697996
9.004217 9.269248 0.229961 11697996
10.295257 9.867213 2.265259 11697996
10.807515 10.540748 3.737397 11697996
9.543704 9.226602 0.116207 11697996
9.580909 10.234468 0.514593 11697996
10.484904 9.246653 1.133346 11697996
9.435250 9.282204 2.747141 11697996
10.062844 9.157539 3.877596 11697996
11.140140 9.991933 2.728786 11697996
10.871289 9.592117 1.434409 11697996
10.125950 10.687266 3.806313 11697996
10.285796 10.772273 1.997557 11697996
10.979079 10.487477 1.421783 11697996
11.167800 10.822733 0.661310 11697996
9.750738 10.519870 1.078462 11697996
8.960257 9.849913 3.429670 11697996
11.067972 9.490786 3.182764 11697996
9.484404 10.708495 2.731350 11697996
10.190802 9.628875 1.982831 11697996
10.438666 9.140580 2.842649 11697996
11.225020 8.777360 3.291985 11697996
11.224175 9.966271 1.435300 11697996
10.397520 10.987739 0.404734 11697996
9.669221 11.137154 3.056297 11697996
9.633030 10.605726 1.501296 11697996
10.731542 9.467790 2.479265 11697996
10.204677 10.493956 3.926826 11697996
10.144591 10.853145 3.567351 11697996
9.187626 10.214979 2.120934 11697996
11.151330 10.997313 0.445391 11697996
10.314813 9.391300 3.713985 11697996
11.218335 9.658730 1.496655 11697996
10.348593 11.240216 3.792748 11697996
9.979700 9.597532 3.581329 11697996
11.121491 9.871230 0.697491 11697996
9.373051 9.091148 1.075460 11697996
10.194132 10.751869 0.400712 11697996
11.232244 10.298355 0.748562 11697996
9.719854 9.515095 1.473418 11697996
10.663135 9.067633 0.801533 11697996
9.329844 9.886532 3.632658 11697996
11.056744 9.622591 0.734068 11697996
9.521496 8.799429 3.788287 11697996
10.511220 9.214528 0.822438 11697996
9.031839 9.934779 3.942272 11697996
8.803490 11.159951 3.357643 11697996
8.816545 11.043092 0.992963 11697996
9.811234 10.029258 3.277259 11697996
9.855672 9.795387 1.723848 11697996
11.130094 10.752645 2.542969 11697996
9.128738 9.804255 2.278318 11697996
10.559964 9.309834 0.137935 11697996
10.935462 9.444889 0.013924 11697996
9.322659 9.387878 2.547904 11697996
11.171090 10.387630 1.022962 11697996
10.864037 10.178775 3.641116 11697996
10.468911 10.218121 3.493466 11697996
10.977712 9.495299 3.226505 11697996
9.942263 9.474065 3.851749 11697996
10.333260 10.618134 1.377623 11697996
8.997548 9.163184 2.714967 11697996
10.695868 9.379820 3.021827 11697996
10.895205 9.918600 1.410412 11697996
10.441379 8.814150 1.149925 11697996
10.710090 10.052603 1.335786 11697996
9.764977 9.802881 2.770977 11697996
11.082218 9.174218 0.681603 11697996
10.968269 11.248911 0.859774 11697996
9.182406 8.777228 1.656815 11697996
9.471951 11.143339 2.114885 11697996
10.759876 9.467331 1.090174 11697996
9.034774 9.323275 2.123251 11697996
10.393153 9.042421 1.309271 11697996
9.587249 9.614350 0.092919 11697996
10.359899 10.078671 1.598249 11697996
10.499909 9.516969 2.825440 11697996
11.087070 10.899591 1.721691 11697996
10.766143 11.091812 3.546879 11697996
9.437901 9.046865 0.048775 11697996
9.604377 9.000501 2.097252 11697996
10.042268 9.800411 3.285333 11697996
9.329204 10.308978 1.504417 11697996
8.907262 11.206171 2.827891 11697996
9.673472 9.376427 1.641166 11697996
9.282269 9.567065 3.899541 11697996
9.655376 8.877651 3.216176 11697996
10.308485 10.848149 2.022614 11697996
9.819939 9.380723 0.838833 11697996
9.372327 11.141515 1.986719 11697996
10.926530 9.251378 3.353013 11697996
9.579793 9.703279 3.035296 11697996
9.329791 9.825097 1.926211 11697996
8.993657 9.377964 1.664277 11697996
8.895588 10.351980 3.510537 11697996
9.019106 9.347649 2.436430 11697996
9.333065 9.908742 3.715685 11697996
10.484674 10.896647 3.702607 11697996
10.067693 10.339247 2.943722 11697996
10.071411 10.710472 0.054344 11697996
10.567497 9.210793 2.096649 11697996
8.777821 11.197746 0.436644 11697996
9.716011 10.793530 0.033597 11697996
10.936330 9.050358 0.957249 11697996
9.317865 8.956485 1.214730 11697996
10.926113 9.090896 3.775304 11697996
10.895816 10.863428 1.225713 11697996
9.887654 9.103888 3.961345 11697996
8.780780 9.320583 3.097533 11697996
10.405129 9.282810 0.765891 11697996
10.270991 9.327230 1.182582 11697996
10.935680 9.146402 0.395723 11697996
9.084006 9.984588 1.551500 11697996
9.843151 11.156135 2.222600 11697996
10.442560 10.901317 2.293958 11697996
9.537014 10.619776 1.258493 11697996
10.230837 9.776307 3.930102 11697996
9.464631 10.186074 1.397639 11697996
9.883085 10.702019 0.399064 11697996
10.109191 9.288692 3.646876 11697996
11.076365 9.969262 1.053715 11697996
10.692745 10.119688 2.409348 11697996
9.483697 10.006746 1.720162 11697996
11.053030 9.816993 2.178885 11697996
11.242307 11.110334 1.067487 11697996
11.112721 11.112510 3.697470 11697996
11.129059 10.887727 3.084503 11697996
9.348832 9.669574 2.974884 11697996
8.863396 10.284449 2.710235 11697996
10.575176 8.960016 1.547700 11697996
11.116667 11.115501 2.253473 11697996
8.803861 10.792072 1.962690 11697996
10.439127 9.451798 1.463214 11697996
9.798797 10.206284 0.128468 11697996
8.880909 10.745379 3.824181 11697996
10.491623 9.120543 3.248918 11697996
10.967344 10.193291 3.550983 11697996
11.243030 8.875010 1.503134 11697996
10.948298 11.083522 0.768231 11697996
10.940495 9.693283 3.098218 11697996
10.554152 10.399954 3.611938 11697996
10.794661 10.267954 3.874692 11697996
9.524183 9.668906 0.639541 11697996
10.149070 10.554989 2.059384 11697996
9.991002 9.261949 0.609052 11697996
9.835353 8.933890 1.370178 11697996
8.756419 10.326113 1.053101 11697996
9.211407 11.070768 2.114553 11697996
10.442132 9.902040 1.987976 11697996
9.708377 9.808187 0.710207 11697996
9.456652 9.880082 2.395192 11697996
10.646949 9.485539 0.340251 11697996
10.566212 9.363145 1.874219 11697996
10.344736 11.135635 2.715411 11697996
10.399196 10.973723 2.427185 11697996
9.998529 10.265561 2.989925 11697996
9.649536 9.930203 1.242883 11697996
9.507760 10.666965 1.504564 11697996
9.052333 9.865843 2.711754 11697996
10.172250 9.527390 0.865773 11697996
10.835755 10.652983 2.000092 11697996
11.123190 10.615242 1.205770 11697996
10.187863 10.615952 3.693585 11697996
9.504403 9.424300 3.648664 11697996
10.457415 8.821480 2.605689 11697996
9.061769 10.189127 3.903170 11697996
10.908588 10.105489 3.887378 11697996
10.426325 10.813131 0.082782 11697996
11.025877 9.399999 3.862760 11697996
10.432573 10.264156 0.843205 11697996
11.197490 10.568095 3.730418 11697996
10.652761 9.433111 3.002884 11697996
10.746704 8.902971 3.471021 11697996
10.994161 9.789000 1.030776 11697996
9.331751 10.809050 0.566889 11697996
9.845105 9.952905 3.152454 11697996
8.972851 8.820124 3.653032 11697996
11.213987 10.309611 2.808777 11697996
9.681320 11.000727 2.409209 11697996
10.487351 9.804399 2.679020 11697996
10.239552 10.741548 2.968473 11697996
8.858037 8.877289 2.768181 11697996
10.651789 11.054587 1.935812 11697996
8.783564 9.035203 2.714088 11697996
9.287450 10.481888 2.136015 11697996
9.449660 9.024652 0.738285 11697996
9.195564 9.242477 2.206130 11697996
10.787801 9.232520 3.700662 11697996
11.191713 9.597891 0.280133 11697996
9.899974 10.387832 3.547071 11697996
9.311225 10.400455 2.221108 11697996
9.603076 9.079604 2.253377 11697996
10.626257 10.666458 0.021066 11697996
11.085068 11.159535 2.814100 11697996
10.681005 11.211977 0.067192 11697996
10.828534 10.003884 3.976254 11697996
10.182446 10.754163 3.819446 11697996
9.961044 8.794165 1.280683 11697996
10.908984 8.980623 3.182757 11697996
8.815574 9.456539 1.465547 11697996
9.951659 8.974751 1.293758 11697996
9.086993 10.309508 0.453489 11697996
10.777190 9.148823 3.331557 11697996
10.150077 9.584180 2.078280 11697996
9.682673 10.055387 3.995249 11697996
11.200551 11.213667 3.954680 11697996
9.809184 9.226436 3.489099 11697996
11.115325 9.773683 1.389050 11697996
9.087349 9.880377 2.926674 11697996
8.788668 10.463472 3.210715 11697996
10.390882 9.252796 3.422663 11697996
10.706970 9.568405 1.741516 11697996
10.428994 8.792504 1.749123 11697996
10.686599 9.872776 2.293977 11697996
8.812026 9.325419 2.988406 11697996
9.824871 10.863594 3.098097 11697996
9.536861 9.631000 3.544611 11697996
9.944078 9.774449 1.459196 11697996
8.866782 11.114079 3.039291 11697996
9.034635 10.310969 1.967863 11697996
8.747592 10.709669 0.102939 11697996
9.825979 9.319745 2.526643 11697996
11.171643 9.352982 1.286363 11697996
9.237872 9.856713 2.005885 11697996
8.955461 11.015965 0.570140 11697996
10.069613 10.012531 2.228163 11697996
9.842669 10.298477 3.041926 11697996
11.032999 10.599630 3.603720 11697996
8.813457 9.071958 2.019570 11697996
9.823751 8.903987 0.524675 11697996
10.383939 8.959017 3.352744 11697996
9.877827 10.232100 1.545274 11697996
10.258504 8.895977 1.431445 11697996
11.038431 9.256610 1.365387 11697996
10.206200 10.213435 3.176347 11697996
9.933034 9.189246 2.507452 11697996
10.476274 10.357990 1.333687 11697996
11.029885 10.923530 1.387042 11697996
8.980131 10.410045 0.669587 11697996
9.154845 10.236636 1.653244 11697996
9.010375 9.292453 0.104293 11697996
10.833634 9.133160 1.123848 11697996
10.401512 10.172136 2.228051 11697996
9.430943 10.810786 1.035427 11697996
8.934846 10.638606 1.412786 11697996
10.982895 10.730224 0.384481 11697996
10.005479 10.170086 2.599984 11697996
9.320160 10.682952 2.832257 11697996
10.860316 8.976169 3.819324 11697996
10.915325 10.055233 2.553330 11697996
9.767894 9.923274 3.926267 11697996
11.176958 11.030818 2.171370 11697996
10.481232 10.332535 1.359681 11697996
10.539406 9.278851 1.130889 11697996
10.771135 9.167084 2.797150 11697996
8.868232 10.786141 0.585043 11697996
10.378644 8.921140 2.990184 11697996
9.566309 9.896276 1.399773 11697996
9.326792 9.558697 0.412015 11697996
10.832361 10.477958 3.636045 11697996
10.614322 9.824706 3.903418 11697996
8.797092 10.892715 2.171279 11697996
9.653586 9.808199 3.022473 11697996
9.045651 8.792180 2.566359 11697996
11.047847 9.658096 1.584150 11697996
10.712605 10.869146 0.144695 11697996
9.401426 11.094500 2.713678 11697996
10.329691 10.138083 2.537180 11697996
9.582977 9.556338 2.053027 11697996
8.886339 10.009867 1.957796 11697996
9.098492 10.732659 0.879870 11697996
8.794535 10.804870 1.720345 11697996
9.759285 9.975258 2.083483 11697996
10.292368 8.956905 1.724694 11697996
9.515731 9.869625 0.551621 11697996
9.308177 9.672395 0.712586 11697996
8.800148 10.266428 3.141213 11697996
10.451427 10.279113 3.666106 11697996
10.776649 10.765060 0.042631 11697996
10.269671 10.141032 0.515152 11697996
11.034852 9.858252 1.899485 11697996
9.801003 9.274343 2.210548 11697996
10.069702 9.029535 0.076423 11697996
9.705541 10.072197 0.962795 11697996
10.575376 10.070526 1.594795 11697996
9.265273 11.089871 2.397404 11697996
9.690571 10.086311 0.780506 11697996
9.912566 10.887639 0.173032 11697996
10.409496 10.526090 2.084620 11697996
9.137147 9.995975 0.460714 11697996
8.861945 11.015729 0.862490 11697996
11.091872 9.323928 0.786320 11697996
10.160578 9.244356 2.607254 11697996
10.983785 10.837188 0.503554 11697996
10.446836 11.020762 2.145427 11697996
9.012524 10.281319 3.561877 11697996
9.449528 9.627761 0.168990 11697996
11.076677 9.004520 2.995347 11697996
11.087634 8.968316 3.892314 11697996
8.875834 10.545816 0.426106 11697996
8.877314 9.463852 0.749982 11697996
10.298223 11.154180 3.021117 11697996
8.788801 10.207366 0.847700 11697996
8.772459 8.813375 3.796483 11697996
11.230037 10.537014 2.113407 11697996
10.404064 9.027555 3.183328 11697996
9.364961 9.188044 0.522426 11697996
10.954056 9.713431 3.383769 11697996
10.637161 10.431022 0.432317 11697996
9.788477 8.967561 3.724484 11697996
9.309191 9.447483 2.393778 11697996
9.080492 9.269285 3.895432 11697996
9.785616 9.761983 2.025299 11697996
10.469186 10.543959 0.019245 11697996
9.563318 10.870980 1.256914 11697996
10.346737 10.412427 2.628156 11697996
11.007895 10.979775 0.611533 11697996
9.263785 9.473742 1.065387 11697996
9.580730 9.300371 2.842756 11697996
9.663593 10.367887 1.383067 11697996
10.073474 10.905039 3.146456 11697996
11.194105 9.783202 0.028251 11697996
9.458640 9.525486 0.970813 11697996
8.944152 10.699510 1.245901 11697996
9.125898 9.108392 3.670355 11697996
10.871834 9.835328 2.436411 11697996
11.192039 8.925345 3.988493 11697996
9.962272 10.815978 1.846423 11697996
8.918809 9.037598 1.017892 11697996
9.694691 10.185316 1.047709 11697996
10.310153 9.565755 1.566263 11697996
10.815394 10.381232 1.346578 11697996
10.262772 9.372174 3.952657 11697996
10.098253 9.559235 3.286660 11697996
9.007195 10.401782 0.911613 11697996
9.874297 9.213002 3.763890 11697996
11.110018 8.957253 2.116344 11697996
10.806500 10.818627 0.399835 11697996
9.177103 10.304183 0.870420 11697996
9.359518 11.119073 3.181396 11697996
9.787458 9.000587 0.114306 11697996
10.014279 9.630150 0.428618 11697996
8.816334 10.051274 2.501992 11697996
9.953047 11.105328 0.901628 11697996
10.463144 9.975051 0.056600 11697996
10.318181 9.614572 2.991528 11697996
10.039402 9.242227 3.333431 11697996
10.321559 9.819727 3.826338 11697996
9.324795 11.111670 1.567452 11697996
9.087740 10.520478 1.397460 11697996
8.880094 9.939525 2.228863 11697996
9.826511 10.235844 2.379159 11697996
10.863655 10.550339 1.364102 11697996
10.937189 9.930287 3.699630 11697996
10.288829 10.065469 2.663216 11697996
8.884691 9.624556 1.998915 11697996
10.932463 10.798677 1.429604 11697996
10.850010 8.856708 3.010826 11697996
9.067365 10.277761 3.210888 11697996
10.796732 8.952964 1.596640 11697996
9.235485 10.924870 0.454887 11697996
10.785637 9.909953 0.050895 11697996
10.729783 10.337380 3.554692 11697996
10.887163 10.948512 2.321670 11697996
10.037591 9.535414 3.352454 11697996
10.967268 10.256204 0.270330 11697996
8.907464 9.286675 2.645029 11697996
9.427362 8.839618 3.005507 11697996
9.391281 10.129801 1.950482 11697996
10.743529 10.797134 3.224066 11697996
8.965264 8.904181 0.499931 11697996
10.842141 10.635427 3.115573 11697996
9.939367 10.059835 3.281765 11697996
11.189771 10.642856 2.876351 11697996
11.075019 10.042390 1.962188 11697996
9.193086 9.988966 2.790365 11697996
10.603361 10.779836 3.200396 11697996
9.342826 10.773861 1.789558 11697996
11.172959 9.464909 3.522806 11697996
10.962787 9.588619 1.007780 11697996
8.896429 11.027268 0.423694 11697996
8.823573 10.907984 0.127101 11697996
10.218477 10.018126 1.340709 11697996
10.609121 10.295446 1.488315 11697996
8.943602 9.957902 3.798535 11697996
10.457134 10.602412 1.828180 11697996
9.613804 11.147024 2.683105 11697996
10.875829 9.690992 3.134852 11697996
8.861509 10.913515 3.937098 11697996
10.877562 10.432356 1.852161 11697996
10.748121 9.661053 1.106250 11697996
9.782720 9.392748 0.378023 11697996
10.075818 10.050915 2.724349 11697996
9.750210 11.169024 0.742001 11697996
8.984683 10.021284 3.951733 11697996
10.485356 9.814569 3.137948 11697996
9.372992 9.787737 0.697111 11697996
8.939178 11.155824 3.064146 11697996
9.244672 9.059524 3.732857 11697996
11.128258 9.032907 2.142107 11697996
11.228401 10.797082 0.930328 11697996
10.880531 10.612356 3.713324 11697996
9.108787 9.635662 3.959024 11697996
10.752836 10.610201 2.190989 11697996
10.656114 10.558603 0.432632 11697996
9.229516 9.022772 1.646269 11697996
9.322064 9.933754 3.791661 11697996
8.845037 9.628026 1.820288 11697996
10.655799 8.948236 1.591091 11697996
10.663297 10.503533 2.335787 11697996
10.644763 9.816808 1.858319 11697996
10.877486 10.094790 4.004419 11697996
9.013278 9.449624 2.758663 11697996
10.437675 9.706004 3.171690 11697996
10.765767 8.998735 2.174495 11697996
9.085430 10.764878 0.125548 11697996
9.260848 11.074142 3.217027 11697996
9.883007 10.932188 0.818447 11697996
10.885508 10.766365 0.851151 11697996
9.199759 9.475585 1.059224 11697996
10.428482 9.679182 3.619217 11697996
10.883233 11.239200 0.728495 11697996
9.224417 11.163481 2.161192 11697996
9.606322 10.676500 1.816651 11697996
10.069850 9.900382 3.916291 11697996
9.376104 10.965752 2.699412 11697996
10.848068 10.478611 3.161949 11697996
10.787404 10.921803 3.089213 11697996
9.710546 10.532921 1.319115 11697996
10.841369 9.302279 1.141026 11697996
9.978312 9.340862 0.546293 11697996
9.023298 9.563106 1.086219 11697996
9.158716 9.200115 0.217342 11697996
9.278284 10.320540 3.849780 11697996
9.697480 8.917847 0.427107 11697996
9.212368 8.758839 2.307078 11697996
10.894794 9.171836 2.962267 11697996
8.874115 9.658610 3.867659 11697996
9.604488 10.134208 3.675013 11697996
11.070108 9.216923 0.914520 11697996
10.723104 9.459633 1.248194 11697996
9.836747 9.614697 1.567207 11697996
8.749298 11.144756 2.169379 11697996
11.153745 10.256201 2.345128 11697996
11.185171 9.599771 1.170203 11697996
11.194134 9.795596 0.683500 11697996
9.145733 9.745133 2.485846 11697996
9.109174 10.315047 3.243287 11697996
9.525822 9.414509 2.826735 11697996
8.839344 9.531607 3.726729 11697996
10.206979 10.845878 2.579867 11697996
10.591386 10.305342 3.821080 11697996
10.007001 10.101534 3.912205 11697996
8.819253 8.907023 1.693989 11697996
10.234085 8.971276 0.236059 11697996
9.119225 10.978384 0.769845 11697996
8.806168 8.894503 3.086323 11697996
9.927838 8.939893 3.161925 11697996
11.165810 10.948954 2.210842 11697996
9.265715 8.778011 0.912981 11697996
8.952727 9.109727 1.599667 11697996
9.310793 10.233076 1.394188 11697996
10.513450 8.774475 3.289459 11697996
10.767702 9.825673 3.735215 11697996
9.591805 9.716340 0.386909 11697996
9.380096 8.783727 3.297462 11697996
10.671633 9.566636 2.384054 11697996
10.154716 9.501774 3.998295 11697996
9.583385 9.817133 1.664370 11697996
9.793855 10.158463 3.030244 11697996
10.013005 9.403408 1.845794 11697996
10.723793 10.925504 1.435293 11697996
9.947781 8.841130 1.505871 11697996
9.193897 10.431214 1.932382 11697996
9.133843 11.052768 2.048627 11697996
9.989852 9.807218 3.640108 11697996
11.027292 10.110442 0.145176 11697996
9.325149 10.990154 1.382764 11697996
9.870699 10.190279 3.379807 11697996
11.250668 10.659460 0.235105 11697996
10.033247 9.597233 1.307233 11697996
10.895957 9.391487 2.382513 11697996
10.559241 8.773886 1.644303 11697996
8.892474 10.797521 2.366947 11697996
9.054375 9.444875 1.810699 11697996
9.198665 8.849007 3.754140 11697996
9.785499 9.077585 1.104645 11697996
9.601703 8.821018 3.050617 11697996
10.579530 8.787173 2.811330 11697996
11.174853 9.419792 0.298644 11697996
11.252061 9.907248 2.903861 11697996
10.174354 11.201530 0.655808 11697996
10.004394 10.788367 2.017168 11697996
9.785886 10.508604 1.097881 11697996
10.722935 9.841217 2.501126 11697996
10.755747 8.872667 1.767450 11697996
10.662189 9.159945 0.588341 11697996
10.391329 10.730937 0.664019 11697996
8.767284 9.230149 3.449125 11697996
9.922968 10.378172 1.001354 11697996
10.042104 10.804080 1.656707 11697996
8.860849 10.258624 3.871420 11697996
9.435036 10.039030 1.602006 11697996
10.829049 9.818249 1.642458 11697996
8.829776 8.912169 1.057616 11697996
9.409552 11.115680 1.659586 11697996
10.901151 9.482149 1.654162 11697996
8.835123 11.209047 2.950591 11697996
8.900677 10.082137 0.914707 11697996
10.629921 10.737145 0.854986 11697996
9.074598 8.803576 2.636585 11697996
10.055393 9.524851 2.589779 11697996
8.835650 10.105430 3.357538 11697996
10.573281 9.484653 2.521717 11697996
8.882523 9.814627 0.513973 11697996
9.583096 10.163124 3.964228 11697996
8.832020 9.899261 1.327662 11697996
9.225972 10.326907 3.134964 11697996
11.217210 11.054892 0.859354 11697996
9.775775 9.910764 0.325874 11697996
9.647042 9.914651 0.228443 11697996
11.027803 9.916998 1.362777 11697996
9.263465 11.184780 0.643739 11697996
11.085486 11.105929 2.970602 11697996
11.079453 10.666738 1.313024 11697996
10.471412 10.517714 0.250327 11697996
10.014481 11.173857 1.502763 11697996
10.499587 10.220815 3.816240 11697996
9.359033 10.544436 0.568936 11697996
10.606824 9.401723 3.086139 11697996
10.247583 10.717333 0.775613 11697996
8.817080 10.038974 1.663047 11697996
11.150326 9.721986 1.521636 11697996
8.939849 9.290928 3.426553 11697996
10.313938 8.845668 3.583574 11697996
10.474543 8.804807 3.942915 11697996
9.286725 9.109666 2.119601 11697996
10.451324 10.829706 0.593896 11697996
10.685661 9.734393 0.446445 11697996
10.656081 9.865856 1.925510 11697996
9.427287 9.784181 3.632854 11697996
8.935509 9.137245 2.849894 11697996
10.318007 9.200392 2.845514 11697996
10.050293 11.042612 3.064064 11697996
10.362907 10.595695 3.478837 11697996
10.099666 10.099906 0.868123 11697996
9.937077 9.567467 0.411363 11697996
9.500566 11.001278 1.427912 11697996
10.142854 8.893692 1.161890 11697996
10.079032 11.188332 2.630173 11697996
10.094702 9.368319 2.250186 11697996
9.014752 8.852310 0.258801 11697996
9.268953 9.248566 2.060094 11697996
9.303375 10.879720 0.826647 11697996
11.184210 9.663982 1.962699 11697996
10.526504 11.249412 2.004449 11697996
9.195687 11.038968 0.574460 11697996
8.769304 11.223856 0.074064 11697996
9.427649 10.096141 0.729224 11697996
10.612782 10.521132 2.613884 11697996
10.747496 10.332901 1.049456 11697996
9.582885 10.989579 1.503241 11697996
9.034462 9.016753 1.564408 11697996
9.730566 10.966636 1.282403 11697996
9.769135 9.055916 0.617784 11697996
9.218549 8.971754 2.031092 11697996
10.960552 10.391638 0.056583 11697996
10.608269 9.246612 1.788321 11697996
10.031137 9.932532 1.135983 11697996
10.326153 10.477855 3.141786 11697996
9.932255 10.961713 0.330761 11697996
9.110247 10.535866 3.434994 11697996
9.643836 11.184258 3.397547 11697996
8.995010 10.551539 0.473394 11697996
10.143693 8.885633 3.243255 11697996
10.779418 10.308179 0.770399 11697996
10.081078 8.870670 2.479320 11697996
11.273286 9.080484 0.462485 11697996
9.505651 9.193049 0.620927 11697996
11.223984 8.999864 3.299990 11697996
9.177203 9.753304 0.759190 11697996
9.322859 9.240902 3.988109 11697996
10.459198 9.225111 2.554467 11697996
9.816871 9.388448 1.035211 11697996
10.065873 11.193415 2.950001 11697996
11.107796 10.374927 0.311702 11697996
10.806705 9.250997 1.033008 11697996
10.596992 10.683010 3.137260 11697996
10.574946 10.928442 1.446068 11697996
9.953840 9.061830 0.823151 11697996
10.700338 9.792758 0.202983 11697996
9.031894 9.951104 0.463716 11697996
10.818603 9.605817 1.391536 11697996
10.624979 11.242506 3.955249 11697996
10.646535 9.609078 3.750697 11697996
11.168489 9.912760 2.954678 11697996
11.090941 9.966320 3.102518 11697996
8.846552 10.901126 2.775113 11697996
11.090668 9.822904 2.764733 11697996
9.269946 9.773417 3.445909 11697996
9.328602 8.979943 3.434743 11697996
9.882239 10.699770 2.523761 11697996
10.911456 9.194405 0.188212 11697996
10.730597 10.529355 1.268178 11697996
9.929534 10.686305 2.310797 11697996
9.115549 10.431920 1.770241 11697996
10.205338 9.310972 2.214079 11697996
11.070803 10.169985 0.200847 11697996
10.069231 11.172659 2.971913 11697996
10.622190 11.012803 3.818069 11697996
9.753272 8.821493 1.526678 11697996
9.567535 9.445416 1.387215 11697996
10.669040 10.737342 1.650331 11697996
9.606208 10.431936 2.726079 11697996
10.235826 11.266190 0.272613 11697996
9.587413 8.862250 3.283935 11697996
9.531578 10.316817 3.155920 11697996
10.336575 9.119196 3.319709 11697996
9.387064 10.341792 2.966701 11697996
9.628530 10.652920 1.721212 11697996
9.060722 10.801162 2.127776 11697996
10.801171 10.516268 0.927189 11697996
10.824864 10.960336 3.699131 11697996
10.708653 10.953464 1.698187 11697996
11.232924 9.289666 3.257378 11697996
9.882052 11.225451 1.760020 11697996
8.869514 8.778914 2.481919 11697996
9.178159 10.081840 3.128056 11697996
10.566357 10.071855 0.191074 11697996
8.850389 10.198588 3.422651 11697996
10.279971 9.533905 0.827420 11697996
10.251867 8.975746 1.415709 11697996
9.597018 8.904752 3.600306 11697996
9.767440 9.823709 1.569131 11697996
10.852126 9.978456 3.041975 11697996
10.672397 10.328148 3.310759 11697996
10.827565 10.488112 0.631178 11697996
10.752242 10.237561 3.851914 11697996
11.107594 9.506442 1.667019 11697996
9.515909 10.795941 2.609124 11697996
10.232698 8.775377 3.111419 11697996
11.177613 9.493264 2.715477 11697996
10.324893 10.066525 2.035809 11697996
10.346735 10.045379 0.988128 11697996
8.878685 10.988869 3.400073 11697996
10.665646 9.887437 1.753695 11697996
9.477530 9.993382 2.174471 11697996
10.106635 10.707107 3.264678 11697996
9.279510 10.479636 1.881577 11697996
9.252355 9.718057 2.738647 11697996
9.786551 9.120081 3.543746 11697996
9.596828 11.034914 2.025316 11697996
10.610191 8.878159 1.301142 11697996
8.926776 11.133716 0.051138 11697996
11.026557 10.371099 2.087806 11697996
8.900678 11.176640 0.034254 11697996
9.310828 11.121978 1.614907 11697996
10.145576 9.165534 1.472796 11697996
9.201453 10.626873 0.542960 11697996
10.784277 10.938407 3.805572 11697996
10.182201 9.807044 2.670990 11697996
10.984557 10.428905 2.338242 11697996
11.139186 9.914120 2.104542 11697996
9.995985 10.213331 2.199806 11697996
9.988347 10.210467 2.064559 11697996
8.915486 9.540315 0.977070 11697996
10.406766 11.021976 2.195308 11697996
10.992316 10.935525 1.689843 11697996
9.930263 8.853711 0.528570 11697996
9.311522 10.375768 3.279044 11697996
11.159822 9.194930 3.191001 11697996
11.107955 10.642076 2.343949 11697996
10.857475 11.165274 1.188267 11697996
10.736260 9.579050 2.684850 11697996
9.980910 10.837905 1.095797 11697996
11.079135 10.053472 1.254312 11697996
8.952820 10.054779 2.573175 11697996
10.063905 10.398643 0.460631 11697996
10.844584 9.937062 3.390592 11697996
9.844379 10.391882 3.067027 11697996
10.105792 11.169057 1.603284 11697996
9.550941 9.938148 1.535214 11697996
10.288970 10.211907 3.244940 11697996
10.919144 10.678432 3.161574 11697996
10.710430 10.690777 0.916041 11697996
10.714237 10.085690 1.565217 11697996
9.709913 10.703300 4.000904 11697996
10.806521 9.542738 1.399431 11697996
9.076905 10.128893 3.913882 11697996
9.158274 9.552693 0.243473 11697996
10.961142 10.910693 1.634901 11697996
10.135945 10.252607 2.371036 11697996
9.569240 10.958486 1.784110 11697996
10.167999 10.731420 0.179054 11697996
10.879436 8.906623 0.769302 11697996
9.132393 10.870558 0.701962 11697996
11.022774 11.001657 0.515469 11697996
10.098095 10.185546 3.187512 11697996
10.388943 9.977247 0.181756 11697996
10.233375 8.938411 1.595433 11697996
9.283802 8.914899 1.491423 11697996
8.942474 10.354684 3.104146 11697996
10.500039 9.390130 1.561470 11697996
9.155660 9.319635 3.735130 11697996
9.485804 9.196655 0.564567 11697996
10.316247 11.067035 1.176445 11697996
10.514765 9.139174 1.493016 11697996
11.157186 10.353662 1.901802 11697996
10.613492 8.975719 3.664852 11697996
10.910824 10.827450 0.783200 11697996
10.864953 9.182504 1.496503 11697996
9.579017 11.193577 1.839702 11697996
8.940009 10.215702 1.832005 11697996
11.226667 10.153196 0.233124 11697996
10.030519 10.968791 3.614637 11697996
10.603032 10.306098 0.262364 11697996
8.848984 10.554367 0.588005 11697996
9.010851 8.886088 1.475496 11697996
10.903243 9.491225 0.181945 11697996
10.409136 9.478972 3.715532 11697996
10.224163 10.445807 0.745647 11697996
10.396955 10.765812 0.157329 11697996
10.799956 9.206912 1.220105 11697996
10.966123 9.802633 3.746690 11697996
10.464738 9.570487 1.592948 11697996
8.840935 8.950780 0.564770 11697996
10.151293 10.283005 3.681018 11697996
9.251283 11.009424 0.673910 11697996
10.790793 8.838370 0.568711 11697996
8.979307 10.718569 2.545501 11697996
10.700104 9.468328 3.132782 11697996
9.548314 9.774015 0.862716 11697996
10.969187 11.152739 2.333920 11697996
9.597812 10.550316 2.867201 11697996
9.663672 11.113759 1.277708 11697996
9.831291 11.141482 2.734244 11697996
10.345466 10.293273 3.002075 11697996
10.454189 10.686447 3.500749 11697996
10.927019 10.669567 1.436531 11697996
9.114036 10.909331 2.648448 11697996
10.828614 9.641675 0.378164 11697996
11.020518 10.510935 3.103984 11697996
8.784907 9.066152 3.964360 11697996
9.497302 9.411504 2.505461 11697996
10.729852 10.233036 2.474837 11697996
8.831319 9.469110 0.679604 11697996
10.257709 9.265466 3.728615 11697996
10.145292 9.102047 2.578497 11697996
10.364910 11.066362 2.567036 11697996
9.080709 9.506146 1.942726 11697996
10.065654 9.355081 2.251994 11697996
9.177423 9.391407 0.671624 11697996
11.031143 9.601276 3.979908 11697996
10.248659 10.762542 1.832246 11697996
11.009603 10.005857 2.403958 11697996
10.265079 10.930720 1.670789 11697996
9.649986 9.772852 3.326534 11697996
10.578794 8.877533 1.963912 11697996
9.269346 10.698998 1.522992 11697996
9.393416 9.250387 2.095000 11697996
9.111155 9.080595 3.245647 11697996
9.383937 10.493596 2.034855 11697996
11.102523 9.081656 2.338310 11697996
11.174227 9.898847 2.417936 11697996
9.303477 11.158845 2.933259 11697996
9.648852 11.194242 1.204887 11697996
9.074325 9.530386 3.208704 11697996
11.154525 8.943071 1.381367 11697996
10.237285 9.993895 1.700620 11697996
10.093405 10.458406 2.676173 11697996
9.349957 9.137916 0.721682 11697996
9.947821 9.428119 0.364184 11697996
9.073748 8.909587 1.410488 11697996
8.815111 10.334610 2.407707 11697996
9.778157 8.973660 2.966455 11697996
10.140348 10.986391 0.854807 11697996
11.028055 9.246363 3.976639 11697996
10.764928 9.012980 1.256361 11697996
9.650449 9.923459 2.855174 11697996
10.068746 9.353402 2.802402 11697996
10.103745 11.122136 3.063627 11697996
11.033922 10.873755 3.190828 11697996
9.439625 10.916314 0.991067 11697996
9.537859 10.772640 1.074806 11697996
8.741579 9.342419 0.085299 11697996
10.527965 10.778917 2.022174 11697996
10.466597 10.681534 2.440726 11697996
10.196975 9.120189 2.922954 11697996
10.314952 9.631244 3.763699 11697996
9.172713 10.720466 3.713226 11697996
9.699831 10.871268 2.554895 11697996
10.984521 9.892172 0.426027 11697996
10.609251 10.846238 3.347774 11697996
10.757570 10.265875 2.089644 11697996
10.373099 10.457211 0.347367 11697996
10.987511 10.471649 2.664923 11697996
9.685103 9.677879 2.625658 11697996
11.150295 10.924072 1.283329 11697996
9.367949 9.453679 3.150409 11697996
10.908557 8.930195 3.567360 11697996
11.199586 9.852139 1.995084 11697996
10.440948 10.314466 2.632351 11697996
9.668611 9.133528 0.457696 11697996
11.232390 10.419868 0.251162 11697996
9.950438 9.279083 0.978018 11697996
10.421066 10.348779 2.382874 11697996
10.813214 8.790811 1.181236 11697996
9.975354 9.072129 0.520551 11697996
9.711585 11.177054 0.834773 11697996
10.140177 9.182019 1.205474 11697996
8.899317 9.523262 1.569795 11697996
9.725498 8.883273 1.714290 11697996
9.821008 9.898964 1.051097 11697996
10.106245 10.847074 3.386691 11697996
10.312989 8.940201 1.115764 11697996
9.061442 10.204411 1.313163 11697996
11.091378 8.857425 2.028908 11697996
11.033325 9.356649 2.221858 11697996
11.070287 9.204150 3.961409 11697996
8.899647 10.431270 2.306494 11697996
8.845228 10.446605 0.490225 11697996
9.079114 11.097663 3.739960 11697996
9.189905 9.673859 0.826744 11697996
9.245444 10.796641 1.428890 11697996
9.346498 10.755398 1.317439 11697996
10.993266 10.260539 2.000956 11697996
10.373365 10.525129 2.565824 11697996
8.868170 10.236486 3.266317 11697996
9.464519 10.223039 3.583437 11697996
9.077946 10.948161 3.137489 11697996
11.135916 10.320063 0.719302 11697996
9.427518 9.067147 2.448033 11697996
9.141496 10.056544 1.051726 11697996
11.101405 9.488158 2.061075 11697996
10.802009 9.513653 0.278487 11697996
9.826759 10.380313 1.835496 11697996
10.244576 10.104867 1.215329 11697996
8.753060 10.451574 3.077714 11697996
10.339334 9.217530 1.382856 11697996
9.752652 9.291921 0.030390 11697996
9.258417 9.951709 2.858461 11697996
10.547782 9.530471 0.902201 11697996
10.188147 10.201835 3.528401 11697996
8.927208 11.078433 1.851087 11697996
11.021863 9.191757 1.321790 11697996
9.202520 9.774637 2.944938 11697996
8.911588 9.095416 2.163836 11697996
9.406475 10.256584 1.082839 11697996
11.068630 9.660068 3.509961 11697996
9.645980 10.097794 1.952579 11697996
10.612091 11.215469 0.069405 11697996
9.676339 9.651215 1.358562 11697996
10.762441 8.943538 3.660633 11697996
9.608425 10.426651 0.285604 11697996
10.768807 10.022837 2.872566 11697996
9.088051 10.075358 3.808606 11697996
9.005752 10.782711 3.508101 11697996
10.692918 8.924728 1.538753 11697996
9.119747 10.526497 2.769721 11697996
9.962902 10.057610 3.950885 11697996
10.147217 10.936216 2.299770 11697996
9.853036 10.120679 0.339158 11697996
8.902873 8.915771 2.165723 11697996
10.253922 9.771273 3.823427 11697996
10.616668 11.176745 2.223721 11697996
9.301353 10.123847 3.159181 11697996
9.878237 9.913521 2.638699 11697996
8.897186 10.263738 0.193217 11697996
10.779883 10.475229 1.932390 11697996
10.166298 9.675181 3.360370 11697996
10.973543 10.151952 3.389546 11697996
8.948853 9.193709 3.904350 11697996
9.314829 10.825520 3.335921 11697996
10.286716 10.714355 0.969718 11697996
10.785884 9.904243 2.276791 11697996
10.466306 8.743218 3.514605 11697996
10.803907 8.937753 0.868852 11697996
9.370588 10.219212 2.565829 11697996
9.099633 10.841916 1.153000 11697996
10.354266 8.856164 3.312716 11697996
9.684069 10.837918 2.918286 11697996
9.900208 10.557911 1.150982 11697996
11.125627 10.983368 1.433991 11697996
9.599948 8.835800 3.889472 11697996
10.760031 9.850512 2.270538 11697996
8.787799 9.328973 1.189759 11697996
10.825183 11.112417 3.732995 11697996
10.650364 10.939084 2.528196 11697996
9.533509 9.789215 1.198052 11697996
10.222146 9.242039 2.013357 11697996
9.737515 10.008747 2.697198 11697996
10.001747 9.714195 0.840049 11697996
10.347066 11.214493 1.905299 11697996
10.644740 9.171863 0.197948 11697996
9.502774 10.713796 1.195207 11697996
11.194201 11.035611 2.540321 11697996
10.516150 9.741084 2.083637 11697996
9.013073 10.364536 3.900140 11697996
9.155257 10.598881 0.159658 11697996
10.281587 10.010649 3.660043 11697996
10.757856 10.631892 3.096706 11697996
9.608493 11.238753 3.651500 11697996
9.412311 9.238005 2.989463 11697996
9.994154 9.297235 1.196881 11697996
9.156960 8.978607 0.811025 11697996
10.387712 9.640800 3.056383 11697996
10.567843 11.087257 2.257507 11697996
10.186686 8.942197 0.521784 11697996
10.705404 10.077806 3.474516 11697996
9.106632 10.950442 2.188812 11697996
11.028145 10.111493 1.549701 11697996
10.653360 10.399110 0.581124 11697996
8.844676 10.858019 2.870310 11697996
8.835872 10.467503 0.226150 11697996
9.384431 10.154146 3.542396 11697996
9.054057 9.314301 2.121985 11697996
9.682928 9.738496 2.069061 11697996
10.350148 10.020030 1.847229 11697996
9.211317 9.346906 2.343840 11697996
9.561237 10.861205 3.367548 11697996
10.021058 10.010667 3.348290 11697996
10.667068 8.788542 0.792199 11697996
9.205861 11.233099 3.921390 11697996
9.420650 9.874266 0.947949 11697996
8.873794 11.202971 2.693219 11697996
10.147352 9.590838 3.425337 11697996
11.229068 10.326874 0.205013 11697996
9.307085 9.035756 2.709348 11697996
8.938653 9.295200 1.312046 11697996
9.012547 9.788554 1.602754 11697996
8.871423 9.688672 2.162542 11697996
11.047651 11.062380 3.606565 11697996
10.379633 9.858257 3.014082 11697996
8.774068 9.717383 3.482303 11697996
10.280125 9.613740 0.343112 11697996
10.459890 10.565863 1.892157 11697996
10.752652 9.643941 0.094123 11697996
11.137564 8.959772 3.995853 11697996
10.575599 10.425310 2.032390 11697996
10.252694 10.205107 0.750622 11697996
9.980911 9.169963 1.471672 11697996
11.109796 9.259487 2.196656 11697996
9.029325 11.195928 0.917498 11697996
9.026925 9.461737 3.349730 11697996
10.474717 9.957424 2.779124 11697996
8.759420 11.182611 1.163229 11697996
10.531224 9.787519 3.073369 11697996
9.133296 10.663152 3.400254 11697996
9.139841 10.178421 4.003134 11697996
10.923928 10.275438 1.941423 11697996
10.915254 9.656116 1.033466 11697996
9.379709 8.963836 3.885791 11697996
8.770039 9.803561 2.458117 11697996
10.280433 10.440668 1.872843 11697996
11.075099 10.876018 3.548365 11697996
8.863259 9.419966 3.897273 11697996
9.887126 9.109059 3.479059 11697996
9.951043 9.598623 2.121113 11697996
8.927867 9.999148 2.439952 11697996
9.662859 9.915176 3.741956 11697996
9.946215 10.926575 2.622160 11697996
10.927951 11.094751 0.822553 11697996
9.318142 9.040537 0.080501 11697996
9.706618 10.869875 0.147043 11697996
10.187857 10.328935 3.529543 11697996
10.925301 9.052648 0.962855 11697996
9.333635 11.054598 1.750817 11697996
10.146618 9.210230 2.209653 11697996
8.747947 10.004729 0.787422 11697996
9.764493 9.895167 3.963084 11697996
9.953569 11.199933 2.396490 11697996
9.360953 10.902161 2.963546 11697996
10.689666 9.633603 2.187142 11697996
10.925427 9.043255 2.783158 11697996
10.909159 10.879460 1.820611 11697996
11.246811 9.880565 2.226904 11697996
9.685003 9.331557 2.496583 11697996
9.311151 8.848483 2.943375 11697996
11.032518 8.997701 2.675865 11697996
9.851143 8.803134 0.581874 11697996
9.818996 9.048182 3.566688 11697996
10.997557 9.791896 0.833151 11697996
11.114655 9.054494 3.673700 11697996
10.438573 9.147598 2.282194 11697996
10.759515 10.421822 1.401884 11697996
9.352271 10.556944 0.171485 11697996
9.380606 10.725886 2.723776 11697996
9.556914 9.320429 3.887226 11697996
9.072939 10.941199 2.203279 11697996
9.730366 9.934665 0.544816 11697996
10.549200 10.123595 1.773141 11697996
11.179543 11.056305 0.272738 11697996
8.907392 10.458741 2.809443 11697996
10.404424 10.063953 1.530907 11697996
10.620605 10.369693 0.776909 11697996
10.545463 9.701552 3.582123 11697996
11.074886 8.844941 0.305651 11697996
11.018944 11.221600 0.021357 11697996
10.741898 9.743794 3.573609 11697996
9.661757 10.796728 3.360985 11697996
9.536203 9.428908 2.205521 11697996
10.515043 9.562078 1.575544 11697996
11.036963 9.458906 1.960452 11697996
10.435898 10.008677 0.557285 11697996
9.782975 11.163252 2.400363 11697996
11.135671 8.935993 2.309647 11697996
10.977357 9.601656 2.521713 11697996
9.727332 10.918305 2.622581 11697996
9.157682 10.348660 0.871945 11697996
9.295254 8.839747 2.194456 11697996
11.058918 9.868750 3.027795 11697996
9.429762 10.891559 1.266434 11697996
10.292333 9.263743 1.474576 11697996
9.629478 10.420459 1.978272 11697996
9.726379 9.170677 2.249054 11697996
9.212394 9.150033 0.640430 11697996
10.543659 11.103474 3.453137 11697996
9.855983 9.812481 2.134328 11697996
10.155061 9.167814 3.323997 11697996
10.396211 10.113448 1.556434 11697996
9.196768 10.878269 1.158288 11697996
9.635209 10.243599 3.944595 11697996
9.771206 8.961607 3.504272 11697996
8.920622 9.532101 0.261734 11697996
10.609788 10.456753 0.120829 11697996
9.321948 10.490555 1.874672 11697996
10.524609 8.966969 2.422270 11697996
10.458555 10.325559 0.605944 11697996
9.934693 10.070457 3.665046 11697996
9.773550 9.724957 0.630604 11697996
11.200028 10.490157 2.800107 11697996
9.684216 10.607436 1.948015 11697996
9.157413 10.865521 3.769429 11697996
9.246243 11.061456 1.256522 11697996
11.094493 11.136474 3.837461 11697996
10.405519 10.193191 2.421082 11697996
9.863228 10.087420 3.618762 11697996
9.117308 9.090356 1.813218 11697996
9.576712 9.952577 3.277174 11697996
10.932834 9.284718 0.132214 11697996
11.075188 9.194717 0.654694 11697996
9.798329 11.100495 2.562732 11697996
11.007786 9.339267 1.454273 11697996
9.267885 9.909456 2.561450 11697996
11.175270 11.124939 0.860659 11697996
11.183983 10.604858 1.842943 11697996
10.333007 8.831792 3.743951 11697996
9.308140 9.728810 3.140586 11697996
10.328964 9.049430 0.867291 11697996
9.583416 9.456607 0.041371 11697996
10.073421 8.886715 3.163333 11697996
10.815052 10.396273 3.040680 11697996
8.757674 9.096745 3.465346 11697996
9.989457 9.564769 1.121793 11697996
10.339779 9.428475 2.299414 11697996
11.139323 9.625832 3.446902 11697996
9.863955 11.200138 3.236711 11697996
10.982882 10.576777 2.639667 11697996
10.672540 10.420684 0.625438 11697996
9.032712 9.119135 2.303406 11697996
10.187613 9.512790 3.801725 11697996
10.800297 10.742860 0.739228 11697996
11.223458 8.797832 0.928440 11697996
9.327693 9.576376 3.778960 11697996
11.252901 10.253972 1.565123 11697996
10.925071 9.385861 1.653243 11697996
11.002767 10.187787 2.410757 11697996
8.870555 10.788948 1.233716 11697996
9.628483 9.850142 0.380293 11697996
10.291733 9.004919 3.248576 11697996
9.571353 8.858321 1.289304 11697996
11.009190 9.117563 1.143902 11697996
10.315127 8.823405 0.401352 11697996
9.865137 9.667723 2.814024 11697996
10.848979 9.759686 3.953205 11697996
9.045072 9.318621 3.391161 11697996
10.036640 10.854074 0.718007 11697996
10.129463 8.784284 3.087385 11697996
10.860841 9.306314 3.639606 11697996
