# .PCD v0.7 - Point Cloud Data file format
VERSION 0.7
FIELDS x y z rgb
SIZE 4 4 4 4
TYPE F F F U
COUNT 1 1 1 1
WIDTH 1292
HEIGHT 1
VIEWPOINT 0 0 0 1 0 0 0
POINTS 1292
DATA ascii
9.505083 10.811290 2.616906 11697996
10.208546 8.773127 3.111496 11697996
11.157024 9.480373 2.693287 11697996
10.301128 10.040767 2.066691 11697996
10.363888 10.057055 0.998265 11697996
8.893128 11.007806 3.431369 11697996
10.650192 9.897931 1.739603 11697996
9.484211 10.013880 2.158478 11697996
10.112207 10.729865 3.229214 11697996
9.273267 10.449408 1.870152 11697996
9.248753 9.723986 2.719137 11697996
9.806035 9.133183 3.551633 11697996
9.591726 11.039563 2.014325 11697996
10.602447 8.888812 1.303075 11697996
8.920499 11.111129 0.050605 11697996
11.014366 10.366247 2.082697 11697996
8.861101 11.152269 0.031223 11697996
9.262280 11.118217 1.625853 11697996
10.144333 9.185194 1.468426 11697996
9.207693 10.578043 0.540865 11697996
10.812860 10.978533 3.783136 11697996
10.164320 9.812732 2.655184 11697996
10.956886 10.430545 2.337045 11697996
11.147256 9.897986 2.094316 11697996
9.965573 10.207191 2.191768 11697996
9.978185 10.191654 2.056170 11697996
8.895103 9.529946 0.921292 11697996
10.389062 11.001798 2.188147 11697996
10.995445 10.922705 1.675440 11697996
9.963986 8.855035 0.512555 11697996
9.330018 10.388160 3.318445 11697996
11.159152 9.224385 3.189057 11697996
11.095133 10.633182 2.387268 11697996
10.874227 11.181725 1.179287 11697996
10.737543 9.600364 2.701882 11697996
9.992144 10.836199 1.076028 11697996
11.056687 10.045612 1.265629 11697996
8.958719 10.069581 2.585840 11697996
10.095989 10.403049 0.438439 11697996
10.837310 9.911065 3.414241 11697996
9.850247 10.388495 3.085178 11697996
10.057366 11.164634 1.573856 11697996
9.566175 9.945835 1.528827 11697996
10.294421 10.227136 3.227308 11697996
10.912196 10.657477 3.194470 11697996
10.725013 10.699716 0.888178 11697996
10.693842 10.084052 1.577778 11697996
9.722914 10.698046 4.000404 11697996
10.832417 9.547047 1.395700 11697996
9.087575 10.149230 3.891310 11697996
9.150767 9.556400 0.255666 11697996
10.939100 10.891091 1.641842 11697996
10.143072 10.227313 2.367074 11697996
9.532769 10.961003 1.777319 11697996
10.157922 10.695070 0.208688 11697996
10.882918 8.916363 0.798361 11697996
9.113186 10.852981 0.688446 11697996
11.011447 10.999396 0.541412 11697996
10.089748 10.189094 3.171370 11697996
10.393448 9.959182 0.194548 11697996
10.239395 8.961042 1.561560 11697996
9.286413 8.890649 1.488034 11697996
8.958508 10.329654 3.095191 11697996
10.485927 9.354527 1.522745 11697996
9.140323 9.339052 3.731959 11697996
9.477603 9.193669 0.595588 11697996
10.327790 11.050675 1.169873 11697996
10.506131 9.142536 1.495270 11697996
11.146679 10.372223 1.902283 11697996
10.612869 8.983234 3.678546 11697996
10.941965 10.819074 0.786235 11697996
10.842010 9.179763 1.513532 11697996
9.566853 11.176148 1.862492 11697996
8.934238 10.215864 1.808348 11697996
11.223580 10.116204 0.251872 11697996
10.008841 10.961185 3.625468 11697996
10.631809 10.327977 0.276254 11697996
8.828020 10.563195 0.599911 11697996
8.999067 8.875100 1.482258 11697996
10.938638 9.465451 0.191767 11697996
10.372707 9.462869 3.707665 11697996
10.228484 10.465432 0.762392 11697996
10.403206 10.760098 0.156493 11697996
10.811331 9.145580 1.223715 11697996
10.949784 9.801328 3.728568 11697996
10.476246 9.570590 1.617505 11697996
8.822463 8.934345 0.543790 11697996
10.176134 10.289330 3.676930 11697996
9.245373 11.012948 0.665398 11697996
10.768679 8.806308 0.561558 11697996
8.956711 10.720326 2.531191 11697996
10.709459 9.475194 3.093452 11697996
9.557273 9.757093 0.867620 11697996
10.982885 11.168300 2.367496 11697996
9.580859 10.541660 2.843203 11697996
9.637737 11.127470 1.301654 11697996
9.805954 11.129293 2.728993 11697996
10.342565 10.307683 3.004635 11697996
10.438805 10.632648 3.540412 11697996
10.905042 10.678693 1.475916 11697996
9.095467 10.883838 2.637926 11697996
10.853985 9.641480 0.392717 11697996
10.977317 10.555739 3.093646 11697996
8.778432 9.069023 3.990987 11697996
9.470476 9.443717 2.521560 11697996
10.713715 10.272939 2.469232 11697996
8.833952 9.494515 0.690154 11697996
10.263821 9.245746 3.746879 11697996
10.172351 9.108592 2.565809 11697996
10.358565 11.010697 2.595226 11697996
9.080959 9.490410 1.931804 11697996
10.051587 9.384021 2.217011 11697996
9.186689 9.410160 0.646359 11697996
11.042043 9.587133 3.942122 11697996
10.286954 10.780909 1.852489 11697996
11.019159 9.981516 2.401462 11697996
10.247128 10.966020 1.692865 11697996
9.651245 9.775951 3.313130 11697996
10.588076 8.893902 1.969289 11697996
9.283442 10.731307 1.545439 11697996
9.362084 9.278697 2.047590 11697996
9.125983 9.077359 3.236868 11697996
9.410205 10.493657 2.050411 11697996
11.090505 9.057370 2.285607 11697996
11.146379 9.917761 2.430541 11697996
9.308592 11.187700 2.958707 11697996
9.623604 11.239702 1.220394 11697996
9.082720 9.533930 3.195912 11697996
11.184122 8.950327 1.388743 11697996
10.247138 9.936161 1.718455 11697996
10.085041 10.472573 2.649958 11697996
9.356912 9.150265 0.761638 11697996
9.963123 9.424095 0.376215 11697996
9.089998 8.942837 1.391691 11697996
8.804614 10.352062 2.379069 11697996
9.790654 8.953654 2.971221 11697996
10.139268 10.997066 0.858880 11697996
11.038853 9.247004 3.965502 11697996
10.803129 8.977133 1.277866 11697996
9.641092 9.928265 2.805458 11697996
10.091828 9.325576 2.836715 11697996
10.091483 11.139172 3.070573 11697996
11.036336 10.871176 3.209087 11697996
9.403926 10.918937 0.992658 11697996
9.514687 10.780663 1.072536 11697996
8.733870 9.317861 0.063844 11697996
10.489385 10.806103 2.071883 11697996
10.473537 10.667977 2.467164 11697996
10.220601 9.084376 2.966891 11697996
10.319818 9.623801 3.718349 11697996
9.166205 10.730425 3.716321 11697996
9.722392 10.852290 2.578142 11697996
10.980093 9.880540 0.451188 11697996
10.585494 10.878058 3.351951 11697996
10.778140 10.284816 2.096827 11697996
10.370187 10.443113 0.344042 11697996
11.021747 10.454139 2.677315 11697996
9.686389 9.659241 2.633746 11697996
11.146765 10.930145 1.298696 11697996
9.378381 9.494881 3.132671 11697996
10.929992 8.928824 3.555681 11697996
11.190744 9.830046 1.972183 11697996
10.463293 10.314674 2.636304 11697996
9.675862 9.081803 0.422882 11697996
11.240438 10.412052 0.270216 11697996
9.959473 9.260563 0.985039 11697996
10.394376 10.351278 2.431071 11697996
10.825925 8.796685 1.200266 11697996
9.952045 9.064439 0.544499 11697996
9.703534 11.181028 0.810802 11697996
10.149063 9.157722 1.190962 11697996
8.884044 9.474000 1.564801 11697996
9.725792 8.898275 1.680717 11697996
9.822385 9.866177 1.061468 11697996
10.109248 10.843827 3.409373 11697996
10.296408 8.919860 1.123869 11697996
9.060081 10.215313 1.287418 11697996
11.100622 8.868478 2.026217 11697996
11.072002 9.348346 2.212855 11697996
11.051934 9.202494 3.976335 11697996
8.888807 10.411620 2.271694 11697996
8.882589 10.416017 0.493528 11697996
9.032912 11.066246 3.793867 11697996
9.211525 9.668815 0.794030 11697996
9.226068 10.776413 1.403193 11697996
9.342146 10.738010 1.340991 11697996
10.996107 10.266896 1.963590 11697996
10.393893 10.524481 2.545397 11697996
8.826234 10.241284 3.280372 11697996
9.466444 10.216034 3.590042 11697996
9.091732 10.914778 3.187985 11697996
11.127548 10.287536 0.710499 11697996
9.424079 9.052894 2.423200 11697996
9.135512 10.088309 1.069262 11697996
11.086661 9.476608 2.042924 11697996
10.818855 9.486454 0.297879 11697996
9.776767 10.382352 1.824487 11697996
10.234378 10.091561 1.219537 11697996
8.751394 10.456269 3.104016 11697996
10.326465 9.227300 1.384420 11697996
9.763283 9.293787 -0.006655 11697996
9.276155 9.961089 2.858016 11697996
10.555499 9.545160 0.877643 11697996
10.223132 10.184503 3.571015 11697996
8.936218 11.053691 1.870796 11697996
11.015713 9.209303 1.305144 11697996
9.205391 9.773851 2.942972 11697996
8.900668 9.070942 2.194767 11697996
9.449833 10.262362 1.057238 11697996
11.070632 9.646255 3.493696 11697996
9.617187 10.072586 1.965465 11697996
10.593996 11.228542 0.052005 11697996
9.648302 9.649957 1.350615 11697996
10.763174 8.902231 3.635285 11697996
9.602448 10.394420 0.303666 11697996
10.793696 9.977756 2.906378 11697996
9.078885 10.093856 3.757013 11697996
9.009906 10.815353 3.465870 11697996
10.659222 8.923909 1.530852 11697996
9.113269 10.549301 2.747733 11697996
9.945360 10.045703 3.965461 11697996
10.173669 10.929151 2.292546 11697996
9.862611 10.144760 0.314965 11697996
8.888146 8.933302 2.152208 11697996
10.226451 9.832036 3.837322 11697996
10.637228 11.176609 2.224308 11697996
9.298275 10.129416 3.177624 11697996
9.862472 9.913025 2.634307 11697996
8.907533 10.249752 0.228078 11697996
10.775090 10.482914 1.923408 11697996
10.168354 9.668999 3.319765 11697996
10.963732 10.172980 3.413040 11697996
8.958010 9.181691 3.929029 11697996
9.301113 10.814668 3.333818 11697996
10.301929 10.720985 1.003885 11697996
10.798162 9.900537 2.296257 11697996
10.470047 8.752505 3.518770 11697996
10.819758 8.935265 0.917417 11697996
9.386097 10.211361 2.548888 11697996
9.121050 10.842246 1.170495 11697996
10.330738 8.825161 3.277888 11697996
9.685033 10.780478 2.903069 11697996
9.914206 10.537740 1.156069 11697996
11.160934 10.983578 1.442568 11697996
9.572671 8.831937 3.886904 11697996
10.748495 9.849327 2.275955 11697996
8.787333 9.334823 1.168346 11697996
10.833638 11.124297 3.744444 11697996
10.691281 10.945063 2.526481 11697996
9.526139 9.770081 1.222788 11697996
10.209404 9.262588 2.004014 11697996
9.753840 10.010963 2.757563 11697996
10.020367 9.696218 0.845192 11697996
10.330791 11.212396 1.903385 11697996
10.675349 9.191193 0.201947 11697996
9.495377 10.722001 1.181813 11697996
11.183105 11.027349 2.559591 11697996
10.520523 9.736514 2.089175 11697996
9.015953 10.349582 3.898113 11697996
9.211912 10.602162 0.129034 11697996
10.288127 10.049824 3.660922 11697996
10.748962 10.628384 3.094496 11697996
9.593456 11.263067 3.647771 11697996
9.354301 9.223003 3.001773 11697996
10.012486 9.273912 1.185634 11697996
9.171380 8.937568 0.825680 11697996
10.384037 9.627341 3.116731 11697996
10.560937 11.064376 2.273687 11697996
10.190463 8.928101 0.507179 11697996
10.714768 10.057720 3.456526 11697996
9.100246 10.948699 2.178978 11697996
11.019988 10.093391 1.567505 11697996
10.649219 10.376779 0.590939 11697996
8.820979 10.824930 2.855610 11697996
8.799090 10.501626 0.274539 11697996
9.395027 10.162743 3.513899 11697996
9.051780 9.296649 2.102019 11697996
9.659508 9.753646 2.086058 11697996
10.349887 10.027566 1.872362 11697996
9.215389 9.349497 2.326344 11697996
9.529510 10.873016 3.367177 11697996
10.069365 10.019759 3.334894 11697996
10.663528 8.825974 0.836756 11697996
9.195978 11.236561 3.936625 11697996
9.407393 9.880143 0.985671 11697996
8.880308 11.217599 2.708066 11697996
10.128637 9.594105 3.415762 11697996
11.251401 10.325376 0.200263 11697996
9.312906 9.016335 2.732742 11697996
8.976083 9.319470 1.300426 11697996
9.015695 9.773853 1.630914 11697996
8.908430 9.683784 2.199502 11697996
11.043224 11.078360 3.602971 11697996
10.389633 9.856230 3.028281 11697996
8.753817 9.709847 3.493877 11697996
10.286592 9.614944 0.349207 11697996
10.439295 10.559723 1.910819 11697996
10.745332 9.609120 0.094547 11697996
11.161246 8.921134 3.992130 11697996
10.578233 10.468474 2.026832 11697996
10.226474 10.207273 0.755605 11697996
9.964126 9.161497 1.444586 11697996
11.135551 9.258182 2.185131 11697996
9.045632 11.183577 0.960947 11697996
9.025778 9.471742 3.336679 11697996
10.494554 9.991488 2.779393 11697996
8.781129 11.185453 1.142631 11697996
10.563288 9.803182 3.064169 11697996
9.115475 10.686806 3.367419 11697996
9.104293 10.170745 4.024611 11697996
10.964190 10.268261 1.929763 11697996
10.907071 9.672984 1.021834 11697996
9.363132 8.949831 3.876279 11697996
8.775373 9.816610 2.448275 11697996
10.296157 10.434211 1.843966 11697996
11.082428 10.915417 3.567037 11697996
8.878516 9.427897 3.880946 11697996
9.928228 9.101494 3.458083 11697996
9.942467 9.620327 2.163532 11697996
8.915467 9.965873 2.470829 11697996
9.660812 9.923502 3.747371 11697996
9.891252 10.873357 2.619762 11697996
10.896638 11.126400 0.843194 11697996
9.321008 9.092305 0.096431 11697996
9.681103 10.888584 0.166382 11697996
10.151834 10.353216 3.555783 11697996
10.934577 9.037222 0.949114 11697996
9.323447 11.023329 1.777872 11697996
10.131352 9.244616 2.195503 11697996
8.771627 10.002612 0.741270 11697996
9.759836 9.909858 3.936637 11697996
9.943645 11.206962 2.398259 11697996
9.384739 10.922744 2.932319 11697996
10.659992 9.632000 2.203992 11697996
10.926422 9.032275 2.759415 11697996
10.916252 10.863899 1.785391 11697996
11.242384 9.874303 2.235879 11697996
9.678584 9.337982 2.491314 11697996
9.308836 8.871596 2.935024 11697996
11.048334 8.989130 2.658233 11697996
9.855089 8.830137 0.582299 11697996
9.829953 9.058627 3.560875 11697996
10.996002 9.779847 0.883494 11697996
11.123753 9.061686 3.685619 11697996
10.452799 9.138825 2.275437 11697996
10.779241 10.413350 1.397225 11697996
9.375585 10.578464 0.136248 11697996
9.416345 10.723345 2.732961 11697996
9.575086 9.311619 3.917971 11697996
9.047958 10.926104 2.224450 11697996
9.764890 9.947753 0.553962 11697996
10.574452 10.138905 1.800542 11697996
11.176373 11.026299 0.312047 11697996
8.953423 10.457777 2.825169 11697996
10.385506 10.052413 1.532790 11697996
10.624700 10.343597 0.803615 11697996
10.602050 9.692224 3.563107 11697996
11.098361 8.863873 0.311427 11697996
11.019300 11.176663 -0.003919 11697996
10.775794 9.764642 3.566042 11697996
9.670906 10.825263 3.349197 11697996
9.524710 9.430602 2.229597 11697996
10.514152 9.558495 1.593565 11697996
11.022870 9.441615 1.958200 11697996
10.430378 10.022595 0.557024 11697996
9.802460 11.169709 2.364831 11697996
11.077274 8.893836 2.312520 11697996
10.996469 9.639701 2.528888 11697996
9.708290 10.897141 2.642698 11697996
9.183067 10.318770 0.880744 11697996
9.291417 8.825496 2.214405 11697996
11.073909 9.860047 3.048182 11697996
9.427117 10.877430 1.244681 11697996
10.254420 9.268059 1.494956 11697996
9.631474 10.428255 1.999344 11697996
9.720365 9.173780 2.238802 11697996
9.207723 9.126637 0.605725 11697996
10.532109 11.097278 3.468842 11697996
9.897408 9.791035 2.129807 11697996
10.176524 9.181745 3.338307 11697996
10.394300 10.095976 1.537326 11697996
9.219661 10.858344 1.165852 11697996
9.644751 10.254592 3.960917 11697996
9.757389 8.962772 3.512337 11697996
8.943108 9.501275 0.255776 11697996
10.637031 10.417497 0.130973 11697996
9.307354 10.507958 1.879422 11697996
10.512448 8.953988 2.437395 11697996
10.480301 10.306417 0.648914 11697996
9.922275 10.068604 3.645725 11697996
9.783238 9.753163 0.623901 11697996
11.208740 10.480809 2.796383 11697996
9.687245 10.612186 1.963859 11697996
9.142756 10.865546 3.781525 11697996
9.237056 11.047730 1.230414 11697996
11.118599 11.121015 3.810007 11697996
10.389449 10.218781 2.431146 11697996
9.864163 10.097223 3.644548 11697996
9.079187 9.113403 1.792802 11697996
9.549674 9.926033 3.250418 11697996
10.943931 9.268399 0.113038 11697996
11.079504 9.178268 0.660603 11697996
9.772730 11.114477 2.582033 11697996
11.024557 9.314000 1.475354 11697996
9.280688 9.887815 2.541220 11697996
11.211284 11.132856 0.894030 11697996
11.185278 10.565866 1.839327 11697996
10.354629 8.797581 3.739533 11697996
9.296547 9.738573 3.128904 11697996
10.356668 9.028300 0.851527 11697996
9.571192 9.419705 0.057403 11697996
10.045292 8.899989 3.175650 11697996
10.796998 10.401978 3.036728 11697996
8.748596 9.113923 3.483521 11697996
10.007647 9.554732 1.122405 11697996
10.345787 9.427247 2.341954 11697996
11.148424 9.571063 3.432506 11697996
9.868297 11.167242 3.220560 11697996
10.984128 10.563972 2.659800 11697996
10.692089 10.384873 0.605864 11697996
9.007371 9.073419 2.281735 11697996
10.182835 9.506124 3.766456 11697996
10.821065 10.700755 0.714399 11697996
11.233223 8.825086 0.918270 11697996
9.309197 9.569629 3.779131 11697996
11.233274 10.253705 1.552006 11697996
10.935381 9.414818 1.663703 11697996
11.002957 10.169068 2.433785 11697996
8.867515 10.774410 1.241573 11697996
9.632453 9.846148 0.369371 11697996
10.340980 8.983097 3.228207 11697996
9.536016 8.812639 1.275717 11697996
11.053183 9.122214 1.157908 11697996
10.327722 8.821880 0.441164 11697996
9.897837 9.658858 2.822603 11697996
10.846427 9.739648 3.939121 11697996
9.065364 9.336530 3.386479 11697996
10.041552 10.869859 0.760933 11697996
10.155780 8.787345 3.076255 11697996
10.851623 9.276515 3.636458 11697996
9.487826 9.729767 3.461312 11697996
9.470710 8.944997 3.462496 11697996
10.151648 9.207759 1.300203 11697996
10.572988 9.035707 1.750061 11697996
9.829842 10.911264 3.649886 11697996
11.081107 9.660202 3.540099 11697996
9.785187 10.912066 3.267260 11697996
10.041722 9.521399 0.545771 11697996
9.197754 9.279668 2.876888 11697996
10.454176 8.967709 3.125447 11697996
9.869239 9.560545 0.460100 11697996
8.792696 10.861240 3.308271 11697996
10.342640 9.656787 0.688798 11697996
10.492566 10.911302 1.641946 11697996
9.776765 10.737780 1.933381 11697996
9.248553 10.215684 2.063003 11697996
10.523653 10.683207 3.644872 11697996
10.084458 9.879873 3.146338 11697996
9.960671 9.680274 1.615403 11697996
9.338623 9.851312 3.437627 11697996
9.912648 11.186115 3.839962 11697996
9.002564 11.199129 0.992385 11697996
10.566087 10.086733 0.152198 11697996
10.518650 10.299948 1.751394 11697996
10.079652 9.086674 0.796683 11697996
9.410741 9.558835 2.542784 11697996
11.066234 10.971704 0.990837 11697996
10.651001 11.112744 1.043115 11697996
9.585285 10.412241 1.012896 11697996
8.865446 11.204985 1.634306 11697996
10.190123 10.064098 2.969750 11697996
8.980499 9.266079 1.968929 11697996
11.010712 9.019129 0.652152 11697996
9.794370 8.742402 0.772998 11697996
9.145153 10.416564 1.665672 11697996
10.850525 9.256786 0.539821 11697996
9.836713 9.608358 2.833865 11697996
9.781419 10.206491 0.278333 11697996
11.033166 10.480021 0.398585 11697996
9.456380 10.117953 1.519693 11697996
8.763464 11.078295 2.496566 11697996
10.337375 9.465419 0.536049 11697996
10.673091 8.895857 0.203975 11697996
11.220796 9.388641 2.606131 11697996
9.501821 10.717209 1.216577 11697996
10.230060 9.003819 1.026718 11697996
10.731015 10.838549 1.710091 11697996
9.535388 10.005569 2.359914 11697996
10.368081 9.150345 0.507989 11697996
10.610250 9.030607 2.451419 11697996
10.711727 10.134623 1.148716 11697996
9.390234 9.214774 1.759589 11697996
9.885086 10.275099 2.047105 11697996
9.157964 9.075137 1.659180 11697996
9.592446 8.982992 2.463683 11697996
9.499476 11.213572 1.597389 11697996
11.182617 9.673581 1.557174 11697996
9.635143 8.866111 0.386224 11697996
10.324997 10.641689 2.636070 11697996
10.999707 8.774422 2.024110 11697996
9.526377 9.044162 0.069943 11697996
9.981238 10.359545 2.671117 11697996
9.431971 9.654240 1.596015 11697996
9.412983 10.691606 2.867978 11697996
9.927404 9.769045 1.023962 11697996
9.145464 10.259534 2.836980 11697996
9.420430 10.669352 0.781032 11697996
10.090149 9.774487 3.939831 11697996
9.091883 10.603813 2.219000 11697996
8.765632 8.938890 1.154382 11697996
10.628871 9.189456 1.355210 11697996
10.062059 9.719037 2.242650 11697996
11.117531 10.351351 0.204525 11697996
11.080123 10.299847 3.519783 11697996
9.067852 10.201214 1.824845 11697996
9.919956 10.855674 3.221551 11697996
10.690686 10.684837 1.208059 11697996
11.210249 10.121771 1.940591 11697996
10.932103 11.219177 1.311601 11697996
10.753183 11.059418 3.783895 11697996
9.887168 10.255569 1.947385 11697996
11.236057 10.373754 0.454422 11697996
10.512802 10.045432 2.102553 11697996
10.080605 9.821836 3.659081 11697996
9.415900 10.687771 2.045226 11697996
9.565204 10.311710 2.687150 11697996
9.791491 9.667597 0.974466 11697996
9.118539 8.851402 3.356361 11697996
9.500151 8.943348 0.057297 11697996
10.730572 10.058536 2.287395 11697996
9.458222 9.199216 3.805777 11697996
9.968960 9.916183 2.134193 11697996
9.394978 10.493861 0.424754 11697996
9.673613 10.181990 2.045611 11697996
9.387540 11.109262 3.854082 11697996
9.956167 9.972459 2.253335 11697996
8.981688 10.269991 0.914642 11697996
9.605528 9.616628 2.329749 11697996
11.115643 10.439304 1.168585 11697996
10.893652 10.428024 1.602249 11697996
9.372887 9.376841 0.109190 11697996
9.879190 10.035790 1.255383 11697996
11.179352 9.873692 1.091881 11697996
9.771488 9.302927 0.020387 11697996
9.034904 9.523381 1.790450 11697996
10.847547 9.480471 0.619485 11697996
9.643118 10.046568 1.442217 11697996
9.720604 10.833647 0.276217 11697996
11.217194 10.288765 3.994118 11697996
8.764977 9.716054 2.623830 11697996
9.990194 10.774686 3.150815 11697996
10.089877 10.006185 2.281044 11697996
11.138777 9.873317 2.131351 11697996
9.815083 10.209306 3.480442 11697996
8.985570 9.178160 2.417530 11697996
9.693031 10.419440 2.855633 11697996
10.523941 9.834549 3.807954 11697996
10.569826 9.553526 2.833470 11697996
8.986344 9.493584 2.903227 11697996
10.820395 11.266853 2.790486 11697996
11.213349 10.698714 0.458578 11697996
11.259502 8.770021 1.760213 11697996
9.816328 9.929089 2.487546 11697996
10.475838 8.880675 3.620914 11697996
10.647448 9.607977 1.683405 11697996
10.305334 8.945856 1.254669 11697996
9.717641 10.476545 3.794371 11697996
10.591004 10.449548 1.304401 11697996
10.158067 10.304639 3.648191 11697996
10.165886 9.213232 0.588046 11697996
9.865993 9.077144 1.030593 11697996
10.612713 10.647268 1.760099 11697996
9.940989 10.156208 0.443771 11697996
10.066918 10.384473 3.695503 11697996
10.193619 9.649585 1.580344 11697996
11.058375 9.464272 3.317739 11697996
9.768056 8.750775 3.506025 11697996
9.394547 9.821744 1.265254 11697996
8.935055 8.955167 3.423069 11697996
10.491012 10.516556 1.240480 11697996
10.231193 10.126942 0.186669 11697996
9.017506 10.472867 3.011901 11697996
10.701878 8.839095 1.083653 11697996
8.943818 9.038619 3.297313 11697996
9.759126 11.134401 2.928544 11697996
9.781220 10.931852 0.194398 11697996
11.051455 9.507885 2.040586 11697996
10.520678 10.140296 3.048974 11697996
9.239555 10.596885 2.762320 11697996
11.165236 10.901976 0.183053 11697996
10.109517 9.171283 1.885672 11697996
10.633973 10.247793 2.269996 11697996
11.201155 9.835721 3.092381 11697996
9.031096 10.096730 2.489048 11697996
10.915721 9.127962 1.228498 11697996
11.123945 10.820184 0.166645 11697996
10.397081 10.949604 3.269343 11697996
10.690042 10.811216 3.055197 11697996
9.478154 9.289992 1.068727 11697996
8.903760 9.884577 2.710802 11697996
10.009686 10.561531 3.641836 11697996
10.296830 10.457433 0.913132 11697996
10.272441 9.400784 2.782092 11697996
11.151450 11.008373 2.708525 11697996
9.559016 8.794488 1.116059 11697996
9.465043 9.607214 1.535683 11697996
10.155622 11.095875 2.567828 11697996
9.112335 9.231440 1.736755 11697996
9.385379 8.951794 2.940004 11697996
9.688009 9.737093 2.044185 11697996
10.691902 11.075195 3.707759 11697996
11.109301 10.374746 3.756676 11697996
10.982555 9.189211 0.004773 11697996
11.065746 10.422784 3.230640 11697996
8.961192 9.009520 1.219805 11697996
8.901920 10.250526 3.080357 11697996
8.964945 9.515659 0.983022 11697996
9.334723 9.557551 2.655651 11697996
10.036303 9.119103 3.190477 11697996
8.784685 8.949659 0.465334 11697996
10.126336 10.337778 1.266896 11697996
8.793781 10.263528 0.897186 11697996
9.475746 10.131780 0.409735 11697996
9.564484 9.906356 1.782754 11697996
9.308448 9.151052 1.336727 11697996
9.987696 9.028394 0.944136 11697996
9.358997 9.527845 0.380848 11697996
9.307450 9.599157 0.278992 11697996
9.552122 10.378675 1.888918 11697996
9.036795 9.810685 3.699123 11697996
9.499348 10.006239 0.536941 11697996
9.784682 10.379152 0.661162 11697996
10.802711 11.194983 1.694780 11697996
11.023532 10.203936 0.764902 11697996
9.366176 9.088845 2.464780 11697996
10.058551 9.451498 1.645572 11697996
9.500771 10.041531 2.792791 11697996
10.073130 10.514860 2.631608 11697996
10.953506 9.697276 2.175468 11697996
10.833180 9.536976 0.688914 11697996
9.463800 11.233232 3.623617 11697996
11.220833 10.275544 0.549656 11697996
10.940701 10.505766 3.544681 11697996
11.006830 10.121697 2.389046 11697996
9.395292 8.825374 1.777250 11697996
10.425900 11.070673 0.486530 11697996
9.687125 9.022114 2.035910 11697996
9.645370 9.567230 2.030940 11697996
10.288633 9.622951 1.237518 11697996
9.998145 10.518179 1.326483 11697996
10.374351 9.690399 3.523573 11697996
11.213902 8.867781 0.837584 11697996
10.154919 9.143193 2.857003 11697996
9.544196 9.277139 2.146802 11697996
8.736458 9.364977 0.353347 11697996
9.673120 9.492094 0.673407 11697996
9.028665 10.126775 1.877710 11697996
11.076419 10.258673 1.540750 11697996
9.365540 10.060982 0.694236 11697996
10.144642 8.794559 0.050085 11697996
9.981803 10.477447 3.039076 11697996
9.139132 9.269944 2.556921 11697996
9.313228 9.292202 0.484174 11697996
10.790615 11.167231 3.942789 11697996
9.189064 10.314627 1.547597 11697996
9.910245 9.486392 3.549267 11697996
8.784860 9.424429 2.218244 11697996
10.362453 9.690558 2.761888 11697996
9.712266 11.220720 3.799551 11697996
10.346675 10.579449 3.016663 11697996
10.536009 10.986082 3.973284 11697996
11.231399 9.083875 2.768786 11697996
9.834115 9.388837 2.461633 11697996
10.289055 10.733182 3.262555 11697996
9.523022 10.215207 3.520187 11697996
9.233773 9.970004 0.115861 11697996
10.214441 10.798245 1.695602 11697996
10.737220 10.245557 2.005521 11697996
10.911504 10.626438 1.038368 11697996
10.115037 8.851961 1.847240 11697996
10.013518 10.330296 1.230147 11697996
11.108038 9.654060 1.916489 11697996
10.476130 9.459108 3.644785 11697996
9.973783 10.060825 0.950267 11697996
10.866203 10.918225 1.261045 11697996
10.257605 9.804267 2.566527 11697996
9.725986 9.197795 3.364426 11697996
9.740970 10.896584 2.204377 11697996
9.468519 10.406304 0.873813 11697996
10.880685 10.636532 3.427105 11697996
9.267477 9.615432 2.355458 11697996
9.005656 10.744509 0.035453 11697996
9.432282 10.903001 1.938104 11697996
9.888402 8.831175 3.062805 11697996
8.800539 9.781821 2.026820 11697996
8.981131 10.614625 0.346773 11697996
8.791183 9.277577 1.211279 11697996
10.882816 9.362204 1.033735 11697996
10.921705 10.440047 3.039593 11697996
9.054100 10.871019 3.825791 11697996
10.914273 9.477610 3.014222 11697996
10.862576 8.780919 0.351278 11697996
8.997945 10.369397 1.046224 11697996
10.428697 8.844317 1.947464 11697996
9.386197 9.291457 0.087410 11697996
9.574339 9.948740 1.258177 11697996
10.754210 8.918292 1.090947 11697996
9.102763 10.531651 0.993825 11697996
10.562551 10.183742 0.439599 11697996
11.010953 9.355533 1.863404 11697996
9.077894 9.866504 1.982612 11697996
10.106723 11.124642 2.761065 11697996
8.841720 9.220934 0.632244 11697996
9.524958 10.850668 3.749784 11697996
9.260886 9.623494 2.230734 11697996
9.258354 10.429890 0.161998 11697996
10.702326 9.865542 2.518066 11697996
9.534347 8.819016 3.761716 11697996
10.915225 10.071955 1.497776 11697996
9.065256 10.384720 1.688957 11697996
9.331600 9.390123 2.044699 11697996
10.262628 8.815759 3.912812 11697996
10.027441 9.174560 3.272925 11697996
10.694146 10.077864 3.208413 11697996
11.238023 10.601659 3.796140 11697996
9.294484 9.292440 2.113812 11697996
9.530162 10.967487 3.260020 11697996
10.041148 9.353603 0.475059 11697996
9.515146 10.492096 2.353944 11697996
10.959380 8.897829 1.139954 11697996
9.676569 10.354150 1.548722 11697996
10.526588 10.426826 1.515843 11697996
9.863997 9.093426 2.520917 11697996
9.304665 10.513930 2.053417 11697996
9.213409 10.034797 0.668105 11697996
9.635224 10.460476 3.762908 11697996
10.319000 9.832138 3.630341 11697996
10.018057 9.281772 2.032491 11697996
10.609318 9.780018 0.440699 11697996
11.249485 10.547086 3.180059 11697996
10.681544 9.622966 3.250724 11697996
10.236447 10.373964 0.771849 11697996
9.593199 10.331047 2.665258 11697996
11.011373 11.132294 3.952580 11697996
11.112750 11.167159 2.018643 11697996
9.190766 9.033139 0.226368 11697996
9.763083 9.777622 3.560065 11697996
9.299323 11.110162 1.587232 11697996
8.924949 10.592648 0.440372 11697996
11.195152 10.998393 2.695859 11697996
8.856200 10.704178 1.571598 11697996
10.664661 9.412199 1.064037 11697996
10.803866 9.587821 3.150005 11697996
10.160672 10.185352 0.943264 11697996
9.080199 9.663663 2.379706 11697996
11.089235 9.106277 0.540625 11697996
9.384330 8.823418 2.211150 11697996
10.898500 10.853676 2.300128 11697996
10.424769 10.715346 3.800023 11697996
9.427430 10.944803 0.975994 11697996
9.297424 10.228486 3.485481 11697996
10.339778 9.488476 2.906978 11697996
10.611823 10.460667 3.650235 11697996
8.861416 11.118425 1.197711 11697996
9.531265 10.183459 1.088745 11697996
9.624808 10.042418 3.169988 11697996
10.700603 10.358315 3.203918 11697996
10.134413 9.551784 0.169002 11697996
9.046146 8.929522 0.023644 11697996
9.515163 10.231362 1.444688 11697996
10.618508 9.598610 3.520084 11697996
9.104538 11.188726 0.562250 11697996
9.569667 11.145580 0.463946 11697996
10.734749 8.842059 1.560930 11697996
10.431810 10.812634 2.153347 11697996
11.209855 10.936563 3.026690 11697996
11.118887 8.907168 2.599200 11697996
9.915429 10.791038 3.917260 11697996
9.458576 10.415372 3.938974 11697996
9.141597 9.190280 3.169541 11697996
9.145650 10.558016 3.405368 11697996
10.962413 11.052521 2.819889 11697996
9.562771 10.433885 2.062635 11697996
9.372316 10.001745 3.717723 11697996
10.924727 9.734463 3.814856 11697996
9.584443 9.042927 0.389511 11697996
9.101888 9.174946 0.541249 11697996
9.510571 9.057215 1.376805 11697996
9.727045 10.333240 3.254384 11697996
10.819447 9.328332 0.751717 11697996
9.065953 10.175018 1.992960 11697996
9.507359 10.519304 1.099309 11697996
10.118241 9.235337 2.726577 11697996
9.462319 10.193801 0.004383 11697996
9.406322 9.176811 0.233670 11697996
10.827675 9.853949 1.496273 11697996
9.840208 10.774238 0.158660 11697996
8.981822 9.726270 0.897862 11697996
10.161317 9.450867 2.075416 11697996
10.906351 9.228137 1.055398 11697996
8.855113 10.267291 1.829812 11697996
8.794887 10.999743 3.600379 11697996
10.605044 9.087195 2.354381 11697996
9.294295 10.949287 1.810930 11697996
10.596898 9.929895 0.521161 11697996
9.470357 9.125465 3.750379 11697996
10.305753 10.301579 0.042974 11697996
10.686754 9.004410 3.678581 11697996
9.137867 11.101621 3.960033 11697996
10.244965 9.303098 1.970675 11697996
8.782523 8.995215 3.685319 11697996
10.281895 9.267463 2.680595 11697996
9.758747 9.995355 3.958667 11697996
8.794603 9.838212 1.493352 11697996
9.266251 10.443690 2.160423 11697996
9.639257 10.684010 2.769532 11697996
9.316196 9.847080 2.116133 11697996
8.774790 10.259583 3.215261 11697996
9.299940 10.960564 0.106507 11697996
8.818553 9.458341 2.486981 11697996
10.856377 9.807092 1.541499 11697996
10.268693 9.769632 1.784000 11697996
10.472441 10.035784 2.336852 11697996
10.131062 9.182872 2.939271 11697996
10.095449 10.307752 3.506227 11697996
9.142342 10.122926 1.004248 11697996
9.335488 8.838606 2.595345 11697996
11.242482 11.133698 1.219500 11697996
9.110726 10.177670 2.608932 11697996
9.658653 9.699484 2.757585 11697996
9.376575 9.769930 1.734928 11697996
9.393539 10.851144 3.583514 11697996
10.729711 8.838816 2.810123 11697996
10.158603 9.365099 1.589268 11697996
10.929512 10.733915 3.835888 11697996
9.102695 9.431639 3.361811 11697996
10.081829 9.639063 0.868630 11697996
9.222537 10.965694 0.481071 11697996
9.015962 10.976882 1.953608 11697996
10.909098 10.831600 1.309094 11697996
9.893356 9.255337 3.177857 11697996
10.359008 9.829268 1.354599 11697996
10.314713 9.890333 3.922592 11697996
9.448103 9.093882 3.569348 11697996
9.792503 10.462532 3.214859 11697996
8.977001 9.826632 2.820600 11697996
10.369951 10.981441 0.438459 11697996
10.122199 10.973240 3.003766 11697996
9.001844 9.489131 0.296416 11697996
8.736125 10.162298 0.979584 11697996
9.689977 10.652578 0.546499 11697996
10.371611 10.176508 3.285286 11697996
9.175987 10.211062 3.669707 11697996
11.227769 10.308026 2.517066 11697996
10.930221 10.047000 2.848287 11697996
10.166487 9.975054 0.111097 11697996
10.522138 9.450889 1.630578 11697996
9.084671 9.131753 0.502461 11697996
8.877924 10.922956 0.513891 11697996
9.090042 10.183152 2.232572 11697996
9.798711 10.606838 2.033299 11697996
10.889146 9.400438 3.380687 11697996
9.000987 10.751579 2.047079 11697996
8.819731 10.108043 2.760978 11697996
9.763561 10.077605 0.629113 11697996
10.757324 10.701193 0.461025 11697996
9.344730 10.087078 3.219825 11697996
8.788461 8.943667 1.697342 11697996
9.649769 9.717141 1.409521 11697996
9.569543 11.148392 2.494817 11697996
11.047508 9.865542 2.826442 11697996
9.444814 9.417438 2.554162 11697996
9.316428 9.603231 1.675505 11697996
10.543476 11.220602 0.391016 11697996
9.248725 8.914669 3.421925 11697996
10.576939 9.785598 2.314840 11697996
9.992758 10.639079 1.585185 11697996
9.824447 11.143677 2.131186 11697996
10.599653 10.988078 2.312161 11697996
9.748420 11.076416 3.408229 11697996
10.095420 8.974228 0.090543 11697996
9.779432 10.451359 1.642430 11697996
8.847866 9.745320 2.770286 11697996
10.105306 9.900271 2.365598 11697996
10.946549 9.899692 1.831130 11697996
10.121093 10.665361 1.093766 11697996
9.290367 9.002491 3.216062 11697996
9.646746 9.635937 0.805646 11697996
9.791281 10.159557 1.027155 11697996
10.052259 9.924041 2.431167 11697996
11.231198 10.532416 3.323005 11697996
9.639034 9.987434 1.919637 11697996
10.661156 8.845547 0.215939 11697996
11.150007 9.299127 0.023788 11697996
11.108862 9.336910 0.853594 11697996
9.764446 10.280330 1.570132 11697996
10.417603 8.987297 0.670512 11697996
11.105288 8.887297 2.784100 11697996
11.216984 9.411355 3.291328 11697996
11.116338 9.222810 2.100087 11697996
11.182456 10.739943 3.945457 11697996
10.566288 9.726952 2.560987 11697996
10.085076 10.156543 0.321165 11697996
10.799362 10.441654 1.369790 11697996
9.508164 8.820583 1.560102 11697996
9.346533 9.953589 3.403992 11697996
10.677771 10.553946 2.085154 11697996
10.879053 8.808953 2.312239 11697996
9.043785 8.874645 3.412767 11697996
10.223334 10.764130 0.390277 11697996
11.111286 10.928603 3.465836 11697996
10.657232 10.438354 3.068334 11697996
9.353432 10.004334 3.424423 11697996
10.432615 11.056611 0.767064 11697996
10.089165 9.383169 0.891397 11697996
10.588202 10.380187 1.703964 11697996
10.029257 10.150849 3.373572 11697996
9.631628 10.009679 2.754117 11697996
10.511708 9.174569 1.189787 11697996
9.956240 9.575722 1.778664 11697996
10.751054 10.231560 1.775972 11697996
10.718078 11.041177 0.926947 11697996
11.085835 9.838117 2.042650 11697996
10.447965 10.180369 1.522754 11697996
11.011290 9.270366 3.916909 11697996
9.176378 9.712223 2.564087 11697996
10.525420 10.309074 2.324133 11697996
9.570163 10.827169 1.728001 11697996
10.504001 9.530704 3.950386 11697996
10.292838 10.328155 1.573413 11697996
9.278502 9.769372 0.321244 11697996
8.999637 10.670490 2.507641 11697996
11.064148 11.017803 2.997024 11697996
9.258005 9.530150 0.110359 11697996
9.397890 10.484015 2.599027 11697996
9.259577 10.054422 0.017710 11697996
10.371341 9.604122 0.302151 11697996
9.919148 11.039217 1.131845 11697996
10.082442 9.907695 0.956693 11697996
9.969312 9.882295 1.780941 11697996
8.959539 9.072585 0.525855 11697996
10.219619 10.356004 3.610048 11697996
10.780051 10.463781 1.539490 11697996
9.274580 10.562048 3.053113 11697996
8.950831 9.324340 3.922004 11697996
9.266802 9.391633 3.761319 11697996
10.526122 10.309770 0.148095 11697996
11.193398 11.048208 2.795593 11697996
10.154621 10.408260 4.018490 11697996
9.007266 11.024446 2.456025 11697996
9.957474 10.592970 1.053544 11697996
10.728601 10.407558 0.997781 11697996
10.309000 9.896275 1.937612 11697996
9.253657 9.863003 3.132519 11697996
10.849393 9.980222 1.319793 11697996
11.230892 8.830728 0.164233 11697996
9.280237 9.569633 1.883842 11697996
9.458377 10.223488 3.922739 11697996
10.612739 10.945574 2.730327 11697996
9.797022 9.420922 2.245237 11697996
11.191139 10.715729 1.658366 11697996
9.077806 10.773247 0.275572 11697996
9.652196 9.693074 0.149652 11697996
9.719933 9.016261 2.230315 11697996
9.838911 11.035883 3.575549 11697996
10.632464 9.155404 3.452078 11697996
9.449923 10.177539 1.885527 11697996
9.655894 9.862378 3.400274 11697996
10.197792 9.583070 3.201319 11697996
10.919276 8.788800 0.621048 11697996
10.180802 9.806141 1.631970 11697996
9.447896 9.011487 3.395424 11697996
10.080557 10.791899 2.314606 11697996
10.124453 9.861296 3.418811 11697996
9.795252 9.067880 3.019210 11697996
11.168172 9.579823 1.225126 11697996
9.202055 9.654160 2.767103 11697996
9.139773 10.011866 1.873357 11697996
11.031169 10.272880 3.434090 11697996
9.069044 9.577415 0.187115 11697996
10.606462 9.770279 1.405062 11697996
11.024857 10.131761 0.071936 11697996
10.421559 10.181977 2.308001 11697996
10.443402 10.560215 2.562245 11697996
10.938011 9.791144 3.726140 11697996
9.419598 10.760965 3.113603 11697996
8.835874 9.788843 3.766194 11697996
10.415775 9.073357 0.420298 11697996
8.898274 9.596080 0.125009 11697996
10.959939 9.918050 1.925225 11697996
10.408796 10.323362 1.402423 11697996
9.014144 9.198468 1.541824 11697996
11.032576 8.935968 1.377256 11697996
9.205593 10.461057 1.175300 11697996
9.553557 11.035907 0.752616 11697996
10.644309 10.987519 2.842706 11697996
11.129896 10.735594 0.172330 11697996
9.149150 8.865678 0.251703 11697996
9.885706 10.015726 3.862509 11697996
10.471432 9.552733 2.696234 11697996
11.066373 10.838238 2.934850 11697996
9.983062 10.743930 0.072695 11697996
10.308761 9.035321 0.288691 11697996
10.405210 10.931809 0.972284 11697996
8.788072 9.462708 0.750714 11697996
9.333834 11.059865 1.248475 11697996
10.722727 9.002441 1.542778 11697996
10.000118 10.623146 0.429150 11697996
10.677548 9.843338 1.716988 11697996
10.250994 10.068873 3.919067 11697996
10.623556 9.398355 3.062631 11697996
10.147805 11.150321 0.318250 11697996
9.021177 9.885099 1.714576 11697996
9.559059 10.092739 3.799127 11697996
9.752804 10.796888 1.231604 11697996
11.018823 11.020376 0.418886 11697996
10.278569 9.196271 2.167223 11697996
8.742005 9.145551 1.838580 11697996
8.764298 9.231511 1.242271 11697996
8.883242 9.535735 2.089707 11697996
9.314575 10.863320 1.802138 11697996
9.019226 10.306290 2.121357 11697996
8.985434 10.690161 1.963277 11697996
9.165694 10.565657 0.344774 11697996
10.076818 11.193362 2.683153 11697996
9.276159 10.140350 3.531475 11697996
11.081840 10.554535 2.625734 11697996
10.746392 9.799375 0.657075 11697996
9.615287 8.984640 2.041280 11697996
10.343680 10.296563 3.036494 11697996
10.179358 9.211040 1.936471 11697996
11.220547 9.875378 1.979519 11697996
11.056932 9.231489 2.216928 11697996
9.967914 11.063396 1.756134 11697996
11.218394 9.514285 1.474942 11697996
9.979509 9.172586 1.399145 11697996
10.685164 10.567486 3.138416 11697996
11.108023 11.164364 3.783598 11697996
9.930744 9.183025 3.619581 11697996
11.192355 11.152032 0.607643 11697996
9.195772 9.261315 3.878122 11697996
10.826657 10.244102 2.568960 11697996
10.135171 10.174063 0.357898 11697996
9.822768 10.252050 0.587939 11697996
10.358913 8.749472 0.283811 11697996
10.476984 9.631371 2.686006 11697996
9.478758 9.147938 2.359241 11697996
8.737411 10.498924 3.931365 11697996
10.875166 10.088429 2.873420 11697996
10.587462 11.026223 3.487656 11697996
9.114379 9.703950 3.667118 11697996
8.791096 9.453979 0.851472 11697996
9.304107 10.793266 2.006113 11697996
10.169828 9.552862 2.911288 11697996
9.647463 9.818422 0.647908 11697996
11.080198 9.787539 2.106020 11697996
10.074414 10.328874 2.298579 11697996
10.744439 11.125836 1.866029 11697996
10.170826 9.672168 3.250150 11697996
8.843601 9.220849 0.257184 11697996
10.763940 9.783049 3.103870 11697996
11.201239 8.825168 0.998836 11697996
9.701919 10.495033 2.712695 11697996
10.893444 10.565075 1.870727 11697996
9.818970 10.801088 3.961474 11697996
10.673249 10.440492 0.147697 11697996
11.062429 9.019080 1.040309 11697996
10.214278 9.203188 0.988505 11697996
10.224362 11.132054 2.407914 11697996
9.500876 11.000215 0.783321 11697996
9.589579 10.591890 0.757329 11697996
9.047080 8.962557 1.467201 11697996
10.754235 9.797883 2.747240 11697996
10.450576 10.001079 2.188685 11697996
10.581039 8.836452 2.525829 11697996
9.011637 11.157075 1.054535 11697996
9.616485 10.143864 3.556974 11697996
9.652955 10.946654 2.886165 11697996
10.581829 9.139879 0.985647 11697996
8.861609 9.122791 1.161676 11697996
11.072076 10.681354 1.729624 11697996
8.946091 9.656238 3.331962 11697996
10.718047 9.115483 2.211049 11697996
10.644767 9.874109 3.814720 11697996
8.871668 9.395433 1.905547 11697996
9.980716 9.264533 1.348364 11697996
10.593211 9.916914 0.786843 11697996
9.552692 10.776983 3.145143 11697996
9.234552 9.559582 3.061039 11697996
10.189336 9.461983 2.905397 11697996
11.198029 9.865266 0.514004 11697996
10.832091 9.469483 0.497161 11697996
10.001263 11.170143 0.793007 11697996
9.609889 9.370707 0.576881 11697996
9.523918 9.590610 3.611938 11697996
9.759869 9.365882 3.488455 11697996
9.835186 9.968195 3.161710 11697996
9.235067 9.772336 2.392738 11697996
9.614318 9.365755 1.796663 11697996
8.783113 9.990923 0.793384 11697996
10.840633 10.549634 0.118147 11697996
8.878286 10.679569 0.355589 11697996
11.109436 11.185570 3.641669 11697996
10.431002 9.272357 1.186704 11697996
10.342636 8.878811 3.467905 11697996
11.140031 11.273829 3.826875 11697996
10.985043 9.791787 1.158563 11697996
11.077687 9.335387 2.876711 11697996
10.025382 10.881049 3.844440 11697996
9.987949 9.949344 2.974515 11697996
10.654174 11.026839 1.481047 11697996
9.923019 10.918724 0.910192 11697996
9.778978 9.636973 2.258287 11697996
10.744147 9.325630 3.297471 11697996
9.493270 9.723491 0.285442 11697996
10.514727 9.119519 2.411841 11697996
8.860155 9.348826 1.333762 11697996
10.576854 9.542126 3.672576 11697996
11.085077 9.087766 1.230859 11697996
10.324020 8.798656 1.716737 11697996
10.903606 10.702064 2.740551 11697996
9.593462 8.973189 1.292844 11697996
8.811265 9.682001 0.370921 11697996
8.831932 9.078444 3.164703 11697996
10.593853 10.724970 2.077555 11697996
10.462690 9.846576 1.356441 11697996
10.382897 8.985390 3.751166 11697996
10.354406 10.714561 2.367226 11697996
11.010643 8.817328 0.148066 11697996
9.034472 9.517817 2.726138 11697996
10.502467 9.755826 2.978013 11697996
10.762456 10.251388 3.118130 11697996
10.423666 9.033339 1.384482 11697996
10.113888 9.671570 2.025526 11697996
9.553572 11.051493 1.925701 11697996
9.752265 9.507092 1.387710 11697996
9.282093 10.511770 3.817860 11697996
10.891692 9.662786 0.689940 11697996
9.789989 10.571768 2.644434 11697996
8.866177 9.863769 1.614031 11697996
10.276616 10.295638 3.753902 11697996
8.755085 9.758615 1.661010 11697996
9.406081 10.178862 1.822969 11697996
9.446894 9.571046 0.038432 11697996
9.903996 10.174886 1.847895 11697996
9.453374 8.768079 2.168674 11697996
9.443874 10.133769 0.423666 11697996
9.331407 8.780926 3.935613 11697996
8.966064 10.403541 2.375870 11697996
9.604045 10.061235 1.686170 11697996
9.272637 9.860574 0.895952 11697996
10.769584 10.814180 1.399588 11697996
11.164060 9.869177 3.180597 11697996
10.549165 10.217329 1.264965 11697996
8.948018 10.569876 3.712934 11697996
10.537942 10.230777 2.752593 11697996
9.704814 9.262655 3.508818 11697996
10.977360 11.148107 0.951537 11697996
10.408631 10.661923 2.636564 11697996
10.199906 10.649893 1.211336 11697996
10.497744 9.482510 2.211361 11697996
9.907756 9.345186 0.047845 11697996
9.597408 10.695598 0.606388 11697996
10.352757 9.264970 0.292767 11697996
9.011576 10.783134 0.502725 11697996
10.405843 10.906546 1.975344 11697996
10.061509 9.035082 2.667987 11697996
10.179008 9.213293 3.765710 11697996
10.841697 9.838324 2.886159 11697996
10.307074 11.168680 1.066968 11697996
10.969249 9.066521 0.515097 11697996
11.145944 10.014721 1.449046 11697996
9.378572 10.222227 3.551211 11697996
9.064421 8.791460 1.261742 11697996
10.371611 10.548562 1.338645 11697996
8.924639 8.895638 3.263639 11697996
10.247292 9.194625 3.900587 11697996
9.127851 10.338082 2.641453 11697996
9.224140 9.802434 0.671904 11697996
9.842998 11.082339 3.344013 11697996
8.984202 10.309895 3.276251 11697996
8.810350 11.246619 2.911660 11697996
9.395947 10.302722 3.557281 11697996
11.145249 11.202014 0.496230 11697996
8.956040 9.263899 0.634750 11697996
10.253722 9.000745 3.659508 11697996
10.443312 11.063334 0.599795 11697996
8.751866 9.841049 3.681896 11697996
10.126998 10.389221 3.545878 11697996
9.595826 10.209729 1.103682 11697996
9.728277 8.785929 3.113822 11697996
10.014261 9.526447 3.121077 11697996
10.534822 9.816994 2.867387 11697996
9.374292 8.986968 1.066517 11697996
10.792384 11.080107 1.595412 11697996
9.950406 9.317863 3.098308 11697996
10.364157 9.437823 1.339137 11697996
10.394575 10.919102 3.328320 11697996
8.827579 9.659605 1.882490 11697996
9.230452 10.813758 3.042227 11697996
9.397862 10.758438 1.295888 11697996
9.341731 9.907441 2.379338 11697996
11.126138 9.024963 0.203681 11697996
10.083725 8.992724 1.863790 11697996
10.668730 9.905396 1.095950 11697996
10.328712 10.165116 0.621223 11697996
10.961225 9.685715 3.106746 11697996
8.876775 10.625892 1.591133 11697996
10.214512 9.616657 3.029034 11697996
9.027580 10.522977 3.411119 11697996
10.262304 10.459513 0.013137 11697996
9.070448 10.393208 2.135325 11697996
9.836418 10.516411 1.648297 11697996
10.069983 9.833743 1.482771 11697996
10.852020 9.910542 1.279639 11697996
9.493427 8.980853 1.812185 11697996
10.606380 9.223789 2.179664 11697996
11.210790 10.367270 3.127050 11697996
11.220087 9.339713 3.477946 11697996
9.943370 9.062755 1.585589 11697996
10.961650 9.810967 1.115664 11697996
11.257580 10.090972 0.374095 11697996
9.853983 8.757241 2.289428 11697996
10.046580 9.469026 2.375626 11697996
10.000433 10.741071 1.727776 11697996
9.916069 9.957320 2.856750 11697996
9.968272 10.673857 3.801229 11697996
10.721274 9.311939 2.480780 11697996
9.463131 8.937016 0.267220 11697996
9.347058 8.871531 0.476048 11697996
9.068137 10.614997 3.205782 11697996
8.970367 9.541042 3.353049 11697996
10.121108 11.003731 0.130863 11697996
8.753014 10.490196 3.776870 11697996
10.320912 8.849508 3.575699 11697996
9.279872 10.567128 1.777691 11697996
9.458288 10.886895 1.901469 11697996
8.958120 9.914789 0.196905 11697996
10.446868 9.449097 2.724276 11697996
10.501576 9.629719 3.281853 11697996
10.278077 9.750127 0.826023 11697996
9.234053 10.142952 0.245692 11697996
8.825450 10.345590 0.937930 11697996
10.473872 11.236331 3.573134 11697996
9.042286 8.934848 2.867375 11697996
9.517034 10.368870 3.739668 11697996
8.792474 10.021630 2.459061 11697996
10.773861 10.591438 3.422326 11697996
11.036772 11.203300 3.663852 11697996
10.484335 8.793189 0.939586 11697996
8.947697 10.324839 0.059097 11697996
9.102593 9.405363 0.709056 11697996
9.249995 8.923526 0.340472 11697996
9.606700 9.199943 0.258320 11697996
10.889477 10.295993 1.692496 11697996
9.839630 10.240925 3.608698 11697996
9.147511 9.805288 1.780654 11697996
9.927465 9.446310 1.255423 11697996
9.368982 9.144346 1.488521 11697996
10.193249 10.478511 3.082478 11697996
10.115706 9.917139 0.759202 11697996
11.033974 9.084634 1.667165 11697996
8.762461 10.472850 0.271137 11697996
10.460636 11.116442 2.037601 11697996
9.879248 9.568758 1.726631 11697996
11.198990 10.156681 0.753076 11697996
9.830244 9.164005 1.821384 11697996
9.786082 9.662334 2.925883 11697996
10.746368 9.434426 3.007223 11697996
10.590215 8.744085 2.908651 11697996
10.598596 10.586921 2.352025 11697996
9.365569 9.878930 3.232823 11697996
10.365561 10.693209 2.634210 11697996
10.355156 10.545881 2.528412 11697996
8.769531 8.886662 0.484216 11697996
10.185293 9.002186 2.575448 11697996
9.944059 10.287326 1.988904 11697996
9.769183 11.188564 2.461244 11697996
8.759211 9.430885 0.018846 11697996
10.608619 9.453689 0.363806 11697996
-9.812289 -10.518732 0.694052 6730418
-10.232991 -10.963769 1.068778 6730418
-10.569706 -9.882957 2.187548 6730418
-10.395524 -9.383172 0.340730 6730418
-9.683129 -9.579612 1.834917 6730418
-9.902900 -9.363065 2.434899 6730418
-9.978698 -10.274538 2.942388 6730418
-9.647873 -9.388115 0.198830 6730418
-9.563417 -9.696767 2.431925 6730418
-9.413703 -10.300558 0.286006 6730418
-10.757590 -9.756113 1.200224 6730418
-9.437282 -10.363483 2.018186 6730418
