# .PCD v0.7 - Point Cloud Data file format
VERSION 0.7
FIELDS x y z rgb
SIZE 4 4 4 4
TYPE F F F U
COUNT 1 1 1 1
WIDTH 1270
HEIGHT 1
VIEWPOINT 0 0 0 1 0 0 0
POINTS 1270
DATA ascii
8.859095 10.265538 1.884030 11697996
8.785701 11.003968 3.569010 11697996
10.623424 9.068905 2.360071 11697996
9.310439 10.920924 1.782808 11697996
10.593041 9.896843 0.517229 11697996
9.476022 9.117510 3.709471 11697996
10.292315 10.291451 0.053839 11697996
10.718436 9.018191 3.701905 11697996
9.113165 11.138142 3.966629 11697996
10.275438 9.300599 1.949576 11697996
8.795634 9.005187 3.672141 11697996
10.291088 9.243024 2.655660 11697996
9.730444 10.020904 3.946025 11697996
8.761420 9.789444 1.455547 11697996
9.273842 10.485621 2.113743 11697996
9.649357 10.691527 2.751422 11697996
9.297856 9.858504 2.154646 11697996
8.772714 10.265556 3.219471 11697996
9.311285 10.954871 0.101540 11697996
8.807637 9.444292 2.489935 11697996
10.866884 9.802316 1.531126 11697996
10.257320 9.769557 1.793453 11697996
10.444145 10.073440 2.356652 11697996
10.150016 9.211326 2.914515 11697996
10.114355 10.309617 3.522727 11697996
9.138851 10.088402 1.000030 11697996
9.351238 8.848642 2.596419 11697996
11.231236 11.130075 1.203840 11697996
9.107436 10.167033 2.638655 11697996
9.660934 9.697674 2.717935 11697996
9.350970 9.784862 1.685853 11697996
9.381530 10.852360 3.587142 11697996
10.702229 8.858847 2.780893 11697996
10.172896 9.350763 1.570971 11697996
10.949410 10.721086 3.832396 11697996
9.113935 9.463492 3.372060 11697996
10.059023 9.654023 0.863540 11697996
9.242514 10.934628 0.433638 11697996
9.040684 11.006272 1.955691 11697996
10.945555 10.821154 1.355058 11697996
9.881364 9.279004 3.213311 11697996
10.374841 9.817761 1.374721 11697996
10.298044 9.870153 3.927641 11697996
9.424606 9.077169 3.574867 11697996
9.730478 10.454142 3.223633 11697996
9.023830 9.836349 2.838548 11697996
10.346853 11.016691 0.413007 11697996
10.103622 10.942935 3.015291 11697996
9.006768 9.489225 0.258330 11697996
8.794640 10.172982 0.969748 11697996
9.680307 10.650492 0.574460 11697996
10.387516 10.161452 3.316872 11697996
9.146778 10.248365 3.650298 11697996
11.246358 10.319291 2.500599 11697996
10.956244 10.022821 2.841080 11697996
10.180137 9.979107 0.105804 11697996
10.551277 9.448378 1.643831 11697996
9.094829 9.115210 0.506606 11697996
8.909635 10.890868 0.492662 11697996
9.080335 10.185404 2.270821 11697996
9.801196 10.583736 2.021404 11697996
10.934196 9.409958 3.352738 11697996
9.003976 10.766354 2.027400 11697996
8.841589 10.133237 2.739700 11697996
9.752228 10.114093 0.640725 11697996
10.744331 10.696704 0.478342 11697996
9.352329 10.110663 3.249689 11697996
8.758214 8.941454 1.709818 11697996
9.616297 9.727387 1.418853 11697996
9.591677 11.143613 2.496563 11697996
11.062722 9.883072 2.846812 11697996
9.456551 9.437045 2.570047 11697996
9.323788 9.588847 1.689374 11697996
10.536187 11.201814 0.390112 11697996
9.255644 8.926680 3.400951 11697996
10.568051 9.788818 2.329897 11697996
10.010158 10.667360 1.610389 11697996
9.820184 11.150272 2.156233 11697996
10.621128 10.992259 2.298823 11697996
9.722104 11.073339 3.425774 11697996
10.118142 8.968290 0.088844 11697996
9.743507 10.450477 1.645595 11697996
8.849104 9.758087 2.773012 11697996
10.140315 9.897748 2.381766 11697996
10.995099 9.889468 1.852992 11697996
10.107864 10.679813 1.090825 11697996
9.257230 8.976880 3.212233 11697996
9.632641 9.623495 0.830094 11697996
9.763331 10.156533 1.012828 11697996
10.019370 9.946253 2.429913 11697996
11.214681 10.511392 3.320553 11697996
9.606724 9.965581 1.909437 11697996
10.669702 8.834833 0.222423 11697996
11.146298 9.344385 -0.002207 11697996
11.119305 9.321836 0.803745 11697996
9.746576 10.288100 1.559796 11697996
10.411925 8.982498 0.646090 11697996
11.118163 8.888522 2.786181 11697996
11.182204 9.418701 3.282250 11697996
11.071821 9.212181 2.074386 11697996
11.163197 10.748649 3.937735 11697996
10.542648 9.722760 2.567104 11697996
10.106447 10.155762 0.329872 11697996
10.835680 10.468559 1.383908 11697996
9.523280 8.792101 1.572832 11697996
9.313881 9.960549 3.431412 11697996
10.702114 10.539165 2.092082 11697996
10.866140 8.824108 2.284487 11697996
9.041492 8.902683 3.385287 11697996
10.206069 10.746514 0.441110 11697996
11.141181 10.952304 3.465383 11697996
10.640962 10.439812 3.072226 11697996
9.333408 9.974600 3.368223 11697996
10.411799 11.081113 0.771963 11697996
10.068172 9.364666 0.889559 11697996
10.579062 10.384313 1.666626 11697996
10.013923 10.153809 3.388458 11697996
9.620836 10.022156 2.760941 11697996
10.499172 9.148493 1.188639 11697996
9.993434 9.570947 1.769396 11697996
10.766394 10.214229 1.749453 11697996
10.695284 11.045512 0.921988 11697996
11.090506 9.875401 2.062491 11697996
10.487859 10.166206 1.517738 11697996
11.069510 9.235069 3.905982 11697996
9.181059 9.681922 2.576988 11697996
10.518269 10.284965 2.328120 11697996
9.545494 10.815820 1.734650 11697996
10.487549 9.511703 3.925774 11697996
10.319549 10.343065 1.611784 11697996
9.284270 9.761467 0.286804 11697996
9.020419 10.632312 2.511364 11697996
11.069820 10.943810 2.976155 11697996
9.299084 9.505757 0.116237 11697996
9.420756 10.499731 2.593223 11697996
9.243792 10.054937 -0.003718 11697996
10.379890 9.599240 0.296066 11697996
9.903550 11.037014 1.120957 11697996
10.095830 9.866838 0.965906 11697996
9.946980 9.895519 1.803696 11697996
8.939342 9.034368 0.528919 11697996
10.155985 10.360241 3.595945 11697996
10.825682 10.471506 1.538910 11697996
9.316921 10.506166 3.038522 11697996
8.987636 9.307767 3.952397 11697996
9.267925 9.375587 3.719250 11697996
10.480838 10.319209 0.137808 11697996
11.224632 11.053621 2.784124 11697996
10.128394 10.439411 3.969831 11697996
9.016027 11.033044 2.424143 11697996
9.972656 10.594316 1.099726 11697996
10.743371 10.437906 0.994835 11697996
10.286975 9.874858 1.928859 11697996
9.246150 9.876781 3.107302 11697996
10.845192 9.984649 1.258170 11697996
11.236996 8.831211 0.161525 11697996
9.292116 9.579613 1.886837 11697996
9.437370 10.232994 3.929678 11697996
10.616668 10.917829 2.754468 11697996
9.793170 9.413503 2.222995 11697996
11.178883 10.743197 1.629293 11697996
9.090931 10.813180 0.274587 11697996
9.668653 9.679359 0.164229 11697996
9.731236 9.036137 2.284076 11697996
9.858574 11.043411 3.555083 11697996
10.622375 9.122522 3.454574 11697996
9.475022 10.155041 1.885899 11697996
9.660186 9.850390 3.403903 11697996
10.230591 9.590912 3.210181 11697996
10.886271 8.787843 0.603894 11697996
10.154358 9.823965 1.628141 11697996
9.452222 9.014352 3.401565 11697996
10.107850 10.811492 2.299706 11697996
10.157617 9.877177 3.368667 11697996
9.778399 9.084072 3.025722 11697996
11.169021 9.562930 1.212400 11697996
9.188857 9.640243 2.747841 11697996
9.115334 10.071892 1.831205 11697996
11.035957 10.272791 3.399862 11697996
9.053134 9.593095 0.225332 11697996
10.625508 9.796546 1.380512 11697996
11.012119 10.145159 0.072468 11697996
10.420989 10.171792 2.319908 11697996
10.408021 10.591108 2.596846 11697996
10.947573 9.796535 3.750694 11697996
9.434603 10.756341 3.111984 11697996
8.793118 9.782056 3.757754 11697996
10.432646 9.078186 0.414855 11697996
8.905986 9.586057 0.131747 11697996
10.946171 9.929315 1.894222 11697996
10.380952 10.301063 1.403335 11697996
9.032696 9.186062 1.555610 11697996
11.048937 8.985639 1.413722 11697996
9.214473 10.495364 1.200048 11697996
9.564058 10.992212 0.757621 11697996
10.624577 10.946729 2.820350 11697996
11.146398 10.756686 0.143702 11697996
9.158247 8.878966 0.261657 11697996
9.905798 10.002312 3.870109 11697996
10.438660 9.563490 2.695896 11697996
11.051758 10.861349 2.954129 11697996
10.014810 10.797689 0.093081 11697996
10.321176 9.043834 0.262182 11697996
10.392056 10.959757 0.977945 11697996
8.760861 9.421728 0.775733 11697996
9.330431 11.061307 1.251657 11697996
10.718208 9.010880 1.541607 11697996
10.022820 10.651993 0.401819 11697996
10.704193 9.838814 1.716346 11697996
10.269408 10.079211 3.915092 11697996
10.626418 9.430597 3.057989 11697996
10.149373 11.136759 0.291333 11697996
8.966105 9.868642 1.696308 11697996
9.553128 10.154509 3.807017 11697996
9.739964 10.770141 1.253080 11697996
11.040634 11.037101 0.397214 11697996
10.247547 9.167286 2.127936 11697996
8.770667 9.132603 1.869775 11697996
8.768990 9.211659 1.245867 11697996
8.848828 9.546121 2.063473 11697996
9.352442 10.834066 1.772722 11697996
9.044941 10.301001 2.122057 11697996
8.963778 10.635814 1.975366 11697996
9.146576 10.530728 0.342287 11697996
10.122623 11.167873 2.677719 11697996
9.294716 10.142660 3.517171 11697996
11.090174 10.559384 2.627613 11697996
10.702086 9.760530 0.671218 11697996
9.626950 9.006155 2.043287 11697996
10.366372 10.322756 3.028540 11697996
10.186329 9.181855 1.908951 11697996
11.238597 9.830029 1.963840 11697996
11.043463 9.221064 2.206810 11697996
9.953504 11.029974 1.751648 11697996
11.207821 9.479697 1.468890 11697996
9.987909 9.172247 1.360532 11697996
10.669870 10.590906 3.140838 11697996
11.068743 11.166718 3.777825 11697996
9.913752 9.170605 3.636075 11697996
11.218099 11.184865 0.636186 11697996
9.189724 9.248019 3.885646 11697996
10.812343 10.254534 2.566470 11697996
10.147142 10.173909 0.353006 11697996
9.832684 10.254224 0.560285 11697996
10.370768 8.735579 0.304856 11697996
10.467195 9.637142 2.666000 11697996
9.442042 9.168262 2.357554 11697996
8.758997 10.489855 3.912086 11697996
10.846687 10.096759 2.867300 11697996
10.556338 11.036453 3.470741 11697996
9.114747 9.715640 3.634188 11697996
8.795748 9.458614 0.836863 11697996
9.350354 10.829389 2.041227 11697996
10.166665 9.514470 2.935448 11697996
9.649084 9.824852 0.629948 11697996
11.077478 9.791155 2.136224 11697996
10.100052 10.348560 2.285441 11697996
10.778541 11.158473 1.871415 11697996
10.199209 9.673356 3.208908 11697996
8.825773 9.200056 0.262753 11697996
10.746768 9.811456 3.127373 11697996
11.192982 8.815287 1.043712 11697996
9.709390 10.495566 2.726415 11697996
10.903670 10.565617 1.873255 11697996
9.793815 10.798933 3.963612 11697996
10.628872 10.417977 0.151396 11697996
11.061264 9.031632 1.046163 11697996
10.217243 9.196927 0.985101 11697996
10.215368 11.145777 2.438115 11697996
9.514244 10.999677 0.788174 11697996
9.583556 10.589208 0.779372 11697996
9.065133 8.966967 1.461263 11697996
10.724856 9.792535 2.739086 11697996
10.472214 9.980079 2.196381 11697996
10.583770 8.860776 2.507875 11697996
9.017406 11.180854 1.075763 11697996
9.591459 10.136232 3.503452 11697996
9.650358 10.944615 2.891549 11697996
10.546885 9.139214 0.956838 11697996
8.813866 9.139156 1.172884 11697996
11.098897 10.719806 1.721798 11697996
8.960130 9.632905 3.339253 11697996
10.690408 9.119370 2.221957 11697996
10.688844 9.866719 3.813740 11697996
8.878644 9.411237 1.885520 11697996
10.020046 9.274575 1.389740 11697996
10.574048 9.934093 0.765165 11697996
9.543499 10.776881 3.164752 11697996
9.234768 9.573880 3.052521 11697996
10.183402 9.468222 2.909322 11697996
11.217940 9.854420 0.534075 11697996
10.858552 9.463619 0.512336 11697996
10.014326 11.168644 0.807448 11697996
9.613832 9.353512 0.568285 11697996
9.512379 9.594807 3.605069 11697996
9.757195 9.380648 3.482411 11697996
9.822792 9.972587 3.143689 11697996
9.242976 9.777349 2.381641 11697996
9.586660 9.348892 1.795884 11697996
8.789260 10.008075 0.807953 11697996
10.842955 10.540664 0.095200 11697996
8.888343 10.688823 0.370064 11697996
11.111091 11.200000 3.621924 11697996
10.404790 9.252444 1.197530 11697996
10.341566 8.883342 3.463437 11697996
11.154663 11.237529 3.804049 11697996
10.957376 9.773722 1.176384 11697996
11.093584 9.324428 2.876289 11697996
10.055352 10.868831 3.835825 11697996
9.985300 9.976639 2.966263 11697996
10.656968 11.037730 1.419928 11697996
9.945694 10.902153 0.919229 11697996
9.811244 9.623242 2.239312 11697996
10.735396 9.308805 3.275933 11697996
9.469526 9.732634 0.273140 11697996
10.503849 9.090935 2.426646 11697996
8.814584 9.336113 1.312160 11697996
10.551353 9.541361 3.676762 11697996
11.073971 9.107530 1.240303 11697996
10.312557 8.787168 1.680927 11697996
10.884307 10.735435 2.728905 11697996
9.608161 8.988633 1.293570 11697996
8.774401 9.700662 0.379563 11697996
8.832721 9.055938 3.174242 11697996
10.563601 10.699847 2.076815 11697996
10.419919 9.854603 1.379921 11697996
10.385447 8.982376 3.735581 11697996
10.368601 10.690347 2.377253 11697996
11.002497 8.811779 0.162845 11697996
9.036923 9.523445 2.723311 11697996
10.490947 9.718513 2.997854 11697996
10.793599 10.222181 3.100975 11697996
10.385512 9.014770 1.400254 11697996
10.140726 9.636273 2.019961 11697996
9.536128 11.058776 1.907333 11697996
9.777075 9.508243 1.399851 11697996
9.294816 10.527165 3.835366 11697996
10.894981 9.692109 0.685005 11697996
9.808814 10.606760 2.620069 11697996
8.852530 9.839857 1.575119 11697996
10.257449 10.317906 3.746735 11697996
8.749097 9.773314 1.650540 11697996
9.432646 10.199253 1.857337 11697996
9.461075 9.534550 0.058353 11697996
9.882387 10.167992 1.864132 11697996
9.459079 8.737257 2.172848 11697996
9.438729 10.131419 0.417436 11697996
9.326452 8.792132 3.947632 11697996
8.935844 10.364166 2.373891 11697996
9.622063 10.054201 1.682466 11697996
9.291595 9.893778 0.912709 11697996
10.776058 10.821667 1.385917 11697996
11.187127 9.892798 3.191504 11697996
10.530963 10.243548 1.246024 11697996
8.953581 10.607087 3.697355 11697996
10.569568 10.234564 2.751253 11697996
9.686941 9.285989 3.503368 11697996
10.966870 11.147234 0.968627 11697996
10.404015 10.673367 2.601574 11697996
10.170972 10.659000 1.233086 11697996
10.502336 9.477661 2.182825 11697996
9.888225 9.363787 0.044688 11697996
9.599830 10.683586 0.601343 11697996
10.344628 9.268752 0.248459 11697996
9.009742 10.778316 0.528824 11697996
10.380057 10.910038 2.013269 11697996
10.041606 9.067898 2.668197 11697996
10.224522 9.210978 3.804965 11697996
10.862111 9.846237 2.869663 11697996
10.318336 11.160449 1.078343 11697996
10.934551 9.060703 0.509620 11697996
11.159011 10.018487 1.435326 11697996
9.373289 10.228662 3.554475 11697996
9.024574 8.799549 1.245598 11697996
10.331311 10.546208 1.387082 11697996
8.911589 8.911400 3.254815 11697996
10.280049 9.189939 3.917066 11697996
9.110950 10.300167 2.624302 11697996
9.222894 9.809221 0.649893 11697996
9.857441 11.079151 3.321582 11697996
8.984779 10.322828 3.211527 11697996
8.811166 11.220352 2.894117 11697996
9.388934 10.306789 3.549439 11697996
11.190040 11.180376 0.499666 11697996
8.959707 9.245237 0.611706 11697996
10.277544 9.005479 3.687878 11697996
10.479003 11.070512 0.593423 11697996
8.765290 9.832849 3.627764 11697996
10.122676 10.346988 3.547702 11697996
9.593158 10.245742 1.101957 11697996
9.707666 8.768478 3.112076 11697996
10.007902 9.496564 3.116861 11697996
10.539653 9.811688 2.846964 11697996
9.352442 9.025373 1.063087 11697996
10.778431 11.051179 1.581806 11697996
9.957786 9.339505 3.111346 11697996
10.335253 9.425915 1.323571 11697996
10.391514 10.920128 3.326918 11697996
8.869736 9.649879 1.903135 11697996
9.231322 10.817176 3.029401 11697996
9.400917 10.801806 1.292567 11697996
9.314029 9.892098 2.365009 11697996
11.108156 9.010153 0.172311 11697996
10.091939 8.998913 1.862706 11697996
10.675705 9.908585 1.122578 11697996
10.327785 10.182082 0.616614 11697996
10.961402 9.682913 3.080887 11697996
8.871783 10.639288 1.576405 11697996
10.229630 9.664624 3.060079 11697996
9.020845 10.500768 3.399552 11697996
10.241307 10.495476 0.024309 11697996
9.078638 10.366376 2.127213 11697996
9.853338 10.487803 1.632472 11697996
10.046896 9.868567 1.501252 11697996
10.839033 9.902892 1.267668 11697996
9.482279 8.988473 1.825524 11697996
10.590588 9.178540 2.162004 11697996
11.183424 10.346020 3.160233 11697996
11.218421 9.359159 3.469989 11697996
9.971247 9.037505 1.559816 11697996
10.928511 9.786558 1.153227 11697996
11.233457 10.099913 0.385884 11697996
9.851135 8.798501 2.294459 11697996
10.063321 9.494231 2.347374 11697996
10.000965 10.741174 1.748304 11697996
9.925624 9.982830 2.844515 11697996
9.948571 10.694988 3.815372 11697996
10.690641 9.333344 2.470193 11697996
9.463660 8.912432 0.232847 11697996
9.349687 8.865888 0.487603 11697996
9.078010 10.605176 3.224800 11697996
8.924076 9.531583 3.358509 11697996
10.129045 10.957807 0.085952 11697996
8.756118 10.493556 3.789795 11697996
10.325554 8.809340 3.544448 11697996
9.309571 10.545388 1.785953 11697996
9.452388 10.903239 1.906972 11697996
8.963244 9.924938 0.220002 11697996
10.430033 9.419773 2.766292 11697996
10.513167 9.618526 3.282496 11697996
10.289976 9.772307 0.831590 11697996
9.266788 10.152102 0.249196 11697996
8.808237 10.340906 0.927310 11697996
10.491233 11.244666 3.578751 11697996
9.034826 8.925521 2.870860 11697996
9.512469 10.372453 3.732868 11697996
8.759650 10.065085 2.469933 11697996
10.766779 10.575046 3.403041 11697996
11.031081 11.233443 3.666909 11697996
10.496284 8.809559 0.946771 11697996
8.936844 10.271949 0.057209 11697996
9.080124 9.414379 0.752283 11697996
9.243850 8.928352 0.304200 11697996
9.596832 9.173859 0.228716 11697996
10.867563 10.277574 1.709538 11697996
9.848399 10.230242 3.625036 11697996
9.110440 9.793184 1.813291 11697996
9.888271 9.447873 1.266672 11697996
9.388023 9.179923 1.466520 11697996
10.196960 10.484515 3.100523 11697996
10.133329 9.918249 0.756428 11697996
11.007552 9.090611 1.677032 11697996
8.790145 10.487330 0.240411 11697996
10.429382 11.087083 2.039062 11697996
9.912679 9.540084 1.714644 11697996
11.200910 10.147660 0.769244 11697996
9.821262 9.161043 1.773737 11697996
9.758532 9.646301 2.897870 11697996
10.718985 9.455786 3.013688 11697996
10.536537 8.758122 2.909593 11697996
10.606808 10.583172 2.351279 11697996
9.331459 9.848945 3.213765 11697996
10.399792 10.742394 2.631564 11697996
10.381555 10.550692 2.534936 11697996
8.791099 8.874674 0.463887 11697996
10.179160 8.997130 2.627452 11697996
9.925416 10.263900 2.020952 11697996
9.803297 11.205320 2.448868 11697996
8.752331 9.438759 0.030006 11697996
10.633650 9.466155 0.345365 11697996
-9.790105 -10.487499 0.727795 6730418
-10.240596 -10.939110 1.064012 6730418
-10.553994 -9.833496 2.163524 6730418
-10.409397 -9.388595 0.329369 6730418
-9.665055 -9.575434 1.820034 6730418
-9.899208 -9.372037 2.425000 6730418
-10.016784 -10.275188 2.944225 6730418
-9.645583 -9.358961 0.170207 6730418
-9.575231 -9.713894 2.400834 6730418
-9.435921 -10.306623 0.266789 6730418
-10.743979 -9.711651 1.201594 6730418
-9.429272 -10.349375 2.001025 6730418
-9.639461 -10.851164 2.880380 6730418
-10.247453 -10.152185 1.457299 6730418
-9.465654 -10.140406 0.774686 6730418
-9.275323 -10.588077 1.742118 6730418
-10.482370 -9.802372 0.163114 6730418
-9.327624 -10.727969 1.806278 6730418
-9.587317 -10.769128 1.318013 6730418
-9.837137 -10.459488 1.602974 6730418
-9.384996 -10.516776 1.763216 6730418
-9.771376 -9.250370 1.222967 6730418
-9.842615 -9.006912 2.113880 6730418
-9.762083 -10.762131 0.102926 6730418
-10.326276 -10.066946 0.324789 6730418
-10.131171 -9.696823 0.858731 6730418
-10.238629 -10.525697 0.465420 6730418
-9.924945 -9.543873 0.878543 6730418
-10.351757 -10.471096 0.942420 6730418
-9.562512 -10.444325 2.089925 6730418
-10.250271 -10.641115 2.025088 6730418
-9.473569 -9.308166 2.829034 6730418
-9.977723 -10.894238 1.228713 6730418
-10.784082 -9.421957 1.714908 6730418
-9.590688 -9.386559 2.103177 6730418
-10.448811 -9.833373 0.318471 6730418
-9.876641 -9.778838 1.177154 6730418
-9.554812 -10.569492 1.056636 6730418
-9.735197 -10.741032 1.886071 6730418
-9.366790 -9.464743 1.098679 6730418
-9.139779 -10.306588 0.459790 6730418
-9.915498 -10.779535 0.222785 6730418
-10.024189 -9.143646 2.553029 6730418
-9.507676 -10.210728 2.739354 6730418
-9.886764 -9.423263 2.492907 6730418
-10.350193 -9.787724 1.870991 6730418
-9.814039 -10.394035 0.846411 6730418
-9.391767 -9.437754 1.187285 6730418
-10.540662 -10.493091 1.875992 6730418
-9.487681 -9.446662 2.361233 6730418
-10.769804 -10.299218 2.758004 6730418
-9.299810 -9.871953 2.663267 6730418
-10.588251 -10.012479 1.923038 6730418
-9.917323 -10.115608 1.148716 6730418
-10.391545 -10.506399 2.570714 6730418
-9.925181 -10.442530 0.735122 6730418
-9.817170 -9.792530 1.407421 6730418
-9.506399 -10.238337 2.591384 6730418
-9.766673 -9.307633 1.784577 6730418
-9.774687 -10.506534 2.924491 6730418
-10.273527 -10.222190 1.298221 6730418
-9.112636 -9.758086 1.248983 6730418
-9.381564 -9.975846 2.119224 6730418
-10.220401 -9.069094 2.084545 6730418
-9.319407 -9.719763 2.698181 6730418
-10.166631 -9.331859 1.061875 6730418
-9.664612 -9.626935 1.193577 6730418
-10.051722 -9.062351 1.172587 6730418
-9.786045 -9.912503 0.898401 6730418
-10.588253 -10.570008 0.623584 6730418
-9.175782 -10.565819 0.775207 6730418
-10.051250 -10.863157 1.828593 6730418
-9.989404 -9.591299 2.835436 6730418
-9.704222 -10.080318 0.384863 6730418
-9.961903 -10.096955 1.506791 6730418
-9.516067 -9.342930 1.898724 6730418
-9.155514 -9.567578 1.145921 6730418
-10.043496 -9.132999 0.089295 6730418
-9.607005 -9.895688 0.727007 6730418
-9.795565 -9.886675 2.356197 6730418
-9.337673 -10.702877 1.999640 6730418
-10.438901 -9.476804 1.170524 6730418
-10.377994 -9.663002 2.666599 6730418
-9.135869 -9.887315 2.791324 6730418
-9.412710 -10.368577 0.143616 6730418
-10.227559 -9.443311 1.612867 6730418
-10.766994 -9.802597 1.478337 6730418
-10.186101 -9.829812 2.210503 6730418
-10.542365 -9.440448 1.219065 6730418
-9.993584 -9.385587 0.585258 6730418
-10.876527 -10.167806 2.680560 6730418
-9.926441 -9.704840 2.329908 6730418
-10.809547 -9.880599 1.526100 6730418
-10.681762 -9.749557 0.821277 6730418
-9.676709 -10.557503 2.722768 6730418
-10.718611 -10.599484 1.395966 6730418
-10.060145 -10.329249 1.571191 6730418
-9.749098 -10.961782 0.375476 6730418
-10.018191 -10.374962 1.135186 6730418
-9.428329 -10.265253 1.143485 6730418
-9.628276 -10.245491 2.165560 6730418
-9.056267 -9.874854 0.395209 6730418
-10.650970 -10.144034 0.461167 6730418
-9.537196 -10.501364 1.543408 6730418
-9.802725 -10.363285 1.961359 6730418
-9.956995 -10.254406 2.833562 6730418
-10.006836 -10.249918 2.418579 6730418
-9.491112 -9.577614 0.735384 6730418
-9.442533 -9.912304 2.650117 6730418
-9.720206 -10.514666 2.097466 6730418
-9.461061 -10.212113 0.553129 6730418
-9.058592 -10.308736 1.069458 6730418
-9.748302 -9.094829 0.944570 6730418
-9.224824 -10.448468 2.446795 6730418
-9.705873 -9.776762 2.745459 6730418
-9.119416 -10.332202 0.136073 6730418
-9.633581 -10.385160 1.007910 6730418
-10.384631 -10.486814 2.288537 6730418
-9.627578 -9.120131 1.857168 6730418
-9.291561 -10.132650 1.565425 6730418
-9.154747 -9.598787 1.764225 6730418
-9.317991 -9.508729 2.254656 6730418
-10.364028 -10.689701 0.642768 6730418
-9.270794 -10.374448 1.019885 6730418
-9.261162 -9.443748 0.341964 6730418
-9.303446 -10.029868 1.371260 6730418
-9.147490 -10.201840 1.841225 6730418
-10.387445 -9.287488 0.718519 6730418
-10.894445 -10.103386 2.220087 6730418
-9.895422 -9.420541 2.658729 6730418
-10.834347 -9.528711 1.601979 6730418
-9.203345 -10.207624 2.039790 6730418
-9.459709 -10.810248 2.839033 6730418
-9.408398 -10.492437 2.780451 6730418
-10.515089 -10.349418 2.133966 6730418
-9.976044 -10.555360 1.533508 6730418
-9.556410 -9.172869 2.708088 6730418
-9.941898 -10.521829 2.562141 6730418
-10.956060 -10.250523 1.742780 6730418
-10.291422 -9.504058 1.487481 6730418
-9.606612 -10.638623 2.453789 6730418
-9.436447 -9.925594 1.840204 6730418
-9.881987 -10.234232 0.089920 6730418
-10.630487 -10.385137 0.233376 6730418
-9.205092 -9.991281 0.025858 6730418
-10.802633 -10.282001 0.282645 6730418
-9.498519 -9.725074 1.821012 6730418
-10.531463 -9.857000 0.923037 6730418
-9.502113 -10.031048 1.467597 6730418
-9.897287 -10.295609 0.960270 6730418
-9.808008 -10.931310 0.076788 6730418
-9.971622 -9.565627 2.253727 6730418
-9.742335 -10.075489 2.002383 6730418
-9.171405 -10.431853 2.750663 6730418
-10.198766 -9.968471 2.040453 6730418
-10.400782 -9.964345 2.506121 6730418
-9.694978 -10.179428 2.559624 6730418
-10.147156 -9.944718 2.521714 6730418
-9.243868 -10.405890 1.141326 6730418
-10.357851 -10.718516 2.790592 6730418
-10.056005 -9.635654 2.830711 6730418
-9.253729 -10.623504 0.790410 6730418
-10.228809 -9.435061 1.232970 6730418
-10.032472 -9.229619 1.019990 6730418
-10.311662 -9.195053 2.692581 6730418
-9.359301 -10.543306 0.680445 6730418
-10.790006 -9.995409 0.950942 6730418
-9.962075 -10.616857 0.063204 6730418
-9.298500 -9.942783 1.799734 6730418
-9.381523 -9.226694 1.591998 6730418
-10.879119 -9.583611 0.635176 6730418
-9.500996 -9.893042 1.130809 6730418
-10.165451 -9.946141 1.347657 6730418
-10.089170 -9.910021 1.562712 6730418
-10.226799 -10.111510 2.153505 6730418
-9.589840 -9.427754 1.104547 6730418
-10.409948 -9.762834 0.856599 6730418
-10.299285 -9.410779 1.697569 6730418
-10.443320 -10.536130 2.948525 6730418
-10.270794 -10.975872 2.893458 6730418
-9.982865 -10.861738 2.303904 6730418
-9.894308 -9.550380 1.205532 6730418
-9.876615 -9.872619 2.558005 6730418
-9.550420 -9.366147 1.161191 6730418
-10.571674 -10.261880 1.031802 6730418
-9.813560 -9.949569 1.132419 6730418
-9.837307 -10.327398 2.107092 6730418
-9.667726 -9.573712 2.287256 6730418
-9.633245 -10.651100 2.304812 6730418
-9.846708 -9.170187 2.036790 6730418
-10.454769 -10.358978 0.604480 6730418
-10.031351 -10.940649 2.025811 6730418
-9.260774 -10.107545 0.061686 6730418
-10.429744 -9.495920 2.961226 6730418
-9.220175 -9.442139 2.290895 6730418
-10.150040 -9.213017 0.151397 6730418
-9.862627 -9.141751 2.225733 6730418
-9.094960 -9.830836 1.473896 6730418
-10.247521 -10.513534 0.399466 6730418
-9.729319 -9.101216 1.450618 6730418
-9.183490 -9.699004 1.646325 6730418
-9.235528 -9.579717 0.825109 6730418
-9.461339 -10.120132 0.668932 6730418
-9.456009 -10.416622 2.585384 6730418
-10.774804 -10.013399 0.436338 6730418
-10.735404 -9.888711 1.939813 6730418
-9.083842 -9.682654 0.668738 6730418
-9.780561 -9.704988 1.560697 6730418
-10.335835 -10.458614 1.523065 6730418
-9.240187 -9.448088 1.091968 6730418
-10.203374 -9.199235 2.319800 6730418
-10.812018 -9.655124 0.949603 6730418
-9.196755 -9.653874 0.473809 6730418
-9.661835 -9.772966 2.971512 6730418
-10.773301 -10.206743 2.386775 6730418
-9.269938 -9.829412 0.063826 6730418
-10.015891 -9.162743 2.150427 6730418
-9.721408 -10.267640 2.757661 6730418
-10.202103 -10.824603 1.870858 6730418
-9.508446 -10.099976 1.074777 6730418
-10.184511 -10.288960 1.171224 6730418
-10.161919 -9.800377 2.564127 6730418
-10.913143 -9.946210 1.817336 6730418
-9.236206 -9.612990 1.928833 6730418
-9.262114 -9.478626 2.000490 6730418
-9.866871 -10.266878 2.653200 6730418
-10.815219 -10.520011 2.461696 6730418
-9.337714 -10.426495 1.740108 6730418
-10.416866 -9.690321 1.216976 6730418
-10.213681 -10.155575 2.931983 6730418
-9.595671 -9.298707 1.754945 6730418
-9.456355 -10.804520 1.423323 6730418
-9.754372 -10.357362 0.619488 6730418
-9.580800 -10.294066 1.360864 6730418
-9.339348 -10.096874 1.241124 6730418
-9.344472 -9.246421 0.308902 6730418
-10.204524 -10.701031 0.917832 6730418
-10.496553 -10.487329 1.474932 6730418
-10.423663 -10.520670 2.451896 6730418
-10.574516 -9.969375 0.897736 6730418
-9.592094 -10.900461 1.940039 6730418
-9.245252 -10.480246 1.826972 6730418
-10.430958 -9.744302 2.686783 6730418
-10.377819 -10.195609 0.486902 6730418
-9.790809 -10.708498 2.638303 6730418
-10.910655 -10.003121 2.546074 6730418
-9.523121 -9.129375 0.838239 6730418
-10.052233 -10.331332 0.631042 6730418
-10.264274 -9.888976 0.368144 6730418
-9.948430 -9.901299 0.739687 6730418
-9.364318 -10.556779 0.709465 6730418
-10.716317 -10.159660 2.600574 6730418
-9.476130 -9.217762 2.943648 6730418
-9.964322 -9.439218 2.266238 6730418
-10.822576 -9.512710 2.567710 6730418
-10.030325 -10.434601 2.541622 6730418
-10.543875 -10.483781 2.405101 6730418
-9.496780 -9.863985 2.252688 6730418
-10.784788 -10.438896 0.605649 6730418
-10.563030 -9.211456 0.314632 6730418
-9.722124 -9.242877 1.753487 6730418
-9.262392 -10.016275 0.971455 6730418
-10.139177 -10.374668 2.319684 6730418
-10.797526 -10.168094 1.692879 6730418
-9.976569 -9.455143 1.367528 6730418
-9.204487 -10.151468 1.258433 6730418
-9.765899 -10.564465 0.333663 6730418
-10.085019 -10.278400 1.548102 6730418
-10.827815 -10.030864 1.535738 6730418
-10.021971 -10.620797 0.126985 6730418
-10.733325 -9.792931 2.629861 6730418
-9.131973 -10.090893 2.648164 6730418
-9.805338 -10.312387 2.650032 6730418
-10.907970 -10.204541 2.585278 6730418
-10.532344 -9.214475 0.907277 6730418
-10.044629 -9.503934 2.411146 6730418
-9.469315 -10.460190 0.846562 6730418
-10.562788 -9.184958 2.237216 6730418
-10.086533 -10.216882 1.168535 6730418
-9.492315 -9.151455 2.051929 6730418
-9.366124 -9.653901 2.134719 6730418
-10.007299 -9.881448 2.364340 6730418
-10.273288 -9.288165 0.037048 6730418
-10.092703 -9.518143 1.611606 6730418
-10.696654 -10.603568 1.067625 6730418
-10.637008 -9.863173 1.931590 6730418
-9.078025 -9.936118 1.905584 6730418
-9.376442 -9.822761 1.228989 6730418
-9.823678 -9.189043 1.322163 6730418
-9.832685 -9.170749 0.062761 6730418
-9.055289 -9.961320 0.046627 6730418
-9.401800 -10.710720 0.557082 6730418
-10.641461 -9.817022 0.435268 6730418
-10.474247 -10.156605 2.537485 6730418
-9.672229 -10.301279 1.086657 6730418
-9.460649 -9.406955 0.553668 6730418
-9.482398 -10.785195 1.604397 6730418
-10.005902 -9.497276 0.247244 6730418
-10.713538 -9.985792 1.269137 6730418
-9.814526 -10.660975 0.650109 6730418
-9.184700 -9.563152 0.756079 6730418
-9.618326 -9.415992 2.164369 6730418
-9.830677 -10.907599 0.190728 6730418
-10.140345 -9.246010 2.430294 6730418
-10.384450 -9.482495 1.044062 6730418
-10.714564 -10.314479 1.954008 6730418
-10.900240 -10.417321 2.246346 6730418
-10.285943 -10.596554 1.091254 6730418
-10.093568 -10.720179 1.009891 6730418
-9.700536 -9.776865 1.484282 6730418
-10.579028 -10.302176 1.233177 6730418
-10.567046 -10.772094 2.135201 6730418
-10.892621 -10.205338 2.561944 6730418
-10.741596 -10.475103 2.199515 6730418
-10.086884 -9.388061 1.202566 6730418
-9.503950 -10.277381 0.531226 6730418
-10.160302 -10.694591 0.691706 6730418
-9.392211 -10.737052 0.083112 6730418
-9.472199 -9.488944 1.572808 6730418
-10.549764 -9.345407 1.596920 6730418
-10.502855 -10.532502 2.092230 6730418
-10.124166 -9.610106 2.014708 6730418
-10.787750 -9.586629 0.665263 6730418
-10.540756 -10.000804 2.862319 6730418
-10.870523 -9.900826 2.945533 6730418
-9.742606 -9.764158 1.121849 6730418
-10.906926 -9.673295 0.167507 6730418
-9.898459 -9.772456 2.592966 6730418
-9.459031 -9.227265 2.615047 6730418
-9.308659 -9.324114 0.323779 6730418
-9.885147 -9.737801 2.412376 6730418
-10.412332 -9.668408 0.321501 6730418
-10.814371 -9.955566 0.617885 6730418
-9.981211 -9.139339 1.649253 6730418
-9.771467 -9.069169 2.270615 6730418
-10.478737 -9.207160 1.230891 6730418
-10.100791 -10.048821 1.984623 6730418
-9.580535 -10.061213 0.150214 6730418
-9.378323 -9.235753 2.646554 6730418
-10.389688 -10.086295 1.026178 6730418
-10.272724 -10.229538 1.102382 6730418
-10.657680 -10.240726 0.548214 6730418
-10.477704 -10.199886 2.227106 6730418
-9.889679 -9.414710 2.259964 6730418
-9.292977 -9.363826 0.704290 6730418
-9.986628 -10.189713 1.475776 6730418
-10.363943 -9.650476 1.759847 6730418
-10.472980 -10.133024 2.455458 6730418
-9.758890 -10.372386 2.345507 6730418
-9.591627 -9.542860 2.964856 6730418
-10.685405 -9.969004 2.771508 6730418
-9.505315 -10.325262 2.326269 6730418
-10.014759 -10.057342 2.593577 6730418
-10.295910 -10.591400 1.194293 6730418
-10.074687 -9.938272 1.241198 6730418
-10.308726 -9.157523 1.324416 6730418
-9.578785 -10.199981 0.630686 6730418
-9.833539 -10.616796 0.142832 6730418
-9.777384 -10.297729 0.819341 6730418
-10.692057 -10.642182 2.919160 6730418
-9.620121 -9.364912 0.751707 6730418
-10.950891 -10.291109 1.334805 6730418
-10.324949 -9.892101 2.201513 6730418
-9.713549 -9.552204 0.902269 6730418
-9.801046 -9.152109 2.354895 6730418
-9.624950 -9.655418 1.379077 6730418
-9.231181 -9.638425 2.437050 6730418
-10.103035 -9.399887 2.655832 6730418
-10.553908 -9.703967 2.868217 6730418
-9.606564 -10.399942 2.181492 6730418
-9.459458 -10.726903 1.888690 6730418
-10.292270 -9.053308 1.832276 6730418
-10.316105 -10.362226 1.715259 6730418
-9.509171 -9.344307 1.204855 6730418
-9.925233 -10.229948 2.174705 6730418
-10.135909 -9.716530 1.824021 6730418
-10.865768 -10.273547 0.850417 6730418
-10.693797 -9.714664 0.657181 6730418
-9.322701 -9.326026 1.778178 6730418
-9.078846 -9.964857 0.077629 6730418
-10.734909 -9.516399 0.274582 6730418
-10.132420 -9.604025 1.733071 6730418
-10.452143 -9.532890 1.278014 6730418
-10.766088 -9.482532 1.127379 6730418
-10.289409 -10.037377 2.095451 6730418
-9.962250 -9.428361 2.790689 6730418
-10.768341 -9.565548 1.760205 6730418
-10.616870 -10.029624 1.127647 6730418
-10.876261 -9.770110 0.530435 6730418
-10.083427 -10.110670 0.979030 6730418
-9.420801 -9.674134 2.048767 6730418
-10.054426 -9.525875 2.759561 6730418
-10.630031 -9.413078 0.472193 6730418
-10.089311 -9.416602 0.850504 6730418
-10.743117 -10.241008 2.022666 6730418
-10.442158 -9.904472 0.677462 6730418
-9.375424 -10.481737 1.156133 6730418
-9.672930 -10.623153 1.776882 6730418
-9.966827 -10.328735 2.981668 6730418
-10.712501 -10.618688 0.385465 6730418
-10.088881 -10.063781 1.045339 6730418
-10.413002 -9.141820 0.767372 6730418
-10.092525 -10.491773 0.275411 6730418
-10.495436 -10.176265 1.747017 6730418
-9.251037 -9.399222 0.038835 6730418
-10.370776 -9.972076 0.745678 6730418
-10.454961 -9.530149 2.590868 6730418
-9.215005 -10.029290 2.890048 6730418
-10.521702 -9.792459 2.177575 6730418
-9.823482 -10.107038 0.961788 6730418
-10.331967 -10.556001 0.232618 6730418
-10.915837 -9.966984 1.641416 6730418
-9.204294 -9.861691 2.323634 6730418
-9.722757 -9.125387 0.228809 6730418
-10.584952 -9.988612 2.397691 6730418
-10.125975 -10.740094 1.948789 6730418
-10.922842 -9.764526 -0.022768 6730418
-10.669100 -9.880480 0.817301 6730418
-10.178730 -10.345007 2.512863 6730418
-10.439211 -10.619551 1.208351 6730418
-10.644645 -9.344850 2.655425 6730418
-9.190054 -10.625954 0.510114 6730418
-9.889432 -9.634034 2.511415 6730418
-9.138902 -9.904356 2.393418 6730418
-10.215279 -10.373876 1.058744 6730418
-9.352592 -9.843801 1.035400 6730418
-10.348566 -10.738037 2.790694 6730418
-9.663288 -10.216217 0.741173 6730418
-10.586534 -9.798158 2.081854 6730418
-9.951488 -10.965225 2.290023 6730418
-9.808708 -9.716285 2.210697 6730418
-10.203338 -9.205721 1.031282 6730418
-10.186934 -10.438268 1.627049 6730418
-9.575609 -9.924199 0.554645 6730418
-10.196105 -10.134542 2.315068 6730418
-9.293404 -10.689022 1.182428 6730418
-9.220915 -10.268737 0.634841 6730418
-9.610070 -9.922296 1.049761 6730418
-9.891664 -9.600297 2.605379 6730418
-10.490491 -9.763828 0.604580 6730418
-10.235370 -9.872723 0.466136 6730418
-10.457072 -10.682374 2.991049 6730418
-9.501895 -9.730506 2.465008 6730418
-9.139274 -10.272604 2.829508 6730418
-9.905226 -10.713028 0.819131 6730418
-9.891389 -10.728922 2.983301 6730418
-10.332245 -10.206144 0.973402 6730418
-10.462329 -10.397656 1.259638 6730418
-10.455929 -10.356020 1.851013 6730418
-10.540224 -10.748203 2.446654 6730418
-10.104066 -9.604056 2.171398 6730418
-10.009996 -9.572834 0.591699 6730418
-10.774236 -10.519918 1.144332 6730418
-9.049118 -10.090798 1.424907 6730418
-10.331587 -10.920593 0.010949 6730418
-9.785232 -9.543995 2.732193 6730418
-10.361274 -10.462585 2.427586 6730418
-9.876182 -10.697268 2.125709 6730418
-9.167680 -9.823824 0.937777 6730418
-9.382782 -10.751899 2.817818 6730418
-10.595232 -10.554559 0.093048 6730418
-9.939171 -9.887930 0.896912 6730418
-10.122844 -9.695105 2.035410 6730418
-9.763211 -9.865885 0.507810 6730418
-9.127735 -10.332480 0.511384 6730418
-9.827703 -10.345988 1.308166 6730418
-10.648359 -10.119561 1.384049 6730418
-9.040812 -9.846405 2.085988 6730418
-10.404263 -10.558641 0.638682 6730418
-10.140789 -9.743396 2.899019 6730418
-9.123078 -10.451414 0.069747 6730418
-10.959164 -9.873980 1.459072 6730418
-10.184175 -10.115016 2.182428 6730418
-10.361111 -10.287762 0.333630 6730418
-9.259932 -10.570947 1.026170 6730418
-10.091520 -10.061792 1.080897 6730418
-10.753800 -10.256794 2.479510 6730418
-9.788783 -10.488066 2.969704 6730418
-9.862413 -10.024579 1.294160 6730418
-9.726388 -10.824634 2.329371 6730418
-9.193734 -10.308465 1.526225 6730418
-10.491086 -9.546128 1.425626 6730418
-9.658019 -10.170889 2.684884 6730418
-10.606505 -9.415409 2.077296 6730418
-10.068202 -9.230484 1.651539 6730418
-10.428670 -9.811448 0.268397 6730418
-9.249471 -10.158236 2.868996 6730418
-10.704288 -10.069628 0.163911 6730418
-9.296366 -10.179371 2.825634 6730418
-10.101267 -10.850815 1.441683 6730418
-9.687265 -10.219868 1.103174 6730418
-10.918466 -10.024389 2.053853 6730418
-9.621678 -9.213152 2.536892 6730418
-10.572034 -9.238906 0.266612 6730418
-9.087768 -10.322085 2.772497 6730418
-10.193928 -10.681990 1.619710 6730418
-9.345650 -10.259970 0.434822 6730418
-10.377383 -10.309750 1.452162 6730418
-10.316148 -9.534266 2.560724 6730418
-10.863616 -9.533592 2.910978 6730418
-9.971118 -9.254663 0.839785 6730418
-9.285261 -9.486153 2.416145 6730418
-10.169474 -9.205361 2.757921 6730418
-10.761443 -9.765812 2.615079 6730418
-9.466458 -9.467606 0.306341 6730418
-9.310289 -9.514689 2.098153 6730418
-10.165139 -10.905039 0.403586 6730418
-9.093062 -10.335427 0.462023 6730418
-10.896574 -9.565085 1.423855 6730418
-9.946232 -10.136069 0.531751 6730418
-10.293851 -9.744530 1.560585 6730418
-10.680598 -9.734916 2.427642 6730418
-10.176816 -9.404633 1.702528 6730418
-9.468144 -10.122946 2.434581 6730418
-10.357522 -10.762466 2.939297 6730418
-10.018957 -10.452221 0.503845 6730418
-9.504496 -10.612986 2.259603 6730418
-9.523870 -10.735826 0.019931 6730418
-9.532182 -9.243744 1.166771 6730418
-9.420712 -9.419764 2.418210 6730418
-9.590550 -9.131189 0.160683 6730418
-10.261405 -10.235907 0.684032 6730418
-9.768220 -10.301027 0.032291 6730418
-10.327592 -9.276367 2.429608 6730418
-10.279743 -10.433216 0.127743 6730418
-9.452277 -10.748524 2.578399 6730418
-9.616614 -9.417752 0.485669 6730418
-9.132276 -10.030870 2.707769 6730418
-9.986382 -10.013664 2.777763 6730418
-10.512420 -10.504146 0.497468 6730418
-9.539788 -10.787750 1.824235 6730418
-10.705337 -10.393445 0.956215 6730418
-10.305025 -9.292274 1.248273 6730418
-10.561805 -10.035255 0.186634 6730418
-10.726152 -10.135049 0.725990 6730418
-9.841882 -10.836774 2.503224 6730418
-10.481339 -9.600055 2.822050 6730418
-10.734136 -10.457739 2.936252 6730418
-9.516251 -10.333702 1.736434 6730418
-10.372984 -9.939096 1.932940 6730418
-10.400773 -10.467750 0.959053 6730418
-10.289363 -9.786606 0.281482 6730418
-9.719841 -10.352408 0.129446 6730418
-10.682689 -10.050763 1.572250 6730418
-10.700008 -10.545719 0.230710 6730418
-10.282622 -10.172477 0.976829 6730418
-9.355358 -10.307084 1.271792 6730418
-9.456306 -9.247509 1.725800 6730418
-10.449532 -10.368852 0.943273 6730418
-10.225300 -9.915300 2.915696 6730418
-10.421741 -10.200457 2.219112 6730418
-10.367380 -10.745315 1.707671 6730418
-9.535864 -10.379990 1.130980 6730418
-9.552188 -10.074550 1.341010 6730418
-10.544044 -9.652579 0.151929 6730418
-9.630308 -10.173865 2.706233 6730418
-9.516356 -9.727219 1.165752 6730418
-9.830847 -10.573394 2.888645 6730418
-10.579444 -9.668231 1.490507 6730418
-9.971215 -10.585658 0.794686 6730418
-9.719731 -9.093189 1.492222 6730418
-10.791500 -9.968154 0.073657 6730418
-10.356509 -10.371873 2.394207 6730418
-9.916645 -9.568717 0.165008 6730418
-9.349999 -10.077958 1.470036 6730418
-9.131825 -10.228696 1.301545 6730418
-9.102062 -9.911057 -0.010114 6730418
-10.395786 -9.954581 0.593999 6730418
-10.291513 -9.316924 0.204796 6730418
-10.856849 -10.494173 0.920510 6730418
-10.919423 -10.332646 2.088270 6730418
-9.510570 -10.234244 0.742724 6730418
-9.958744 -10.827656 1.564159 6730418
-9.577518 -10.558923 1.742553 6730418
-10.728373 -9.469955 0.478566 6730418
-10.298532 -9.608811 2.499437 6730418
-9.892114 -10.732583 1.907550 6730418
-10.051262 -9.259263 1.751896 6730418
-10.265097 -9.302513 2.073936 6730418
-10.816977 -9.694974 1.103144 6730418
-9.594973 -9.758216 2.469934 6730418
-9.289998 -9.612050 1.144996 6730418
-10.966218 -10.281344 1.650799 6730418
-10.387074 -10.851918 1.442542 6730418
-10.731945 -9.649911 1.675594 6730418
-9.696804 -9.697337 0.641232 6730418
-9.523314 -10.613950 0.081363 6730418
-10.056654 -9.160422 2.930300 6730418
-10.717902 -10.189598 2.325820 6730418
-10.404074 -9.753401 1.160020 6730418
-10.931849 -9.702200 2.401466 6730418
-9.795069 -9.314765 0.593542 6730418
-10.892461 -10.296092 0.314090 6730418
-10.812737 -10.196761 2.172406 6730418
-10.307456 -10.756570 0.045406 6730418
-10.205735 -10.431193 1.648631 6730418
-9.448972 -10.348357 2.309755 6730418
-10.418319 -10.703128 2.078678 6730418
-10.434102 -10.821939 2.432297 6730418
-9.995893 -10.697456 1.436361 6730418
-9.624063 -10.263929 1.921705 6730418
-9.879910 -10.085279 2.329902 6730418
-10.299123 -9.677332 1.211353 6730418
-9.144914 -10.236178 1.248042 6730418
-9.904739 -10.986539 0.144172 6730418
-10.498837 -9.252081 2.364305 6730418
-10.365646 -10.708285 1.654165 6730418
-10.178081 -9.908160 2.937707 6730418
-9.251944 -10.017503 2.959604 6730418
-9.486553 -10.505960 1.889281 6730418
-10.833053 -10.117954 1.954369 6730418
-10.853430 -9.677525 2.976882 6730418
-10.327462 -9.338203 1.516306 6730418
-9.991347 -10.638314 0.986869 6730418
-10.588691 -10.328359 1.899551 6730418
-10.537333 -9.518966 1.289850 6730418
-10.619986 -9.782305 0.028371 6730418
-10.853041 -10.506975 0.979629 6730418
-10.212024 -9.049068 0.708661 6730418
-10.270760 -10.942633 2.455963 6730418
-10.378857 -9.428521 0.428770 6730418
-9.392277 -10.760430 0.798004 6730418
-9.648063 -10.178732 2.359765 6730418
-9.932238 -10.405244 1.795394 6730418
-10.729263 -10.489470 0.890932 6730418
-10.178886 -9.911518 0.510482 6730418
-10.610202 -10.230566 1.456548 6730418
-9.961247 -9.920166 1.893031 6730418
-10.488445 -9.351126 1.292200 6730418
-9.619874 -9.410677 1.778701 6730418
-10.420431 -10.343039 2.176156 6730418
-10.842551 -10.348268 0.522635 6730418
-10.279901 -10.008387 2.595133 6730418
-9.963388 -9.741583 0.355058 6730418
-10.445087 -9.439123 0.593287 6730418
-10.326063 -10.458516 1.132437 6730418
-9.631417 -9.797271 0.760586 6730418
-9.798331 -9.455288 2.932621 6730418
-9.400321 -10.785510 2.881296 6730418
-10.003110 -10.056275 2.807062 6730418
-9.696994 -10.891638 1.841300 6730418
-10.253134 -9.564720 0.482598 6730418
-9.189311 -10.539601 2.199788 6730418
-9.800805 -9.713713 1.042321 6730418
-10.359068 -10.650610 2.307825 6730418
-9.527655 -10.256280 1.254519 6730418
-9.403399 -9.981681 1.655030 6730418
-10.769679 -9.806113 0.612332 6730418
-10.618591 -9.341532 1.331863 6730418
-9.420164 -9.627744 0.843696 6730418
-10.158343 -9.205191 0.189729 6730418
-9.862814 -9.348580 0.700229 6730418
-9.375340 -10.301816 0.291607 6730418
-9.796257 -9.066841 0.656287 6730418
-10.046786 -10.766752 1.175712 6730418
-10.535892 -10.369242 2.715259 6730418
-10.104630 -9.520303 0.466508 6730418
-9.575614 -10.114285 1.775836 6730418
-10.749953 -9.913688 2.235799 6730418
-9.392244 -9.601694 1.625347 6730418
-9.863050 -10.332913 1.724119 6730418
-9.286797 -9.645949 2.672111 6730418
-9.213387 -9.529821 2.557886 6730418
-9.867350 -9.584576 2.265593 6730418
-9.917542 -10.108734 0.711101 6730418
-9.742712 -10.842946 1.082542 6730418
-9.519275 -9.625415 0.280041 6730418
-9.913748 -9.024012 1.720462 6730418
-10.415055 -9.434262 2.116349 6730418
-10.616109 -9.990433 2.281919 6730418
-10.190382 -10.167486 0.599912 6730418
-9.911065 -10.525857 2.135231 6730418
-9.426504 -10.036925 2.677912 6730418
-9.790328 -10.609628 0.648497 6730418
-10.340930 -10.750084 2.461358 6730418
-9.900519 -10.772399 1.156541 6730418
-9.811049 -10.766324 2.789382 6730418
-9.135721 -10.445686 0.653943 6730418
-9.630952 -9.339129 0.229601 6730418
-9.460554 -10.013098 1.596216 6730418
-10.550488 -9.638908 1.092661 6730418
-10.476154 -10.353078 1.006065 6730418
-9.557304 -9.250548 1.428949 6730418
-9.162841 -10.059122 0.701473 6730418
-10.944003 -9.872475 1.285933 6730418
-9.652229 -9.514933 1.859394 6730418
-9.851917 -10.032027 2.256478 6730418
-10.379251 -10.449601 2.220034 6730418
-9.115905 -10.075329 0.657306 6730418
-9.982033 -9.260461 1.097534 6730418
-9.905914 -9.979439 2.968962 6730418
-9.812825 -9.196686 1.089484 6730418
-9.283041 -10.364719 2.347254 6730418
-9.516619 -10.241387 1.760427 6730418
-10.179022 -10.498247 0.135726 6730418
-10.589915 -9.472809 0.168471 6730418
-10.333752 -10.043077 2.869816 6730418
-10.536249 -9.411622 0.405291 6730418
-10.465198 -10.467443 2.421675 6730418
-10.694472 -10.147862 1.668765 6730418
-9.141311 -10.313665 2.725684 6730418
-10.530149 -10.222483 2.897276 6730418
-10.524554 -9.493596 1.435608 6730418
-9.735456 -9.167775 2.979309 6730418
-10.793228 -10.464116 0.464407 6730418
-10.541353 -9.481951 2.920920 6730418
-10.634692 -9.229538 0.039248 6730418
-10.060608 -9.625489 0.040110 6730418
-10.349971 -10.685341 2.320744 6730418
-10.686394 -10.160117 2.910796 6730418
-9.818349 -9.604102 0.505074 6730418
-10.570915 -9.840935 0.500031 6730418
-9.376124 -10.689985 2.419304 6730418
-10.185622 -9.113023 1.580708 6730418
-9.920666 -9.085161 0.158473 6730418
-9.925352 -10.989988 0.426809 6730418
-10.046407 -9.365821 2.244875 6730418
-9.722833 -10.498283 0.342811 6730418
-10.059921 -10.578097 2.129880 6730418
-10.428820 -9.581136 2.990140 6730418
-10.404087 -10.216739 1.765389 6730418
-10.408163 -10.143425 2.040154 6730418
-10.080960 -9.775195 0.212378 6730418
-10.713464 -9.550526 2.952399 6730418
-10.111542 -10.717000 0.267496 6730418
-10.150736 -9.624031 2.937596 6730418
-10.362497 -9.487123 1.801264 6730418
-10.350504 -10.797307 2.696282 6730418
-9.780862 -10.848236 0.732592 6730418
-10.661453 -9.929473 1.453705 6730418
-9.804321 -9.835383 2.682151 6730418
-9.751413 -10.548197 0.092977 6730418
-9.614806 -10.809002 1.759809 6730418
-10.682687 -10.340787 2.430094 6730418
-10.027984 -9.812117 0.653444 6730418
-10.218481 -9.407473 0.979306 6730418
-9.033708 -10.029506 1.593256 6730418
-9.816247 -10.852834 2.538803 6730418
-9.511062 -9.706321 1.886677 6730418
-9.272165 -9.796713 2.618814 6730418
-10.715474 -10.104820 0.207556 6730418
-10.504436 -9.917584 0.125932 6730418
-9.307615 -10.295833 0.765443 6730418
-10.223369 -9.480102 0.410629 6730418
-9.719944 -10.214232 2.085635 6730418
-9.324348 -9.929983 0.265374 6730418
-10.693719 -10.166767 0.419543 6730418
-9.486371 -9.494134 2.841701 6730418
-10.121936 -10.086321 0.423845 6730418
-10.614031 -10.449917 1.957369 6730418
-9.702197 -9.087934 0.500762 6730418
-9.782248 -10.504865 0.566676 6730418
-10.301409 -10.375230 1.851796 6730418
-10.543238 -9.581861 1.221912 6730418
-9.679525 -10.742400 0.331860 6730418
-9.248431 -9.626587 1.171146 6730418
-9.992785 -10.171068 1.806505 6730418
-9.329633 -9.273340 0.619657 6730418
-10.184587 -9.200359 0.483706 6730418
-9.726322 -10.441501 1.838398 6730418
-10.585114 -9.776295 1.860525 6730418
-10.500072 -10.414875 0.537288 6730418
-9.489915 -9.498593 1.546812 6730418
-10.389176 -10.272928 2.306515 6730418
-10.031089 -10.171635 1.161172 6730418
-9.291898 -10.219398 1.588452 6730418
-10.305066 -10.612549 2.488375 6730418
-10.146155 -9.328166 -0.010610 6730418
-9.739904 -10.839220 0.762766 6730418
-9.554299 -9.848775 2.510562 6730418
-9.554340 -9.791059 1.680828 6730418
-10.514773 -9.669086 1.883614 6730418
-9.847605 -10.482499 0.919258 6730418
-10.645265 -9.970735 2.822075 6730418
-9.178381 -10.383955 2.315162 6730418
-10.052697 -9.912911 1.392222 6730418
-10.484646 -9.655862 0.963227 6730418
-9.809171 -10.942243 2.867398 6730418
-10.306751 -10.421030 0.701589 6730418
-10.200765 -9.696593 2.782074 6730418
-10.633525 -10.402926 2.042240 6730418
-9.561096 -10.754085 1.315592 6730418
-9.231760 -10.643776 0.788278 6730418
-9.611495 -10.115245 2.814460 6730418
-9.743075 -10.202597 2.790310 6730418
-9.914389 -10.052124 1.885607 6730418
-9.631954 -10.001994 2.401682 6730418
-9.954667 -9.699360 1.188305 6730418
-9.542872 -9.304687 2.022464 6730418
-9.260508 -9.562514 1.231940 6730418
