# .PCD v0.7 - Point Cloud Data file format
VERSION 0.7
FIELDS x y z rgb
SIZE 4 4 4 4
TYPE F F F U
COUNT 1 1 1 1
WIDTH 1278
HEIGHT 1
VIEWPOINT 0 0 0 1 0 0 0
POINTS 1278
DATA ascii
10.864025 10.444522 1.611971 11697996
9.389453 9.380426 0.084052 11697996
9.917708 10.039216 1.264779 11697996
11.187636 9.859152 1.122808 11697996
9.752693 9.309829 0.017423 11697996
9.018518 9.508173 1.803816 11697996
10.873577 9.427255 0.666226 11697996
9.672601 10.020369 1.430679 11697996
9.675009 10.810098 0.255908 11697996
11.226746 10.293124 3.999841 11697996
8.779085 9.729263 2.613747 11697996
10.003599 10.777638 3.139464 11697996
10.062824 10.003821 2.306324 11697996
11.146620 9.864529 2.121897 11697996
9.791969 10.201013 3.487089 11697996
8.950462 9.195469 2.405032 11697996
9.674037 10.404942 2.832594 11697996
10.560411 9.848971 3.804393 11697996
10.548857 9.558009 2.819661 11697996
9.009534 9.515047 2.930921 11697996
10.826178 11.261333 2.786595 11697996
11.237865 10.710952 0.477293 11697996
11.247915 8.793757 1.735169 11697996
9.832067 9.957088 2.501478 11697996
10.472783 8.920463 3.632963 11697996
10.683344 9.579867 1.689515 11697996
10.286762 8.917124 1.263867 11697996
9.710317 10.446104 3.849131 11697996
10.615277 10.455759 1.311641 11697996
10.137991 10.332277 3.648552 11697996
10.175156 9.220964 0.604720 11697996
9.832442 9.095329 1.023116 11697996
10.583512 10.657715 1.774255 11697996
9.926421 10.162638 0.452409 11697996
10.076204 10.402014 3.728862 11697996
10.198984 9.649813 1.541988 11697996
11.093611 9.456301 3.299476 11697996
9.754418 8.762364 3.522647 11697996
9.386706 9.799194 1.293098 11697996
8.919169 8.975405 3.413656 11697996
10.498841 10.506695 1.260195 11697996
10.210979 10.095705 0.179084 11697996
9.019962 10.448229 2.982675 11697996
10.728834 8.829415 1.100047 11697996
8.997554 9.054666 3.308135 11697996
9.742059 11.152227 2.933872 11697996
9.814643 10.930678 0.191689 11697996
11.022598 9.509804 2.041654 11697996
10.518463 10.134941 3.056736 11697996
9.236235 10.604610 2.746603 11697996
11.150505 10.920986 0.176058 11697996
10.086823 9.159941 1.881320 11697996
10.636060 10.275706 2.285643 11697996
11.202853 9.856479 3.118439 11697996
9.053890 10.086323 2.484409 11697996
10.937201 9.107114 1.229290 11697996
11.135122 10.817313 0.155168 11697996
10.371568 10.973181 3.273348 11697996
10.718637 10.798510 2.998974 11697996
9.484992 9.322424 1.111471 11697996
8.878779 9.874655 2.692914 11697996
10.026678 10.587002 3.670503 11697996
10.260142 10.478351 0.935861 11697996
10.302941 9.399478 2.758753 11697996
11.128590 10.996127 2.715766 11697996
9.563572 8.825439 1.089971 11697996
9.436475 9.597451 1.503044 11697996
10.153355 11.130108 2.553856 11697996
9.101559 9.225103 1.719084 11697996
9.393030 8.957989 2.911337 11697996
9.667708 9.715224 2.012678 11697996
10.720821 11.053771 3.665097 11697996
11.073273 10.380985 3.771217 11697996
10.936884 9.189820 0.043032 11697996
11.112779 10.423979 3.197120 11697996
8.963099 8.988201 1.240992 11697996
8.909661 10.265763 3.060460 11697996
8.979248 9.521583 0.956561 11697996
9.304421 9.563045 2.647950 11697996
10.043320 9.161409 3.165185 11697996
8.779675 8.934466 0.451879 11697996
10.128240 10.338447 1.266131 11697996
8.771847 10.255173 0.898672 11697996
9.496195 10.116044 0.409280 11697996
9.621896 9.895287 1.747675 11697996
9.298486 9.134474 1.374639 11697996
9.973364 9.027509 0.949398 11697996
9.373102 9.542008 0.379444 11697996
9.292404 9.609711 0.295180 11697996
9.543161 10.329927 1.886702 11697996
9.044211 9.817946 3.728955 11697996
9.473653 10.001317 0.537413 11697996
9.774788 10.381195 0.709502 11697996
10.806855 11.183716 1.683437 11697996
11.010735 10.237118 0.783588 11697996
9.363971 9.104206 2.487683 11697996
10.050638 9.456490 1.682161 11697996
9.508003 10.042780 2.816845 11697996
10.091636 10.554061 2.653320 11697996
10.972505 9.710728 2.179388 11697996
10.814366 9.551960 0.728438 11697996
9.489186 11.251860 3.653723 11697996
11.214631 10.275084 0.523171 11697996
10.943052 10.467702 3.584249 11697996
11.008786 10.124953 2.400318 11697996
9.414872 8.841537 1.772297 11697996
10.452137 11.071811 0.481696 11697996
9.685272 9.024224 2.035136 11697996
9.624498 9.581636 2.043837 11697996
10.296108 9.631350 1.263086 11697996
10.002246 10.525624 1.340641 11697996
10.342422 9.667575 3.531056 11697996
11.202209 8.860298 0.823795 11697996
10.149924 9.122294 2.841603 11697996
9.537962 9.260422 2.124446 11697996
8.753448 9.374833 0.389151 11697996
9.711819 9.503893 0.658940 11697996
9.050099 10.161033 1.883411 11697996
11.093379 10.254100 1.544825 11697996
9.387666 10.065519 0.703037 11697996
10.124288 8.774769 0.037087 11697996
9.993434 10.454760 3.020320 11697996
9.176253 9.236526 2.545732 11697996
9.318740 9.295037 0.479851 11697996
10.788472 11.147317 3.953619 11697996
9.199689 10.315260 1.535151 11697996
9.886773 9.495005 3.543405 11697996
8.763762 9.411219 2.255072 11697996
10.330199 9.680541 2.793846 11697996
9.776020 11.230280 3.798173 11697996
10.375188 10.570469 3.040087 11697996
10.569745 10.979334 3.967879 11697996
11.222918 9.106400 2.776165 11697996
9.851138 9.390247 2.484690 11697996
10.262116 10.757783 3.277076 11697996
9.507590 10.212116 3.544788 11697996
9.281387 9.994957 0.095370 11697996
10.270312 10.821225 1.686080 11697996
10.747988 10.239054 2.003397 11697996
10.890612 10.625838 1.049131 11697996
10.110567 8.891349 1.847030 11697996
10.006289 10.362058 1.256410 11697996
11.135509 9.632395 1.912392 11697996
10.431228 9.463840 3.633207 11697996
9.973746 10.108568 0.920951 11697996
10.861265 10.947413 1.258411 11697996
10.239448 9.785066 2.538402 11697996
9.711924 9.176968 3.370275 11697996
9.760161 10.874748 2.214773 11697996
9.453995 10.354237 0.856616 11697996
10.886569 10.638157 3.423846 11697996
9.239519 9.627728 2.347874 11697996
9.025581 10.766742 0.012053 11697996
9.406422 10.907543 1.912099 11697996
9.881414 8.858649 3.067535 11697996
8.805418 9.784808 2.030223 11697996
8.976638 10.587422 0.354013 11697996
8.818567 9.277024 1.211500 11697996
10.883418 9.347294 1.028434 11697996
10.899788 10.472229 3.042253 11697996
9.053043 10.862260 3.801922 11697996
10.952211 9.497537 2.967581 11697996
10.854670 8.749960 0.316617 11697996
9.022089 10.377445 1.065903 11697996
10.411429 8.854503 1.910994 11697996
9.353936 9.285749 0.069802 11697996
9.610177 9.920640 1.235987 11697996
10.686506 8.930574 1.113122 11697996
9.089931 10.520409 0.968720 11697996
10.543404 10.135386 0.415256 11697996
11.025544 9.312883 1.869674 11697996
9.070394 9.870568 2.011633 11697996
10.100506 11.127116 2.735506 11697996
8.865653 9.184384 0.616549 11697996
9.512011 10.845889 3.766259 11697996
9.265779 9.619329 2.217550 11697996
9.262489 10.435359 0.178736 11697996
10.699021 9.864598 2.502968 11697996
9.519891 8.825320 3.765983 11697996
10.914594 10.020442 1.474513 11697996
9.067064 10.367884 1.653069 11697996
9.328256 9.393882 2.043034 11697996
10.260880 8.824820 3.900031 11697996
10.053665 9.188745 3.294822 11697996
10.704046 10.068361 3.199361 11697996
11.231525 10.615445 3.799257 11697996
9.265186 9.288257 2.132748 11697996
9.505019 10.975233 3.272502 11697996
10.063700 9.329732 0.474634 11697996
9.515234 10.439168 2.374077 11697996
10.919712 8.905611 1.173553 11697996
9.664568 10.376788 1.574095 11697996
10.521139 10.450872 1.556250 11697996
9.886023 9.092711 2.523079 11697996
9.272691 10.509993 2.096206 11697996
9.219982 10.058562 0.662574 11697996
9.645841 10.451469 3.786034 11697996
10.306314 9.823071 3.583959 11697996
10.016204 9.297946 2.020882 11697996
10.608418 9.843512 0.428422 11697996
11.229344 10.599575 3.189395 11697996
10.721919 9.640292 3.261481 11697996
10.222338 10.349070 0.761303 11697996
9.613304 10.332807 2.647867 11697996
11.025222 11.154723 3.961516 11697996
11.133451 11.188794 1.997114 11697996
9.229078 8.997189 0.234202 11697996
9.756138 9.805837 3.575549 11697996
9.293905 11.090818 1.633359 11697996
8.926383 10.579677 0.418843 11697996
11.177689 11.024240 2.687462 11697996
8.852766 10.694480 1.578061 11697996
10.646663 9.404687 1.033602 11697996
10.837536 9.585011 3.155440 11697996
10.188249 10.195785 0.949517 11697996
9.085692 9.681931 2.351164 11697996
11.087072 9.132463 0.552312 11697996
9.389278 8.817573 2.208939 11697996
10.931586 10.875440 2.306548 11697996
10.425939 10.728333 3.779932 11697996
9.465539 10.921120 0.980781 11697996
9.265512 10.237304 3.508286 11697996
10.351891 9.473155 2.903064 11697996
10.615322 10.459781 3.620821 11697996
8.849798 11.102215 1.212093 11697996
9.534540 10.204896 1.103497 11697996
9.625133 10.034296 3.153773 11697996
10.699868 10.313243 3.174353 11697996
10.164586 9.559088 0.150523 11697996
9.049212 8.907240 0.030933 11697996
9.507289 10.243388 1.427385 11697996
10.619634 9.572935 3.548986 11697996
9.115757 11.178775 0.574049 11697996
9.539202 11.136398 0.454603 11697996
10.736693 8.862964 1.582199 11697996
10.431991 10.797279 2.175387 11697996
11.251153 10.936973 3.060494 11697996
11.147004 8.918578 2.574050 11697996
9.897639 10.806767 3.902670 11697996
9.473969 10.394065 3.960356 11697996
9.101360 9.200523 3.161375 11697996
9.139286 10.526164 3.422067 11697996
10.927432 11.056458 2.843487 11697996
9.588923 10.431024 2.074208 11697996
9.389901 9.984391 3.748309 11697996
10.901071 9.713844 3.799630 11697996
9.612916 9.082540 0.389035 11697996
9.062209 9.186069 0.571392 11697996
9.524121 9.055029 1.355394 11697996
9.738185 10.332457 3.236224 11697996
10.837072 9.299789 0.734500 11697996
9.042906 10.171576 1.986937 11697996
9.520273 10.543362 1.099108 11697996
10.093104 9.243172 2.740081 11697996
9.451931 10.181105 0.017022 11697996
9.427183 9.176646 0.287233 11697996
10.836762 9.897344 1.494963 11697996
9.837071 10.784920 0.184249 11697996
8.986744 9.707489 0.877487 11697996
10.158076 9.448755 2.051208 11697996
10.911201 9.281509 1.052759 11697996
8.853068 10.274951 1.866466 11697996
8.790041 10.992592 3.584520 11697996
10.567568 9.073561 2.356837 11697996
9.304585 10.917029 1.778575 11697996
10.596854 9.908027 0.522111 11697996
9.463332 9.133387 3.753518 11697996
10.312693 10.298692 0.032012 11697996
10.698520 9.019482 3.688129 11697996
9.122623 11.097713 3.952897 11697996
10.294818 9.292454 1.969872 11697996
8.801058 9.012246 3.679702 11697996
10.295261 9.231188 2.669724 11697996
9.733683 9.991996 3.944108 11697996
8.805806 9.805747 1.475896 11697996
9.268373 10.469629 2.113051 11697996
9.657080 10.687065 2.763433 11697996
9.312920 9.833779 2.155455 11697996
8.774657 10.247375 3.222698 11697996
9.284955 10.963478 0.095301 11697996
8.822990 9.435296 2.456770 11697996
10.889503 9.784321 1.547678 11697996
10.292238 9.767050 1.794423 11697996
10.421797 10.064095 2.350006 11697996
10.149482 9.198844 2.941131 11697996
10.141009 10.333698 3.500483 11697996
9.167801 10.093910 1.009581 11697996
9.387918 8.846655 2.623032 11697996
11.239451 11.153702 1.212370 11697996
9.087828 10.202176 2.607945 11697996
9.629027 9.728007 2.744483 11697996
9.383059 9.779047 1.713171 11697996
9.373930 10.833688 3.605455 11697996
10.702448 8.860495 2.797072 11697996
10.141994 9.327314 1.594128 11697996
10.910542 10.713728 3.841968 11697996
9.089685 9.451399 3.358775 11697996
10.077305 9.675619 0.873112 11697996
9.232421 10.968400 0.452614 11697996
8.995730 11.012111 1.929442 11697996
10.929137 10.823713 1.326937 11697996
9.905408 9.274556 3.190999 11697996
10.372524 9.832281 1.358889 11697996
10.279102 9.879291 3.884330 11697996
9.455849 9.104812 3.587553 11697996
9.782696 10.490456 3.213550 11697996
8.985401 9.822351 2.820290 11697996
10.361596 10.984504 0.453689 11697996
10.147293 10.954509 3.018873 11697996
8.999078 9.507538 0.245770 11697996
8.763169 10.165681 0.978306 11697996
9.698652 10.668361 0.559263 11697996
10.365104 10.133009 3.299651 11697996
9.117362 10.278148 3.679770 11697996
11.231635 10.298703 2.540756 11697996
10.926754 10.052161 2.839313 11697996
10.172747 9.978200 0.112036 11697996
10.535933 9.467609 1.636176 11697996
9.093550 9.143647 0.488503 11697996
8.895129 10.879636 0.480202 11697996
9.090166 10.221871 2.257768 11697996
9.778723 10.638680 2.034372 11697996
10.932610 9.400927 3.371886 11697996
8.966807 10.739255 2.049527 11697996
8.844855 10.118986 2.766434 11697996
9.741598 10.074481 0.647306 11697996
10.745429 10.685534 0.487733 11697996
9.342664 10.087778 3.225145 11697996
8.762041 8.971627 1.718085 11697996
9.625195 9.736978 1.435174 11697996
9.587696 11.115820 2.471791 11697996
11.080462 9.858869 2.832737 11697996
9.472967 9.371438 2.582645 11697996
9.313869 9.605666 1.686447 11697996
10.532786 11.227235 0.373891 11697996
9.250366 8.908945 3.410678 11697996
10.573534 9.782306 2.298094 11697996
9.977896 10.659225 1.591326 11697996
9.828575 11.135543 2.145968 11697996
10.611056 10.989477 2.282652 11697996
9.716443 11.088116 3.440555 11697996
10.105166 8.951583 0.093954 11697996
9.760520 10.444217 1.643947 11697996
8.852917 9.780486 2.767298 11697996
10.154646 9.908408 2.379577 11697996
10.963059 9.905771 1.835672 11697996
10.094410 10.683588 1.067321 11697996
9.270860 8.991526 3.189426 11697996
9.616484 9.630750 0.823921 11697996
9.791750 10.151204 0.983845 11697996
10.032439 9.914110 2.452559 11697996
11.220732 10.516656 3.318853 11697996
9.613705 9.981760 1.910133 11697996
10.672760 8.840457 0.217547 11697996
11.152911 9.346294 0.015445 11697996
11.143362 9.362193 0.837887 11697996
9.740196 10.288304 1.564010 11697996
10.382946 8.961057 0.674323 11697996
11.122912 8.871541 2.795019 11697996
11.204881 9.435965 3.294577 11697996
11.100150 9.221570 2.110802 11697996
11.188652 10.741411 3.934484 11697996
10.523648 9.698818 2.580652 11697996
10.117424 10.141428 0.335114 11697996
10.823973 10.483866 1.355486 11697996
9.532422 8.819106 1.550273 11697996
9.349063 9.978986 3.410912 11697996
10.717046 10.539621 2.080616 11697996
10.890091 8.829727 2.280576 11697996
9.013277 8.877288 3.400300 11697996
10.188735 10.741196 0.422630 11697996
11.156453 10.941339 3.487420 11697996
10.656074 10.465000 3.056784 11697996
9.348974 10.014475 3.407316 11697996
10.393908 11.085164 0.765725 11697996
10.061489 9.351721 0.867707 11697996
10.568413 10.373548 1.678292 11697996
10.026061 10.162159 3.359358 11697996
9.623493 10.035749 2.761065 11697996
10.552331 9.148667 1.187531 11697996
9.934513 9.585434 1.761398 11697996
10.771565 10.238139 1.760975 11697996
10.713868 11.050275 0.934411 11697996
11.075728 9.852647 2.078084 11697996
10.456915 10.139764 1.545995 11697996
11.043005 9.277530 3.875670 11697996
9.193586 9.701342 2.571994 11697996
10.546261 10.293343 2.314429 11697996
9.554330 10.809070 1.733836 11697996
10.533470 9.496600 3.978692 11697996
10.282607 10.325851 1.578087 11697996
9.319412 9.778140 0.319427 11697996
9.021205 10.669347 2.490411 11697996
11.053043 10.999279 3.002306 11697996
9.298816 9.498475 0.095459 11697996
9.401680 10.516884 2.588614 11697996
9.272525 10.084456 0.013149 11697996
10.363241 9.627173 0.280972 11697996
9.936906 11.028838 1.131608 11697996
10.051198 9.870822 0.969670 11697996
9.986139 9.868314 1.788822 11697996
8.946754 9.023207 0.517409 11697996
10.227681 10.367174 3.606369 11697996
10.799982 10.469061 1.527347 11697996
9.274371 10.550072 3.020967 11697996
8.946421 9.280442 3.942400 11697996
9.314374 9.357997 3.763839 11697996
10.502319 10.337336 0.143671 11697996
11.227022 11.059678 2.762886 11697996
10.133367 10.438543 3.978776 11697996
9.033822 11.082683 2.408807 11697996
9.982020 10.569842 1.064748 11697996
10.726689 10.406592 0.942838 11697996
10.293173 9.892406 1.936223 11697996
9.265965 9.896051 3.115567 11697996
10.847247 9.968060 1.275939 11697996
11.217042 8.826237 0.154168 11697996
9.305918 9.576224 1.884429 11697996
9.466942 10.244940 3.933467 11697996
10.623223 10.945589 2.738648 11697996
9.757265 9.423863 2.244607 11697996
11.159049 10.747025 1.664309 11697996
9.114581 10.792650 0.279420 11697996
9.669434 9.688028 0.172680 11697996
9.713626 9.013704 2.264911 11697996
9.882497 11.030123 3.580893 11697996
10.629436 9.152134 3.467893 11697996
9.442719 10.136996 1.837141 11697996
9.666492 9.844630 3.428902 11697996
10.214828 9.586328 3.186105 11697996
10.876104 8.807023 0.626487 11697996
10.148030 9.782735 1.613742 11697996
9.455880 8.983494 3.375300 11697996
10.110446 10.825409 2.304516 11697996
10.126329 9.885184 3.395622 11697996
9.779368 9.059010 3.015234 11697996
11.136523 9.574268 1.200830 11697996
9.195807 9.633316 2.750887 11697996
9.124793 10.031383 1.833600 11697996
11.000441 10.240997 3.410543 11697996
9.036397 9.599932 0.194683 11697996
10.621498 9.808584 1.405452 11697996
10.994273 10.136752 0.072188 11697996
10.420674 10.172623 2.326693 11697996
10.425447 10.589437 2.580864 11697996
10.952312 9.800835 3.772888 11697996
9.406124 10.759378 3.135356 11697996
8.816683 9.798964 3.732115 11697996
10.448860 9.078159 0.428656 11697996
8.885283 9.602974 0.119905 11697996
10.918554 9.914019 1.890839 11697996
10.395103 10.324650 1.433398 11697996
8.995548 9.173408 1.540313 11697996
11.016482 8.981933 1.391621 11697996
9.218647 10.473879 1.195352 11697996
9.535331 11.038695 0.775590 11697996
10.657379 10.962053 2.871253 11697996
11.143595 10.751060 0.137121 11697996
9.168858 8.887803 0.249272 11697996
9.897821 10.028441 3.846945 11697996
10.460999 9.567124 2.672246 11697996
11.030875 10.881197 2.939766 11697996
10.008022 10.746081 0.094878 11697996
10.293912 9.058801 0.259823 11697996
10.401807 10.945742 0.993091 11697996
8.763876 9.455460 0.793423 11697996
9.317072 11.068629 1.223224 11697996
10.735551 9.032854 1.543128 11697996
9.992380 10.631241 0.393844 11697996
10.687880 9.814595 1.706529 11697996
10.255041 10.069699 3.899665 11697996
10.611280 9.429343 3.087269 11697996
10.140644 11.156934 0.330279 11697996
9.006004 9.887375 1.697453 11697996
9.583094 10.113049 3.805667 11697996
9.737950 10.791689 1.249346 11697996
11.021045 11.002503 0.402329 11697996
10.225304 9.172760 2.175522 11697996
8.769434 9.135485 1.837061 11697996
8.793458 9.245729 1.230780 11697996
8.879161 9.544735 2.081466 11697996
9.371018 10.821963 1.800845 11697996
9.046934 10.306904 2.120829 11697996
8.953971 10.638144 1.974766 11697996
9.152131 10.538192 0.311740 11697996
10.102097 11.195126 2.664631 11697996
9.331109 10.165367 3.531682 11697996
11.131444 10.558208 2.663497 11697996
10.743646 9.796570 0.676056 11697996
9.627023 8.997874 2.050544 11697996
10.346975 10.289987 2.993474 11697996
10.178706 9.211598 1.929229 11697996
11.211432 9.861119 1.986073 11697996
11.048842 9.236897 2.206639 11697996
9.960488 11.041050 1.747155 11697996
11.231780 9.527341 1.493830 11697996
9.995653 9.167976 1.387919 11697996
10.700630 10.528859 3.122205 11697996
11.082444 11.162333 3.757513 11697996
9.928069 9.179884 3.629504 11697996
11.183728 11.156326 0.609448 11697996
9.177677 9.249606 3.898024 11697996
10.840484 10.261893 2.588398 11697996
10.145853 10.165204 0.366415 11697996
9.821783 10.238100 0.612906 11697996
10.352565 8.745381 0.289453 11697996
10.449852 9.612940 2.662989 11697996
9.435574 9.163827 2.361671 11697996
8.762265 10.468551 3.885271 11697996
10.857240 10.104817 2.899296 11697996
10.561016 11.014634 3.472445 11697996
9.107162 9.723121 3.626398 11697996
8.842117 9.470754 0.851166 11697996
9.314543 10.822561 2.048087 11697996
10.183692 9.538351 2.956558 11697996
9.653887 9.837235 0.661726 11697996
11.056581 9.837189 2.103736 11697996
10.107297 10.330191 2.299660 11697996
10.741008 11.113400 1.861488 11697996
10.186454 9.686374 3.244457 11697996
8.822589 9.209228 0.246036 11697996
10.768237 9.776823 3.116887 11697996
11.203985 8.841096 0.990593 11697996
9.725094 10.479648 2.733057 11697996
10.922225 10.537228 1.862948 11697996
9.793839 10.789165 3.946557 11697996
10.656610 10.433652 0.127742 11697996
11.074365 9.002186 1.003519 11697996
10.213358 9.184023 0.955215 11697996
10.195216 11.130334 2.427192 11697996
9.502236 10.991673 0.767652 11697996
9.572667 10.608644 0.767140 11697996
9.039680 8.990612 1.444554 11697996
10.748766 9.777289 2.761570 11697996
10.430182 10.005654 2.169261 11697996
10.575277 8.832801 2.488318 11697996
9.028328 11.178557 1.075752 11697996
9.632154 10.167237 3.549585 11697996
9.659929 10.925696 2.880546 11697996
10.590096 9.150659 0.976159 11697996
8.829868 9.137730 1.182538 11697996
11.080941 10.739707 1.717268 11697996
8.951924 9.632684 3.335402 11697996
10.671100 9.109385 2.205241 11697996
10.694639 9.877537 3.819271 11697996
8.880656 9.418532 1.891557 11697996
9.975546 9.281476 1.366831 11697996
10.562876 9.878798 0.762893 11697996
9.543805 10.818437 3.163139 11697996
9.211273 9.554343 3.037710 11697996
10.192716 9.446701 2.887049 11697996
11.216042 9.866059 0.510042 11697996
10.853360 9.481512 0.514875 11697996
10.017207 11.156912 0.802756 11697996
9.628352 9.363326 0.569129 11697996
9.490546 9.578266 3.629217 11697996
9.734057 9.340441 3.475248 11697996
9.865946 9.992847 3.131270 11697996
9.229936 9.765203 2.390724 11697996
9.595956 9.359518 1.819367 11697996
8.788542 10.003071 0.771289 11697996
10.832939 10.567205 0.096729 11697996
8.906865 10.694343 0.358667 11697996
11.076398 11.167247 3.640186 11697996
10.420318 9.250696 1.176649 11697996
10.367881 8.877274 3.454094 11697996
11.149554 11.256032 3.813934 11697996
11.030621 9.762028 1.179877 11697996
11.069300 9.338696 2.870080 11697996
9.994129 10.874500 3.837317 11697996
9.963435 9.918325 2.971145 11697996
10.632429 11.039862 1.497651 11697996
9.901628 10.904783 0.928169 11697996
9.803797 9.639219 2.229394 11697996
10.747575 9.303117 3.269920 11697996
9.489123 9.683784 0.275255 11697996
10.527369 9.111910 2.422866 11697996
8.827907 9.320950 1.326357 11697996
10.532962 9.531823 3.681220 11697996
11.129038 9.099022 1.270478 11697996
10.337564 8.791808 1.690913 11697996
10.930051 10.742977 2.714041 11697996
9.593444 8.990564 1.298604 11697996
8.784148 9.735580 0.377920 11697996
8.868838 9.061662 3.146609 11697996
10.590160 10.727411 2.065900 11697996
10.440836 9.844773 1.372303 11697996
10.362505 8.973078 3.753710 11697996
10.359263 10.714126 2.373828 11697996
11.013810 8.824030 0.167134 11697996
9.025599 9.508571 2.717638 11697996
10.488482 9.722179 2.952008 11697996
10.773365 10.250858 3.103194 11697996
10.363717 8.990929 1.418723 11697996
10.151621 9.669451 2.008817 11697996
9.529379 11.072059 1.929239 11697996
9.734484 9.489318 1.373874 11697996
9.312160 10.528997 3.842940 11697996
10.890206 9.638435 0.704561 11697996
9.769393 10.560228 2.640594 11697996
8.857372 9.865134 1.575241 11697996
10.252685 10.299570 3.755278 11697996
8.736659 9.737148 1.674248 11697996
9.423108 10.178972 1.840337 11697996
9.490109 9.554296 0.056968 11697996
9.886347 10.169376 1.864964 11697996
9.460860 8.761099 2.167706 11697996
9.422738 10.106412 0.412231 11697996
9.321191 8.782677 3.967450 11697996
8.934954 10.406731 2.396406 11697996
9.589144 10.056042 1.704577 11697996
9.262886 9.907374 0.929985 11697996
10.759048 10.852339 1.364981 11697996
11.167534 9.876400 3.195861 11697996
10.584631 10.222830 1.303104 11697996
8.943666 10.588701 3.703709 11697996
10.538334 10.238727 2.759313 11697996
9.674475 9.302217 3.531333 11697996
10.979203 11.144530 0.946198 11697996
10.397162 10.659143 2.590845 11697996
10.196835 10.652199 1.223555 11697996
10.491431 9.478633 2.196955 11697996
9.930491 9.360961 0.034268 11697996
9.603003 10.697605 0.583604 11697996
10.343464 9.274188 0.282428 11697996
8.996881 10.777241 0.494062 11697996
10.408017 10.906090 2.007548 11697996
10.048138 9.033072 2.645292 11697996
10.172626 9.228070 3.784520 11697996
10.835289 9.825627 2.860201 11697996
10.344775 11.129882 1.065682 11697996
10.954246 9.079035 0.515417 11697996
11.170193 9.992966 1.442950 11697996
9.374270 10.212613 3.537288 11697996
9.116984 8.824546 1.229859 11697996
10.340754 10.535147 1.336450 11697996
8.901741 8.918755 3.275217 11697996
10.264444 9.211694 3.886549 11697996
9.099199 10.315623 2.616602 11697996
9.223644 9.816657 0.662648 11697996
9.838165 11.085855 3.332448 11697996
8.964957 10.279037 3.247670 11697996
8.798496 11.227847 2.904356 11697996
9.404345 10.339607 3.577582 11697996
11.152663 11.206161 0.501521 11697996
8.955526 9.252230 0.644262 11697996
10.254822 8.948261 3.665435 11697996
10.444357 11.094346 0.594958 11697996
8.746369 9.802867 3.625116 11697996
10.111192 10.364857 3.562993 11697996
9.597260 10.219414 1.113710 11697996
9.713120 8.774014 3.128255 11697996
9.993303 9.524599 3.136546 11697996
10.531056 9.846889 2.852268 11697996
9.342647 9.004305 1.065223 11697996
10.786202 11.080255 1.574926 11697996
9.942529 9.353619 3.118090 11697996
10.334559 9.429764 1.325956 11697996
10.391421 10.933099 3.315904 11697996
8.849395 9.668407 1.925763 11697996
9.236982 10.798668 3.050917 11697996
9.393875 10.770610 1.293552 11697996
9.302925 9.913934 2.332716 11697996
11.107766 9.011536 0.188198 11697996
10.103036 9.005586 1.881399 11697996
10.678422 9.900539 1.104774 11697996
10.341525 10.166388 0.614796 11697996
10.966886 9.687806 3.099099 11697996
8.853333 10.626838 1.585114 11697996
10.215014 9.640543 3.039389 11697996
9.043480 10.491608 3.405376 11697996
10.268552 10.481999 0.000899 11697996
9.093976 10.391068 2.130220 11697996
9.852339 10.502579 1.654419 11697996
10.067385 9.861747 1.477089 11697996
10.844828 9.906938 1.295835 11697996
9.480610 8.982819 1.815148 11697996
10.567164 9.186530 2.184461 11697996
11.180100 10.346555 3.122942 11697996
11.222195 9.372262 3.482733 11697996
9.934274 9.066522 1.581487 11697996
10.958146 9.803123 1.100163 11697996
11.221050 10.069032 0.420847 11697996
9.867168 8.750975 2.291050 11697996
10.050761 9.485514 2.322869 11697996
10.001287 10.754601 1.718304 11697996
9.904384 9.945605 2.825077 11697996
9.946700 10.713325 3.791615 11697996
10.733907 9.333076 2.477603 11697996
9.449532 8.937611 0.258094 11697996
9.341559 8.850923 0.486122 11697996
9.086998 10.632398 3.213929 11697996
8.915565 9.530345 3.326681 11697996
10.132296 10.989249 0.127244 11697996
8.735935 10.488283 3.798222 11697996
10.314636 8.832001 3.526655 11697996
9.277000 10.577973 1.787895 11697996
9.419676 10.903195 1.882962 11697996
8.961813 9.915488 0.208521 11697996
10.422799 9.471119 2.720185 11697996
10.500279 9.622898 3.258744 11697996
10.286980 9.763698 0.839040 11697996
9.248297 10.127229 0.259271 11697996
8.815657 10.305429 0.949470 11697996
10.460881 11.234777 3.573737 11697996
9.013487 8.897558 2.872741 11697996
9.506215 10.417892 3.705041 11697996
8.784937 10.054393 2.489489 11697996
10.761423 10.600761 3.397149 11697996
11.039001 11.219705 3.635645 11697996
10.479623 8.820917 0.951263 11697996
8.943139 10.296291 0.033286 11697996
9.097761 9.409726 0.726008 11697996
9.260452 8.898562 0.279338 11697996
9.587781 9.160102 0.223291 11697996
10.890704 10.335534 1.708823 11697996
9.851519 10.261670 3.606818 11697996
9.096921 9.803901 1.798845 11697996
9.919538 9.465873 1.231560 11697996
9.413199 9.174960 1.507706 11697996
10.147514 10.472312 3.064075 11697996
10.158528 9.917410 0.762688 11697996
11.030760 9.091219 1.673971 11697996
8.753717 10.499014 0.252454 11697996
10.421893 11.117185 2.028544 11697996
9.891138 9.569964 1.745226 11697996
11.227022 10.151799 0.769008 11697996
9.819818 9.153910 1.834019 11697996
9.745175 9.650094 2.947041 11697996
10.730745 9.465799 3.020251 11697996
10.534621 8.714562 2.928460 11697996
10.605655 10.573664 2.314404 11697996
9.333725 9.827177 3.213340 11697996
10.381362 10.728437 2.602736 11697996
10.356630 10.561932 2.518107 11697996
8.759084 8.886168 0.463657 11697996
10.181866 9.002717 2.628213 11697996
9.918496 10.261900 2.023844 11697996
9.802228 11.214313 2.464589 11697996
8.744804 9.471446 0.045731 11697996
10.631627 9.444501 0.350734 11697996
-9.813898 -10.472534 0.675155 6730418
-10.268355 -10.941235 1.093982 6730418
-10.583340 -9.866858 2.198184 6730418
-10.405596 -9.415098 0.324483 6730418
-9.676004 -9.564822 1.824529 6730418
-9.915466 -9.380959 2.440903 6730418
-10.000806 -10.276401 2.924653 6730418
-9.627684 -9.353381 0.179468 6730418
-9.578298 -9.709342 2.402754 6730418
-9.419731 -10.312021 0.274488 6730418
-10.760390 -9.744533 1.208390 6730418
-9.458857 -10.344573 2.005035 6730418
-9.616809 -10.867748 2.897403 6730418
-10.230625 -10.163136 1.421276 6730418
-9.504791 -10.145574 0.789759 6730418
-9.314756 -10.609068 1.759925 6730418
-10.480076 -9.783467 0.190706 6730418
-9.311044 -10.722505 1.792118 6730418
-9.565748 -10.758856 1.304014 6730418
-9.865569 -10.482745 1.603710 6730418
-9.360305 -10.516200 1.780699 6730418
-9.812979 -9.253619 1.256907 6730418
-9.821356 -9.043730 2.133569 6730418
-9.748490 -10.769143 0.132903 6730418
-10.296762 -10.035403 0.297656 6730418
-10.098026 -9.705114 0.851278 6730418
-10.283995 -10.502265 0.462393 6730418
-9.935106 -9.576688 0.906236 6730418
-10.409641 -10.453695 0.966931 6730418
-9.602680 -10.401179 2.076590 6730418
-10.216922 -10.614069 2.028062 6730418
-9.476374 -9.291877 2.831335 6730418
-9.980627 -10.897164 1.219969 6730418
-10.819499 -9.453714 1.746444 6730418
-9.607695 -9.409117 2.120164 6730418
-10.425325 -9.822115 0.299544 6730418
-9.879690 -9.769227 1.172375 6730418
-9.569705 -10.587804 1.058610 6730418
-9.775271 -10.736378 1.897755 6730418
-9.353117 -9.475681 1.130298 6730418
-9.143107 -10.277429 0.486401 6730418
-9.899934 -10.777950 0.210627 6730418
-10.020988 -9.179869 2.569665 6730418
-9.555401 -10.170120 2.727452 6730418
-9.880064 -9.429642 2.478359 6730418
-10.341789 -9.820921 1.862085 6730418
-9.822485 -10.395269 0.867660 6730418
-9.406760 -9.437342 1.217775 6730418
-10.559618 -10.486097 1.838609 6730418
-9.476640 -9.414292 2.321036 6730418
-10.823999 -10.297896 2.745536 6730418
-9.274351 -9.850919 2.681161 6730418
-10.601043 -10.017544 1.961970 6730418
-9.905566 -10.135247 1.155361 6730418
-10.407979 -10.505537 2.597199 6730418
-9.906415 -10.450016 0.722589 6730418
-9.837937 -9.800129 1.408221 6730418
-9.508540 -10.232185 2.599692 6730418
-9.791418 -9.305197 1.789413 6730418
-9.755894 -10.520483 2.897870 6730418
-10.259633 -10.225063 1.263743 6730418
-9.112223 -9.737170 1.248029 6730418
-9.363528 -9.970764 2.121999 6730418
-10.202971 -9.096934 2.099545 6730418
-9.322765 -9.735677 2.698809 6730418
-10.180709 -9.328037 1.059770 6730418
-9.677623 -9.602001 1.206812 6730418
-10.081475 -9.087176 1.156241 6730418
-9.782695 -9.902172 0.909482 6730418
-10.577709 -10.594245 0.636551 6730418
-9.213536 -10.560539 0.767394 6730418
-10.042066 -10.872671 1.828295 6730418
-9.992775 -9.581638 2.845093 6730418
-9.685400 -10.149023 0.379993 6730418
-9.957227 -10.066146 1.522427 6730418
-9.500249 -9.321363 1.910679 6730418
-9.157203 -9.565810 1.151896 6730418
-10.040860 -9.170002 0.099753 6730418
-9.611447 -9.899819 0.736594 6730418
-9.758476 -9.908831 2.297118 6730418
-9.319221 -10.725469 1.962700 6730418
-10.469716 -9.430548 1.172948 6730418
-10.380853 -9.642963 2.692417 6730418
-9.171767 -9.936112 2.818414 6730418
-9.418143 -10.363723 0.139087 6730418
-10.204092 -9.445754 1.610733 6730418
-10.761834 -9.816276 1.448829 6730418
-10.212283 -9.819462 2.188849 6730418
-10.497944 -9.428453 1.193997 6730418
-10.029497 -9.364234 0.582841 6730418
-10.879245 -10.184894 2.670687 6730418
-9.944486 -9.700993 2.335347 6730418
-10.802779 -9.877116 1.517135 6730418
-10.694906 -9.740957 0.828086 6730418
-9.685287 -10.489616 2.741322 6730418
-10.689508 -10.617549 1.393895 6730418
-10.059313 -10.332484 1.586374 6730418
-9.744855 -10.976103 0.335257 6730418
-10.020233 -10.376201 1.153570 6730418
-9.450340 -10.253727 1.146537 6730418
-9.637986 -10.253833 2.199278 6730418
-9.080098 -9.842470 0.372448 6730418
-10.642379 -10.140302 0.448961 6730418
-9.482285 -10.535263 1.550902 6730418
-9.789136 -10.363807 1.981754 6730418
-9.966945 -10.230289 2.833746 6730418
-10.027607 -10.245234 2.435617 6730418
-9.448550 -9.585467 0.743178 6730418
-9.468412 -9.919292 2.654516 6730418
-9.715745 -10.500156 2.117339 6730418
-9.445114 -10.246945 0.554787 6730418
-9.026984 -10.301278 1.059679 6730418
-9.755535 -9.126838 0.910776 6730418
-9.232472 -10.440735 2.435022 6730418
-9.673504 -9.753006 2.751841 6730418
-9.101410 -10.303392 0.133043 6730418
-9.629049 -10.402043 1.015603 6730418
-10.376862 -10.481921 2.321984 6730418
-9.652404 -9.091003 1.860252 6730418
-9.283416 -10.088593 1.539330 6730418
-9.141611 -9.578792 1.743496 6730418
-9.329306 -9.517155 2.258397 6730418
-10.351588 -10.650070 0.655012 6730418
-9.257949 -10.381940 1.015232 6730418
-9.218829 -9.482819 0.315339 6730418
-9.289082 -10.010024 1.374658 6730418
-9.161173 -10.198221 1.848782 6730418
-10.375875 -9.278835 0.716881 6730418
-10.921892 -10.100394 2.207561 6730418
-9.879036 -9.406403 2.656051 6730418
-10.853463 -9.521018 1.617567 6730418
-9.235634 -10.227363 2.057353 6730418
-9.518329 -10.850671 2.807853 6730418
-9.419354 -10.438669 2.779307 6730418
-10.503016 -10.365281 2.124876 6730418
-9.981096 -10.574364 1.518597 6730418
-9.566284 -9.184779 2.668408 6730418
-9.971232 -10.497313 2.576622 6730418
-10.922371 -10.295152 1.714569 6730418
-10.259720 -9.507521 1.491405 6730418
-9.639383 -10.655261 2.439122 6730418
-9.439307 -9.969348 1.875766 6730418
-9.897838 -10.256427 0.093159 6730418
-10.613762 -10.390861 0.259713 6730418
-9.210566 -10.026951 0.014567 6730418
-10.782055 -10.315846 0.297215 6730418
-9.475662 -9.766279 1.864509 6730418
-10.517874 -9.870858 0.908098 6730418
-9.478637 -10.029664 1.471377 6730418
-9.902403 -10.307197 0.939381 6730418
-9.814079 -10.918488 0.066567 6730418
-10.025600 -9.555355 2.255097 6730418
-9.730779 -10.088663 2.009665 6730418
-9.175161 -10.488613 2.768301 6730418
-10.216045 -9.980267 2.027448 6730418
-10.393187 -9.937861 2.504443 6730418
-9.693304 -10.145607 2.524132 6730418
-10.127857 -9.953115 2.535825 6730418
-9.206146 -10.399047 1.133181 6730418
-10.351089 -10.711614 2.764875 6730418
-10.046640 -9.623964 2.822503 6730418
-9.262791 -10.614868 0.783284 6730418
-10.226880 -9.463022 1.238077 6730418
-10.016339 -9.237656 0.990547 6730418
-10.325852 -9.190814 2.723206 6730418
-9.392021 -10.534373 0.682531 6730418
-10.798334 -10.019286 0.926737 6730418
-9.939275 -10.634909 0.067282 6730418
-9.323659 -9.958377 1.810360 6730418
-9.381480 -9.236773 1.595725 6730418
-10.887824 -9.595534 0.615671 6730418
-9.513460 -9.882788 1.123820 6730418
-10.151406 -9.944363 1.338189 6730418
-10.074724 -9.865182 1.554283 6730418
-10.240843 -10.138232 2.143745 6730418
-9.624898 -9.428350 1.114756 6730418
-10.408693 -9.745449 0.869296 6730418
-10.333431 -9.377636 1.668948 6730418
-10.410714 -10.544864 2.939677 6730418
-10.250997 -10.996569 2.882665 6730418
-9.946405 -10.857919 2.330113 6730418
-9.930729 -9.547712 1.193670 6730418
-9.864847 -9.901660 2.567183 6730418
-9.550183 -9.368690 1.129022 6730418
-10.510675 -10.254272 1.019612 6730418
-9.812973 -9.941833 1.118377 6730418
-9.848541 -10.292370 2.082742 6730418
-9.635718 -9.585433 2.276314 6730418
-9.600348 -10.614180 2.313115 6730418
-9.836643 -9.183075 2.023244 6730418
-10.471249 -10.373804 0.612213 6730418
-10.016962 -10.970813 2.010832 6730418
-9.253545 -10.124646 0.064766 6730418
-10.437067 -9.483056 2.961147 6730418
-9.234527 -9.478229 2.276295 6730418
-10.142282 -9.202323 0.160221 6730418
-9.868447 -9.173162 2.239851 6730418
-9.091195 -9.830434 1.478887 6730418
-10.232824 -10.467078 0.399798 6730418
-9.708058 -9.087553 1.466743 6730418
-9.198212 -9.707182 1.682943 6730418
-9.229114 -9.532966 0.847280 6730418
-9.461720 -10.101077 0.667402 6730418
-9.437340 -10.400333 2.580003 6730418
-10.779043 -10.024821 0.447162 6730418
-10.721750 -9.873649 1.914671 6730418
-9.078121 -9.687611 0.662964 6730418
-9.778711 -9.684970 1.543492 6730418
-10.373351 -10.453386 1.524422 6730418
-9.219816 -9.463206 1.084113 6730418
-10.227589 -9.198499 2.287656 6730418
-10.811956 -9.632519 0.977872 6730418
-9.229765 -9.701139 0.463946 6730418
-9.691521 -9.781537 2.988458 6730418
-10.769319 -10.206644 2.379809 6730418
-9.233324 -9.808895 0.076106 6730418
-10.045981 -9.192369 2.128242 6730418
-9.697351 -10.279894 2.753474 6730418
-10.220121 -10.832100 1.885126 6730418
-9.493335 -10.098126 1.072733 6730418
-10.196166 -10.297050 1.176430 6730418
-10.164038 -9.779265 2.535914 6730418
-10.919350 -9.932162 1.774633 6730418
-9.231297 -9.615294 1.954569 6730418
-9.248196 -9.511099 2.028217 6730418
-9.888330 -10.224524 2.602323 6730418
-10.788507 -10.500536 2.446417 6730418
-9.337436 -10.427645 1.762177 6730418
-10.417226 -9.715482 1.225582 6730418
-10.199944 -10.169768 2.933482 6730418
-9.609096 -9.307281 1.768345 6730418
-9.436962 -10.806114 1.419956 6730418
-9.774782 -10.356214 0.625947 6730418
-9.551295 -10.302860 1.389788 6730418
-9.370512 -10.114684 1.221988 6730418
-9.388399 -9.245117 0.311677 6730418
-10.191797 -10.697306 0.960316 6730418
-10.529345 -10.492728 1.481206 6730418
-10.447982 -10.482145 2.435996 6730418
-10.584230 -9.971080 0.864523 6730418
-9.623443 -10.889365 1.936534 6730418
-9.227514 -10.463928 1.876819 6730418
-10.447651 -9.756178 2.696101 6730418
-10.335090 -10.221281 0.463920 6730418
-9.779543 -10.666694 2.648972 6730418
-10.888995 -10.020338 2.570129 6730418
-9.513229 -9.132089 0.826618 6730418
-10.036436 -10.294713 0.619423 6730418
-10.321277 -9.898953 0.397010 6730418
-9.953481 -9.867503 0.711899 6730418
-9.377744 -10.564330 0.702262 6730418
-10.716244 -10.131490 2.572629 6730418
-9.466018 -9.230569 2.966539 6730418
-9.972755 -9.437107 2.257527 6730418
-10.825498 -9.530183 2.566879 6730418
-10.010503 -10.445959 2.560003 6730418
-10.550753 -10.503433 2.382822 6730418
-9.538215 -9.848965 2.274052 6730418
-10.799874 -10.441169 0.625635 6730418
-10.584930 -9.245653 0.321899 6730418
-9.689657 -9.227517 1.754345 6730418
-9.228086 -10.007648 1.009985 6730418
-10.163235 -10.410480 2.352301 6730418
-10.819235 -10.181372 1.669175 6730418
-9.969481 -9.433335 1.354158 6730418
-9.225575 -10.180127 1.255338 6730418
-9.761787 -10.560448 0.317572 6730418
-10.094730 -10.286016 1.565499 6730418
-10.826626 -9.990753 1.529067 6730418
-10.013504 -10.628530 0.149487 6730418
-10.711090 -9.780430 2.608109 6730418
-9.136861 -10.076070 2.672011 6730418
-9.818855 -10.300649 2.629685 6730418
-10.891974 -10.160455 2.604766 6730418
-10.510661 -9.169079 0.905396 6730418
-10.057972 -9.506537 2.400567 6730418
-9.470276 -10.492209 0.854625 6730418
-10.590789 -9.174782 2.239371 6730418
-10.081067 -10.210422 1.135090 6730418
-9.483844 -9.146534 2.036438 6730418
-9.412562 -9.656192 2.129857 6730418
-10.004437 -9.900020 2.366873 6730418
-10.291183 -9.286116 0.027762 6730418
-10.113270 -9.506944 1.586731 6730418
-10.699436 -10.593299 1.050529 6730418
-10.646165 -9.845161 1.931591 6730418
-9.071931 -9.915768 1.916017 6730418
-9.349803 -9.836139 1.225445 6730418
-9.809255 -9.202683 1.339357 6730418
-9.854876 -9.192023 0.057653 6730418
-9.059301 -9.955942 0.059941 6730418
-9.398234 -10.733404 0.530547 6730418
-10.657041 -9.846132 0.439318 6730418
-10.488328 -10.221058 2.532544 6730418
-9.688314 -10.286691 1.103585 6730418
-9.466154 -9.427954 0.565491 6730418
-9.456399 -10.776881 1.633454 6730418
-9.989104 -9.531431 0.231742 6730418
-10.711358 -9.977970 1.266243 6730418
-9.825797 -10.640334 0.644666 6730418
-9.195576 -9.557908 0.784171 6730418
-9.641164 -9.437760 2.185358 6730418
-9.835111 -10.906900 0.198892 6730418
-10.151680 -9.217934 2.425232 6730418
-10.385356 -9.493350 1.050386 6730418
-10.713131 -10.308350 1.955436 6730418
-10.862369 -10.401035 2.206812 6730418
-10.316136 -10.591824 1.105652 6730418
-10.075553 -10.703530 1.025485 6730418
-9.685987 -9.768653 1.496793 6730418
-10.619382 -10.312699 1.218240 6730418
-10.594226 -10.763267 2.144631 6730418
-10.920051 -10.189138 2.573987 6730418
-10.733990 -10.460090 2.186157 6730418
-10.112897 -9.372170 1.191320 6730418
-9.508865 -10.323254 0.502033 6730418
-10.154620 -10.671600 0.694109 6730418
-9.394557 -10.712683 0.095522 6730418
-9.491755 -9.454947 1.565902 6730418
-10.528114 -9.334297 1.580171 6730418
-10.507268 -10.514331 2.091318 6730418
-10.131600 -9.642651 2.026149 6730418
-10.777693 -9.618155 0.661035 6730418
-10.515982 -9.999595 2.829363 6730418
-10.907650 -9.908889 2.958801 6730418
-9.734121 -9.768926 1.118560 6730418
-10.902124 -9.707238 0.161111 6730418
-9.895350 -9.773412 2.599976 6730418
-9.508502 -9.239183 2.610964 6730418
-9.248139 -9.378675 0.322087 6730418
-9.900652 -9.695104 2.423084 6730418
-10.354821 -9.666486 0.324768 6730418
-10.813903 -9.977757 0.604080 6730418
-9.956852 -9.171440 1.649289 6730418
-9.753383 -9.074458 2.258882 6730418
-10.468559 -9.244659 1.212650 6730418
-10.086785 -10.044084 1.997712 6730418
-9.543910 -10.071084 0.118735 6730418
-9.356768 -9.247228 2.641790 6730418
-10.360185 -10.083140 1.012671 6730418
-10.257322 -10.202096 1.100414 6730418
-10.643092 -10.234225 0.548750 6730418
-10.477223 -10.209993 2.206527 6730418
-9.875955 -9.438995 2.263750 6730418
-9.279543 -9.411719 0.701527 6730418
-9.989558 -10.161224 1.441167 6730418
-10.373916 -9.671571 1.765198 6730418
-10.485612 -10.148346 2.452565 6730418
-9.760659 -10.383942 2.342435 6730418
-9.588871 -9.553417 2.950686 6730418
-10.693375 -9.978454 2.812407 6730418
-9.504366 -10.320886 2.316316 6730418
-9.983456 -10.028402 2.621727 6730418
-10.323985 -10.592111 1.184560 6730418
-10.089053 -9.983167 1.280489 6730418
-10.305248 -9.186256 1.324067 6730418
-9.555164 -10.165277 0.630419 6730418
-9.841295 -10.600801 0.169385 6730418
-9.787772 -10.255020 0.826293 6730418
-10.696484 -10.643530 2.907919 6730418
-9.617188 -9.380052 0.758754 6730418
-10.960576 -10.270144 1.359675 6730418
-10.336587 -9.929868 2.198187 6730418
-9.697793 -9.552876 0.918374 6730418
-9.816704 -9.154242 2.376158 6730418
-9.629800 -9.643960 1.362627 6730418
-9.264016 -9.674704 2.468711 6730418
-10.086357 -9.352974 2.594025 6730418
-10.529513 -9.702619 2.871967 6730418
-9.594584 -10.398354 2.151815 6730418
-9.492669 -10.727707 1.899643 6730418
-10.284987 -9.077420 1.832080 6730418
-10.306189 -10.369410 1.714377 6730418
-9.493048 -9.300460 1.193884 6730418
-9.887111 -10.245315 2.179428 6730418
-10.126967 -9.720320 1.837827 6730418
-10.858161 -10.294622 0.885795 6730418
-10.713793 -9.763379 0.658137 6730418
-9.339067 -9.343773 1.780843 6730418
-9.069812 -10.013093 0.062253 6730418
-10.750669 -9.497396 0.265648 6730418
-10.113538 -9.563826 1.736579 6730418
-10.433133 -9.554811 1.273170 6730418
-10.769712 -9.458404 1.146459 6730418
-10.297452 -10.039487 2.106340 6730418
-9.996824 -9.421797 2.749645 6730418
-10.802452 -9.535980 1.740667 6730418
-10.595308 -10.043268 1.113458 6730418
-10.920811 -9.737411 0.510895 6730418
-10.082729 -10.156418 0.988979 6730418
-9.408674 -9.661319 2.062293 6730418
-10.085226 -9.523986 2.762142 6730418
-10.654449 -9.400778 0.483938 6730418
-10.100262 -9.434086 0.881045 6730418
-10.748777 -10.247252 2.035979 6730418
-10.440123 -9.885857 0.635093 6730418
-9.346897 -10.499943 1.168608 6730418
-9.669421 -10.634057 1.772803 6730418
-9.977678 -10.343159 2.983052 6730418
-10.738019 -10.624608 0.360068 6730418
-10.084682 -10.078423 1.039883 6730418
-10.410697 -9.114297 0.784180 6730418
-10.107033 -10.498030 0.292713 6730418
-10.467891 -10.170005 1.742201 6730418
-9.246970 -9.376390 0.040802 6730418
-10.344986 -10.004511 0.741326 6730418
-10.469319 -9.521520 2.573475 6730418
-9.239411 -10.042374 2.911191 6730418
-10.530686 -9.787702 2.168534 6730418
-9.817747 -10.120935 0.977691 6730418
-10.326684 -10.516785 0.251613 6730418
-10.910176 -9.914474 1.625316 6730418
-9.213321 -9.841266 2.286849 6730418
-9.756901 -9.144860 0.240368 6730418
-10.589329 -10.002264 2.350783 6730418
-10.109405 -10.737645 1.951036 6730418
-10.909452 -9.775079 -0.019415 6730418
-10.643917 -9.880287 0.798567 6730418
-10.215829 -10.358059 2.545074 6730418
-10.427737 -10.655676 1.214894 6730418
-10.623485 -9.363066 2.595884 6730418
-9.179535 -10.582052 0.500721 6730418
-9.881207 -9.677774 2.485389 6730418
-9.142229 -9.900794 2.400501 6730418
-10.204646 -10.374091 1.042193 6730418
-9.344049 -9.829858 1.025783 6730418
-10.318729 -10.718275 2.772622 6730418
-9.694821 -10.214397 0.753451 6730418
-10.580681 -9.814612 2.067982 6730418
-9.979051 -10.962699 2.264613 6730418
-9.806167 -9.728735 2.185707 6730418
-10.199912 -9.253208 1.073447 6730418
-10.201759 -10.428234 1.608286 6730418
-9.582082 -9.929564 0.542606 6730418
-10.185974 -10.143542 2.326557 6730418
-9.303962 -10.677539 1.168016 6730418
-9.212344 -10.264822 0.644916 6730418
-9.568734 -9.923396 1.041102 6730418
-9.871752 -9.629335 2.573677 6730418
-10.500284 -9.780846 0.613381 6730418
-10.225167 -9.879183 0.454049 6730418
-10.430571 -10.673187 2.993632 6730418
-9.478610 -9.721927 2.449477 6730418
-9.089452 -10.268771 2.830110 6730418
-9.896857 -10.698311 0.844466 6730418
-9.884685 -10.721132 2.991989 6730418
-10.328341 -10.227499 0.981390 6730418
-10.473437 -10.384057 1.249340 6730418
-10.469401 -10.365187 1.798160 6730418
-10.564293 -10.782540 2.474308 6730418
-10.125237 -9.609818 2.148905 6730418
-10.027198 -9.570804 0.597503 6730418
-10.797626 -10.492179 1.116655 6730418
-9.038479 -10.114704 1.421484 6730418
-10.355739 -10.899485 0.031111 6730418
-9.765289 -9.564661 2.750520 6730418
-10.360399 -10.469827 2.467941 6730418
-9.897714 -10.726721 2.138359 6730418
-9.170650 -9.829672 0.915388 6730418
-9.350794 -10.750463 2.823853 6730418
-10.585460 -10.535490 0.056987 6730418
-9.976055 -9.881975 0.877526 6730418
-10.089842 -9.710192 2.013136 6730418
-9.745762 -9.907750 0.501149 6730418
-9.117071 -10.308315 0.542018 6730418
-9.826532 -10.330187 1.353610 6730418
-10.657866 -10.077379 1.350915 6730418
-9.011926 -9.861804 2.106417 6730418
-10.436365 -10.553731 0.686007 6730418
-10.138803 -9.749239 2.887084 6730418
-9.106763 -10.453891 0.019830 6730418
-10.957219 -9.855228 1.452753 6730418
-10.180312 -10.125525 2.166996 6730418
-10.355013 -10.302124 0.346673 6730418
-9.265272 -10.575887 1.053865 6730418
-10.094521 -10.096013 1.061231 6730418
-10.710069 -10.246009 2.479827 6730418
-9.767295 -10.496040 2.976920 6730418
-9.881637 -10.022814 1.277650 6730418
-9.725746 -10.822194 2.331249 6730418
-9.181921 -10.308411 1.494993 6730418
-10.481423 -9.556973 1.437506 6730418
-9.639936 -10.164624 2.699908 6730418
-10.593905 -9.380687 2.089716 6730418
-10.071235 -9.249263 1.624678 6730418
-10.408606 -9.807285 0.243660 6730418
-9.250994 -10.191659 2.859891 6730418
-10.770572 -10.072699 0.186920 6730418
-9.297477 -10.170587 2.794138 6730418
-10.115884 -10.860642 1.460897 6730418
-9.689357 -10.206357 1.122804 6730418
-10.946003 -10.004759 2.040757 6730418
-9.612437 -9.218855 2.547334 6730418
-10.554142 -9.261895 0.275772 6730418
-9.090066 -10.305676 2.728459 6730418
-10.198583 -10.656913 1.666246 6730418
-9.325735 -10.214086 0.420403 6730418
-10.399022 -10.287129 1.450655 6730418
-10.317559 -9.579816 2.578660 6730418
-10.862580 -9.538167 2.885837 6730418
-9.977049 -9.284992 0.841608 6730418
-9.283195 -9.493026 2.444723 6730418
-10.144517 -9.217540 2.742159 6730418
-10.749405 -9.773003 2.606909 6730418
-9.460359 -9.439859 0.321029 6730418
-9.306068 -9.509696 2.083901 6730418
-10.219244 -10.893906 0.397315 6730418
-9.106750 -10.344779 0.472002 6730418
-10.893314 -9.573909 1.397426 6730418
-9.975292 -10.099016 0.559918 6730418
-10.292902 -9.735364 1.599351 6730418
-10.650306 -9.737486 2.425415 6730418
-10.193403 -9.405405 1.664639 6730418
-9.501472 -10.145908 2.440094 6730418
-10.364572 -10.773627 2.938512 6730418
-10.059474 -10.425691 0.509066 6730418
-9.509868 -10.652403 2.253135 6730418
-9.575029 -10.747005 0.045144 6730418
-9.542724 -9.249794 1.192347 6730418
-9.460523 -9.449862 2.415361 6730418
-9.592643 -9.125752 0.192390 6730418
-10.225834 -10.249410 0.703260 6730418
-9.792988 -10.319296 0.044910 6730418
-10.357216 -9.285164 2.403960 6730418
-10.322430 -10.424699 0.096322 6730418
-9.445234 -10.757223 2.566118 6730418
-9.602433 -9.387409 0.481506 6730418
-9.124017 -10.011892 2.655384 6730418
-9.984099 -9.989760 2.773176 6730418
-10.506847 -10.470285 0.486602 6730418
-9.572053 -10.738884 1.827494 6730418
-10.734042 -10.366810 0.950417 6730418
-10.288332 -9.262000 1.179700 6730418
-10.571200 -10.007970 0.187250 6730418
-10.732100 -10.086453 0.741947 6730418
-9.893625 -10.824423 2.536971 6730418
-10.489672 -9.560646 2.830728 6730418
