# .PCD v0.7 - Point Cloud Data file format
VERSION 0.7
FIELDS x y z rgb
SIZE 4 4 4 4
TYPE F F F U
COUNT 1 1 1 1
WIDTH 1272
HEIGHT 1
VIEWPOINT 0 0 0 1 0 0 0
POINTS 1272
DATA ascii
10.999830 11.112044 3.964194 11697996
11.111274 11.168288 2.008451 11697996
9.217138 9.014178 0.243612 11697996
9.761662 9.796879 3.563019 11697996
9.307448 11.072779 1.608305 11697996
8.922425 10.570983 0.408571 11697996
11.153793 11.000778 2.687008 11697996
8.854021 10.691582 1.588645 11697996
10.642700 9.419213 1.031212 11697996
10.834544 9.581253 3.171470 11697996
10.157821 10.216882 0.945945 11697996
9.074569 9.671583 2.364947 11697996
11.100768 9.114491 0.531227 11697996
9.401605 8.832681 2.183090 11697996
10.902256 10.880498 2.349973 11697996
10.432400 10.719249 3.783018 11697996
9.452315 10.929700 0.972351 11697996
9.264317 10.236540 3.475287 11697996
10.309546 9.487332 2.939578 11697996
10.592520 10.425939 3.648531 11697996
8.884088 11.144542 1.203182 11697996
9.575340 10.184947 1.104467 11697996
9.593530 10.024899 3.190343 11697996
10.722654 10.363927 3.221350 11697996
10.178414 9.571502 0.163675 11697996
9.043868 8.910139 0.057931 11697996
9.529496 10.218923 1.422916 11697996
10.634199 9.565480 3.516578 11697996
9.099028 11.195539 0.586683 11697996
9.561867 11.161330 0.490537 11697996
10.743249 8.858150 1.558977 11697996
10.410327 10.832065 2.126207 11697996
11.228610 10.938014 3.068363 11697996
11.149548 8.884955 2.598825 11697996
9.887770 10.814324 3.944402 11697996
9.450714 10.407692 3.923159 11697996
9.103235 9.175635 3.158612 11697996
9.133502 10.551699 3.422772 11697996
10.938659 11.044001 2.844881 11697996
9.602140 10.456093 2.070127 11697996
9.352131 9.982412 3.737307 11697996
10.901358 9.731583 3.763614 11697996
9.592987 9.086255 0.403869 11697996
9.075497 9.216597 0.553480 11697996
9.508119 9.031143 1.361524 11697996
9.740612 10.352614 3.224414 11697996
10.842412 9.293100 0.765794 11697996
9.072514 10.193829 1.953704 11697996
9.521433 10.542373 1.083799 11697996
10.093206 9.260871 2.780909 11697996
9.475261 10.200858 -0.003955 11697996
9.402189 9.169041 0.239763 11697996
10.868251 9.892084 1.496025 11697996
9.834914 10.768308 0.197184 11697996
9.016282 9.716410 0.885293 11697996
10.175413 9.430492 2.050434 11697996
10.894144 9.254850 1.048162 11697996
8.857434 10.232637 1.828208 11697996
8.784433 11.001830 3.584510 11697996
10.556667 9.080383 2.331903 11697996
9.294343 10.936950 1.796820 11697996
10.590871 9.936481 0.529839 11697996
9.469151 9.135021 3.734205 11697996
10.284515 10.258249 0.031164 11697996
10.707380 9.011338 3.699917 11697996
9.121744 11.084702 3.984732 11697996
10.268579 9.272008 1.958289 11697996
8.797624 9.015364 3.685523 11697996
10.344251 9.268172 2.662195 11697996
9.749701 9.976561 3.948459 11697996
8.785335 9.768415 1.490610 11697996
9.283037 10.479202 2.131267 11697996
9.653017 10.652138 2.777590 11697996
9.286844 9.833429 2.155462 11697996
8.774260 10.251038 3.216163 11697996
9.291293 10.949471 0.117550 11697996
8.784554 9.436172 2.502720 11697996
10.872577 9.798304 1.540359 11697996
10.266464 9.795166 1.757973 11697996
10.429642 10.067510 2.327532 11697996
10.156766 9.194293 2.950289 11697996
10.103430 10.329723 3.508497 11697996
9.164719 10.092401 0.985056 11697996
9.372313 8.845102 2.588794 11697996
11.236190 11.128215 1.225988 11697996
9.103889 10.214963 2.609378 11697996
9.630024 9.715184 2.744956 11697996
9.387924 9.778804 1.703185 11697996
9.364659 10.850559 3.606748 11697996
10.689821 8.873574 2.779838 11697996
10.166776 9.339915 1.585017 11697996
10.954334 10.750317 3.827194 11697996
9.102688 9.424663 3.337905 11697996
10.059111 9.641561 0.900854 11697996
9.249114 10.961246 0.437817 11697996
9.037319 10.981541 1.951081 11697996
10.939846 10.804060 1.336623 11697996
9.900655 9.244072 3.192937 11697996
10.364011 9.826463 1.342647 11697996
10.289701 9.883799 3.905490 11697996
9.444133 9.083069 3.574411 11697996
9.783525 10.448787 3.218268 11697996
9.004273 9.830837 2.811906 11697996
10.328621 10.988421 0.439177 11697996
10.108636 10.936046 3.024164 11697996
8.998779 9.501536 0.262019 11697996
8.793219 10.164958 0.948628 11697996
9.684050 10.651994 0.557462 11697996
10.377548 10.163270 3.335990 11697996
9.139790 10.240382 3.665836 11697996
11.241146 10.307398 2.501658 11697996
10.906229 10.011913 2.852033 11697996
10.171702 10.009072 0.147021 11697996
10.545730 9.400704 1.652996 11697996
9.064912 9.126144 0.510812 11697996
8.898131 10.872787 0.489368 11697996
9.099774 10.250011 2.238288 11697996
9.799768 10.608342 2.029381 11697996
10.919587 9.412808 3.375437 11697996
8.983439 10.763261 2.050536 11697996
8.841398 10.124242 2.756972 11697996
9.770315 10.066585 0.634234 11697996
10.721689 10.709807 0.486440 11697996
9.355233 10.101486 3.230381 11697996
8.762683 8.965761 1.705558 11697996
9.629336 9.722248 1.429506 11697996
9.601789 11.122164 2.504331 11697996
11.054539 9.880952 2.818250 11697996
9.468338 9.377753 2.569088 11697996
9.330667 9.603524 1.653311 11697996
10.553209 11.191355 0.368002 11697996
9.281725 8.922364 3.411790 11697996
10.588609 9.770299 2.283379 11697996
9.988681 10.655726 1.545529 11697996
9.805753 11.176811 2.125971 11697996
10.600059 11.026252 2.278900 11697996
9.751090 11.115793 3.417755 11697996
10.115613 8.945581 0.095378 11697996
9.770248 10.496283 1.658888 11697996
8.856647 9.792075 2.766901 11697996
10.129427 9.882407 2.365316 11697996
10.958161 9.914262 1.851358 11697996
10.136093 10.667441 1.099304 11697996
9.260989 8.964561 3.227491 11697996
9.611287 9.619753 0.802817 11697996
9.810997 10.146514 1.004313 11697996
10.022540 9.907067 2.440641 11697996
11.222874 10.518459 3.306207 11697996
9.651746 9.978029 1.910855 11697996
10.660487 8.836308 0.240353 11697996
11.166121 9.322282 0.015057 11697996
11.133742 9.338888 0.830541 11697996
9.730483 10.283445 1.550673 11697996
10.383756 8.988242 0.689641 11697996
11.149103 8.880950 2.787510 11697996
11.227103 9.414295 3.263690 11697996
11.088720 9.169159 2.100726 11697996
11.190934 10.764979 3.923830 11697996
10.538558 9.682295 2.598507 11697996
10.108554 10.124540 0.350542 11697996
10.805923 10.491370 1.386862 11697996
9.489569 8.839469 1.540137 11697996
9.319754 9.952181 3.447333 11697996
10.726843 10.523853 2.083372 11697996
10.895343 8.814846 2.280962 11697996
9.038815 8.869271 3.405595 11697996
10.233866 10.723787 0.399113 11697996
11.110848 10.963319 3.477553 11697996
10.657422 10.462819 3.058681 11697996
9.346234 9.999599 3.430184 11697996
10.411777 11.104147 0.776327 11697996
10.063442 9.373132 0.857321 11697996
10.548919 10.389914 1.690089 11697996
10.012596 10.155555 3.385948 11697996
9.628963 10.054016 2.726163 11697996
10.527487 9.156543 1.179335 11697996
9.968788 9.583800 1.780172 11697996
10.770051 10.261384 1.775259 11697996
10.693325 11.062578 0.936386 11697996
11.045581 9.848167 2.052178 11697996
10.475710 10.182569 1.507494 11697996
11.030572 9.284111 3.897495 11697996
9.179998 9.706178 2.580661 11697996
10.499806 10.292553 2.319037 11697996
9.555563 10.830117 1.728094 11697996
10.530909 9.538995 3.970618 11697996
10.293523 10.336156 1.569975 11697996
9.280442 9.774750 0.307114 11697996
9.011951 10.659997 2.498077 11697996
11.023406 10.986511 3.012245 11697996
9.291926 9.547284 0.100629 11697996
9.405610 10.492639 2.609878 11697996
9.276653 10.106374 0.016523 11697996
10.378919 9.618667 0.281567 11697996
9.918311 10.997532 1.129309 11697996
10.092842 9.896430 0.964866 11697996
9.961661 9.886270 1.795537 11697996
8.958486 9.034415 0.505245 11697996
10.196420 10.351800 3.609079 11697996
10.812735 10.477730 1.536672 11697996
9.269228 10.557262 3.049432 11697996
8.933416 9.295577 3.917162 11697996
9.312638 9.395575 3.777658 11697996
10.512374 10.346898 0.155072 11697996
11.179295 11.060378 2.778117 11697996
10.149085 10.424552 3.997134 11697996
9.038044 11.024885 2.460714 11697996
9.979112 10.592070 1.088193 11697996
10.710394 10.444912 0.978384 11697996
10.274590 9.906298 1.920471 11697996
9.249072 9.853296 3.135705 11697996
10.829679 9.964223 1.292240 11697996
11.229610 8.816976 0.143110 11697996
9.289933 9.555974 1.886522 11697996
9.424676 10.226077 3.920448 11697996
10.623485 10.938692 2.759309 11697996
9.756522 9.436279 2.266602 11697996
11.177785 10.735278 1.649050 11697996
9.068013 10.800540 0.278826 11697996
9.634715 9.685373 0.148901 11697996
9.722154 9.023720 2.271099 11697996
9.825475 11.047146 3.581471 11697996
10.628078 9.150394 3.462093 11697996
9.467906 10.152198 1.856289 11697996
9.643940 9.852003 3.424873 11697996
10.203652 9.573581 3.177930 11697996
10.880822 8.791600 0.656699 11697996
10.184580 9.794545 1.634866 11697996
9.444789 8.989142 3.380305 11697996
10.088689 10.792791 2.285536 11697996
10.085149 9.904089 3.366541 11697996
9.797566 9.074685 3.019399 11697996
11.172107 9.559811 1.194880 11697996
9.198184 9.639546 2.737486 11697996
9.094251 10.062407 1.822061 11697996
11.020820 10.239223 3.429760 11697996
9.070921 9.568561 0.193814 11697996
10.645522 9.809014 1.368731 11697996
10.989539 10.161633 0.067612 11697996
10.424635 10.185118 2.295432 11697996
10.411583 10.582386 2.568195 11697996
10.973308 9.806205 3.769670 11697996
9.418747 10.746181 3.109347 11697996
8.822487 9.843664 3.739073 11697996
10.424125 9.061824 0.424827 11697996
8.907590 9.611712 0.147744 11697996
10.948061 9.912126 1.895958 11697996
10.413844 10.331658 1.398823 11697996
9.010296 9.196521 1.536332 11697996
11.019305 8.957989 1.377436 11697996
9.222013 10.462805 1.179438 11697996
9.542134 11.047593 0.765902 11697996
10.620069 10.995354 2.847301 11697996
11.162118 10.763174 0.146028 11697996
9.139121 8.892195 0.266519 11697996
9.902557 10.019112 3.850804 11697996
10.461215 9.522998 2.685898 11697996
11.042423 10.868107 2.951170 11697996
9.991188 10.756824 0.088373 11697996
10.293162 9.059379 0.262528 11697996
10.418118 10.924905 0.989269 11697996
8.766797 9.449168 0.787828 11697996
9.322392 11.068529 1.232600 11697996
10.724153 9.012939 1.540858 11697996
9.975240 10.618132 0.404447 11697996
10.732410 9.828038 1.736887 11697996
10.224982 10.075955 3.911158 11697996
10.626261 9.380872 3.059977 11697996
10.124935 11.144428 0.282575 11697996
9.019633 9.864964 1.739313 11697996
9.600456 10.116559 3.815624 11697996
9.706532 10.780641 1.273316 11697996
11.045041 11.019346 0.422027 11697996
10.248407 9.173585 2.156585 11697996
8.760638 9.141360 1.832704 11697996
8.780929 9.224195 1.260548 11697996
8.830564 9.524769 2.068723 11697996
9.335182 10.837272 1.799163 11697996
9.017969 10.332878 2.079525 11697996
8.953918 10.636531 1.964514 11697996
9.187907 10.552905 0.315408 11697996
10.110179 11.184813 2.697389 11697996
9.303941 10.160507 3.510251 11697996
11.085221 10.559863 2.637341 11697996
10.704154 9.810030 0.652601 11697996
9.644625 9.014434 2.048060 11697996
10.379824 10.293756 3.017684 11697996
10.195853 9.186547 1.900542 11697996
11.202833 9.862047 2.001596 11697996
11.029045 9.217429 2.206935 11697996
9.960973 11.026664 1.767341 11697996
11.217431 9.504019 1.516590 11697996
9.985801 9.156888 1.435140 11697996
10.676853 10.564191 3.182187 11697996
11.110665 11.163670 3.770228 11697996
9.931648 9.171861 3.658595 11697996
11.201470 11.178617 0.608439 11697996
9.155426 9.263206 3.869105 11697996
10.830868 10.279347 2.570912 11697996
10.129561 10.176456 0.342989 11697996
9.831549 10.236645 0.603215 11697996
10.374808 8.729913 0.291194 11697996
10.442982 9.594438 2.676103 11697996
9.455637 9.181764 2.382507 11697996
8.779338 10.504223 3.900934 11697996
10.895062 10.100681 2.896731 11697996
10.563754 11.016649 3.498410 11697996
9.063006 9.699471 3.650161 11697996
8.784797 9.461891 0.862238 11697996
9.295904 10.835605 2.062316 11697996
10.152596 9.533937 2.942479 11697996
9.661464 9.823442 0.655317 11697996
11.080575 9.790924 2.088995 11697996
10.079639 10.292311 2.305219 11697996
10.778129 11.137200 1.862648 11697996
10.188128 9.655784 3.248684 11697996
8.842603 9.199236 0.251452 11697996
10.771696 9.784236 3.105030 11697996
11.180924 8.806384 0.997383 11697996
9.723598 10.500963 2.713576 11697996
10.905901 10.521544 1.866124 11697996
9.805049 10.793198 3.975718 11697996
10.664792 10.447754 0.144361 11697996
11.037475 9.007701 1.032378 11697996
10.199657 9.156679 0.978711 11697996
10.216181 11.134365 2.416772 11697996
9.496583 10.998021 0.745232 11697996
9.558812 10.621767 0.765142 11697996
9.009520 8.975044 1.452759 11697996
10.743935 9.803751 2.740445 11697996
10.453399 10.022235 2.197275 11697996
10.558136 8.851455 2.502125 11697996
9.016417 11.165455 1.085854 11697996
9.631137 10.145768 3.553311 11697996
9.623262 10.930157 2.909802 11697996
10.581759 9.163226 0.973870 11697996
8.842987 9.154034 1.160838 11697996
11.104202 10.684280 1.724642 11697996
8.945386 9.639159 3.306291 11697996
10.694933 9.141494 2.225337 11697996
10.679793 9.862408 3.844131 11697996
8.874246 9.398211 1.891441 11697996
9.976673 9.293412 1.375342 11697996
10.607655 9.935365 0.790096 11697996
9.535563 10.789234 3.158405 11697996
9.219946 9.563765 3.073611 11697996
10.187882 9.421202 2.911512 11697996
11.236757 9.856988 0.521107 11697996
10.872251 9.470527 0.488717 11697996
10.012393 11.175364 0.785547 11697996
9.621926 9.354680 0.600196 11697996
9.501223 9.600986 3.580478 11697996
9.761072 9.351712 3.436701 11697996
9.864717 9.995719 3.170373 11697996
9.247585 9.758929 2.408065 11697996
9.588159 9.369094 1.827728 11697996
8.816031 9.989573 0.805236 11697996
10.784996 10.522073 0.088924 11697996
8.856175 10.707295 0.376919 11697996
11.075133 11.220272 3.641434 11697996
10.411758 9.278444 1.209969 11697996
10.358681 8.844984 3.443507 11697996
11.139487 11.230742 3.790953 11697996
10.955534 9.791116 1.180878 11697996
11.072561 9.364657 2.891412 11697996
10.011368 10.891527 3.834276 11697996
9.998274 9.953444 2.974221 11697996
10.632807 11.038379 1.475229 11697996
9.893215 10.877843 0.923819 11697996
9.790760 9.624271 2.254464 11697996
10.724663 9.295368 3.277930 11697996
9.495798 9.707212 0.276951 11697996
10.491046 9.114181 2.408436 11697996
8.843334 9.318237 1.334966 11697996
10.545247 9.523654 3.665404 11697996
11.073916 9.101243 1.266050 11697996
10.324377 8.795471 1.683860 11697996
10.913949 10.718935 2.710358 11697996
9.644033 8.992011 1.300539 11697996
8.763160 9.673571 0.367741 11697996
8.834101 9.059892 3.134781 11697996
10.570689 10.727212 2.095317 11697996
10.462884 9.855611 1.355916 11697996
10.373595 8.977857 3.724203 11697996
10.351007 10.713357 2.355498 11697996
11.032712 8.814168 0.153782 11697996
9.030278 9.490959 2.697759 11697996
10.491675 9.743392 2.957893 11697996
10.772900 10.248023 3.116466 11697996
10.415320 8.996709 1.416972 11697996
10.135648 9.668188 2.025912 11697996
9.544791 11.018476 1.934715 11697996
9.802820 9.483579 1.359391 11697996
9.271976 10.494142 3.850159 11697996
10.905097 9.667625 0.722265 11697996
9.790541 10.580875 2.621581 11697996
8.853833 9.841548 1.562554 11697996
10.281440 10.304618 3.724552 11697996
8.769652 9.798727 1.673220 11697996
9.378319 10.157498 1.807109 11697996
9.464105 9.551340 0.079792 11697996
9.889266 10.172199 1.858227 11697996
9.453546 8.772839 2.168913 11697996
9.420199 10.132010 0.407357 11697996
9.326497 8.796921 3.960565 11697996
8.949201 10.369715 2.381844 11697996
9.628269 10.054030 1.670599 11697996
9.267045 9.859424 0.937188 11697996
10.752353 10.833231 1.398080 11697996
11.176306 9.881620 3.167992 11697996
10.539451 10.217122 1.261347 11697996
8.959075 10.619256 3.708057 11697996
10.532971 10.273283 2.746784 11697996
9.688705 9.287361 3.496643 11697996
10.966318 11.153960 0.938997 11697996
10.411328 10.668802 2.598782 11697996
10.202963 10.636216 1.193736 11697996
10.508205 9.470585 2.195611 11697996
9.868175 9.368904 0.067254 11697996
9.576793 10.717949 0.569388 11697996
10.344056 9.292226 0.295312 11697996
9.009616 10.774752 0.462356 11697996
10.393651 10.930106 1.961050 11697996
10.036251 9.072782 2.660980 11697996
10.196793 9.205983 3.787006 11697996
10.858265 9.828657 2.859722 11697996
10.363149 11.115226 1.081969 11697996
10.926707 9.075314 0.500349 11697996
11.135385 10.031991 1.436146 11697996
9.428358 10.229252 3.546534 11697996
9.017017 8.787838 1.265428 11697996
10.340927 10.552501 1.363259 11697996
8.927052 8.920612 3.247653 11697996
10.280364 9.173769 3.917346 11697996
9.117440 10.305966 2.631594 11697996
9.237546 9.819540 0.696393 11697996
9.850866 11.065068 3.344558 11697996
8.992447 10.289566 3.233695 11697996
8.807602 11.233802 2.900591 11697996
9.363628 10.291570 3.561217 11697996
11.176574 11.195104 0.489717 11697996
8.948423 9.282136 0.640121 11697996
10.247804 8.997358 3.692063 11697996
10.453523 11.093874 0.579749 11697996
8.767043 9.840176 3.669483 11697996
10.164943 10.354418 3.544733 11697996
9.545883 10.214154 1.123602 11697996
9.678236 8.749264 3.115735 11697996
10.033175 9.503997 3.116212 11697996
10.531387 9.823718 2.854990 11697996
9.368427 9.017108 1.069566 11697996
10.811360 11.040652 1.593338 11697996
9.956637 9.339218 3.115620 11697996
10.346907 9.416698 1.316811 11697996
10.374696 10.907680 3.326591 11697996
8.845534 9.647219 1.902578 11697996
9.242076 10.769553 3.029762 11697996
9.396780 10.772770 1.280826 11697996
9.295157 9.912630 2.353792 11697996
11.081857 9.002812 0.190329 11697996
10.139989 9.011835 1.881695 11697996
10.705733 9.878662 1.093721 11697996
10.336555 10.184328 0.619230 11697996
10.979032 9.683086 3.090730 11697996
8.862303 10.657467 1.589140 11697996
10.219176 9.655694 3.043916 11697996
9.055367 10.521556 3.423255 11697996
10.227909 10.484188 0.030814 11697996
9.085860 10.383608 2.130299 11697996
9.827132 10.454392 1.646896 11697996
10.067934 9.848622 1.487380 11697996
10.883887 9.919369 1.296782 11697996
9.479394 8.990978 1.803573 11697996
10.582173 9.208981 2.176562 11697996
11.219903 10.340281 3.110288 11697996
11.207888 9.378684 3.464015 11697996
9.926947 9.029546 1.582647 11697996
10.929372 9.841965 1.126353 11697996
11.267093 10.072684 0.417999 11697996
9.871139 8.762215 2.282922 11697996
10.020815 9.478066 2.353162 11697996
9.973770 10.754831 1.726847 11697996
9.917124 9.974535 2.834405 11697996
9.953183 10.693419 3.782790 11697996
10.718507 9.321216 2.485353 11697996
9.437964 8.937703 0.284404 11697996
9.331006 8.869070 0.482434 11697996
9.068995 10.616401 3.243579 11697996
8.910408 9.567682 3.357601 11697996
10.138981 11.000126 0.084109 11697996
8.722899 10.535588 3.759823 11697996
10.293408 8.832810 3.529645 11697996
9.288293 10.588782 1.805548 11697996
9.431015 10.918552 1.861866 11697996
8.945310 9.923776 0.211837 11697996
10.438856 9.475833 2.722549 11697996
10.497239 9.633121 3.273064 11697996
10.274840 9.782479 0.856178 11697996
9.271051 10.130703 0.247769 11697996
8.816194 10.301686 0.966850 11697996
10.461007 11.260839 3.578507 11697996
9.022165 8.937643 2.886533 11697996
9.544840 10.386760 3.707288 11697996
8.777985 10.039020 2.439552 11697996
10.761613 10.607710 3.431478 11697996
10.986540 11.248028 3.633789 11697996
10.486172 8.829442 0.943369 11697996
8.915887 10.291415 0.063408 11697996
9.067433 9.416246 0.725045 11697996
9.238160 8.917064 0.338638 11697996
9.619069 9.164199 0.264555 11697996
10.861975 10.333704 1.721746 11697996
9.838887 10.243660 3.621163 11697996
9.108277 9.803627 1.810505 11697996
9.912327 9.445425 1.248028 11697996
9.375831 9.154657 1.532650 11697996
10.181396 10.487877 3.050182 11697996
10.084029 9.919310 0.766396 11697996
11.043679 9.079867 1.681780 11697996
8.767488 10.505820 0.239326 11697996
10.455579 11.121484 2.026645 11697996
9.886353 9.570399 1.730451 11697996
11.254778 10.186770 0.786915 11697996
9.818832 9.188195 1.790076 11697996
9.763759 9.651065 2.901412 11697996
10.706652 9.442340 3.003607 11697996
10.572350 8.747266 2.900906 11697996
10.605610 10.565081 2.361332 11697996
9.388859 9.858069 3.228752 11697996
10.379643 10.683099 2.626713 11697996
10.368908 10.548641 2.535633 11697996
8.755531 8.868732 0.488100 11697996
10.173067 9.008122 2.640685 11697996
9.898390 10.276162 2.006235 11697996
9.801937 11.196410 2.476441 11697996
8.758595 9.449675 0.032543 11697996
10.623534 9.478919 0.395485 11697996
-9.798972 -10.470264 0.695817 6730418
-10.247074 -10.950957 1.053550 6730418
-10.569738 -9.844820 2.185601 6730418
-10.406059 -9.377449 0.340996 6730418
-9.652070 -9.561218 1.831194 6730418
-9.891617 -9.379369 2.431066 6730418
-9.998734 -10.274889 2.928574 6730418
-9.639256 -9.372373 0.168974 6730418
-9.568868 -9.670218 2.381415 6730418
-9.408314 -10.334885 0.293984 6730418
-10.749895 -9.755617 1.238451 6730418
-9.437618 -10.382312 1.982285 6730418
-9.654155 -10.866086 2.908033 6730418
-10.234498 -10.124725 1.468536 6730418
-9.501767 -10.130842 0.792529 6730418
-9.294582 -10.573397 1.763343 6730418
-10.445824 -9.792047 0.155560 6730418
-9.323553 -10.704163 1.793522 6730418
-9.585414 -10.768969 1.310200 6730418
-9.867521 -10.455126 1.607143 6730418
-9.383801 -10.542029 1.783374 6730418
-9.796044 -9.244610 1.230188 6730418
-9.830608 -9.015983 2.127317 6730418
-9.772820 -10.778291 0.121828 6730418
-10.318926 -10.049084 0.311528 6730418
-10.111367 -9.678539 0.841651 6730418
-10.277126 -10.534034 0.487343 6730418
-9.904490 -9.568280 0.920830 6730418
-10.395474 -10.468018 0.949601 6730418
-9.587049 -10.415785 2.083108 6730418
-10.210633 -10.659322 1.994654 6730418
-9.459488 -9.303665 2.799119 6730418
-9.992144 -10.894524 1.219278 6730418
-10.795431 -9.449287 1.750459 6730418
-9.608008 -9.380459 2.141502 6730418
-10.476554 -9.812020 0.340285 6730418
-9.880205 -9.772164 1.181136 6730418
-9.576316 -10.559116 1.054046 6730418
-9.769835 -10.757278 1.902680 6730418
-9.391401 -9.442781 1.112948 6730418
-9.148706 -10.327865 0.469935 6730418
-9.917763 -10.764112 0.254303 6730418
-10.012185 -9.148699 2.556210 6730418
-9.535177 -10.182899 2.715968 6730418
-9.881810 -9.416555 2.481372 6730418
-10.341825 -9.822892 1.863052 6730418
-9.827853 -10.362508 0.880973 6730418
-9.406163 -9.445343 1.201492 6730418
-10.529819 -10.475115 1.862613 6730418
-9.483747 -9.441482 2.327666 6730418
-10.793535 -10.291588 2.730007 6730418
-9.309009 -9.863745 2.705467 6730418
-10.618975 -9.986856 1.929474 6730418
-9.924550 -10.116167 1.166030 6730418
-10.381971 -10.548573 2.571199 6730418
-9.914238 -10.457969 0.744500 6730418
-9.837701 -9.826736 1.391895 6730418
-9.495833 -10.256729 2.591233 6730418
-9.790608 -9.303891 1.771649 6730418
-9.751526 -10.546766 2.874458 6730418
-10.281199 -10.203444 1.278402 6730418
-9.125913 -9.727166 1.264931 6730418
-9.405037 -9.964558 2.121225 6730418
-10.220284 -9.078292 2.108607 6730418
-9.319050 -9.728186 2.738577 6730418
-10.196259 -9.310165 1.058803 6730418
-9.688953 -9.593058 1.201868 6730418
-10.072479 -9.104458 1.164474 6730418
-9.803969 -9.897578 0.906096 6730418
-10.588945 -10.589661 0.607851 6730418
-9.188023 -10.568408 0.784377 6730418
-10.080658 -10.868333 1.818248 6730418
-9.971452 -9.559106 2.852629 6730418
-9.718824 -10.111860 0.361321 6730418
-9.962450 -10.061646 1.497547 6730418
-9.514206 -9.317107 1.898346 6730418
-9.130497 -9.570999 1.159047 6730418
-10.039843 -9.127185 0.096709 6730418
-9.609264 -9.924317 0.735816 6730418
-9.783482 -9.873550 2.335551 6730418
-9.352237 -10.696909 1.955876 6730418
-10.458821 -9.422286 1.174837 6730418
-10.347557 -9.621624 2.664550 6730418
-9.149979 -9.924833 2.801102 6730418
-9.386439 -10.364958 0.139665 6730418
-10.210267 -9.439889 1.616767 6730418
-10.758053 -9.843470 1.453336 6730418
-10.199240 -9.823812 2.209336 6730418
-10.525180 -9.418950 1.170454 6730418
-10.014950 -9.385782 0.613404 6730418
-10.845861 -10.198118 2.650945 6730418
-9.961459 -9.750097 2.313512 6730418
-10.811581 -9.874444 1.510731 6730418
-10.722368 -9.740788 0.845724 6730418
-9.696628 -10.528442 2.735293 6730418
-10.712019 -10.578251 1.413314 6730418
-10.086262 -10.302447 1.571544 6730418
-9.739506 -10.972283 0.355269 6730418
-10.011904 -10.367455 1.117515 6730418
-9.439301 -10.272088 1.108272 6730418
-9.634711 -10.255913 2.177902 6730418
-9.086045 -9.842935 0.392215 6730418
-10.626251 -10.153640 0.467739 6730418
-9.534675 -10.505270 1.565779 6730418
-9.808101 -10.351210 1.963753 6730418
-9.959655 -10.262811 2.840042 6730418
-10.024902 -10.256800 2.429629 6730418
-9.470290 -9.533279 0.744010 6730418
-9.457120 -9.874279 2.654891 6730418
-9.713531 -10.487958 2.103811 6730418
-9.460429 -10.243421 0.538575 6730418
-9.046333 -10.264179 1.087494 6730418
-9.751959 -9.081337 0.960223 6730418
-9.207830 -10.445621 2.436384 6730418
-9.689409 -9.769042 2.773281 6730418
-9.095644 -10.293652 0.119966 6730418
-9.649783 -10.406857 1.010711 6730418
-10.398611 -10.496009 2.328637 6730418
-9.637037 -9.131266 1.879573 6730418
-9.291115 -10.108047 1.566067 6730418
-9.142125 -9.587922 1.755398 6730418
-9.336721 -9.509120 2.243326 6730418
-10.338964 -10.645832 0.639084 6730418
-9.274915 -10.392346 1.019855 6730418
-9.245159 -9.471531 0.327936 6730418
-9.295826 -10.027507 1.349648 6730418
-9.153621 -10.198959 1.856097 6730418
-10.340465 -9.305625 0.742348 6730418
-10.938364 -10.121912 2.267118 6730418
-9.907972 -9.424150 2.646438 6730418
-10.829350 -9.506008 1.636031 6730418
-9.222920 -10.204909 2.032525 6730418
-9.469357 -10.829143 2.806695 6730418
-9.402327 -10.443244 2.765736 6730418
-10.512360 -10.353108 2.107191 6730418
-9.976378 -10.562218 1.553840 6730418
-9.575732 -9.162634 2.689604 6730418
-9.983347 -10.509200 2.554868 6730418
-10.851906 -10.295968 1.748360 6730418
-10.284414 -9.500859 1.509341 6730418
-9.616800 -10.683981 2.417459 6730418
-9.410800 -9.939757 1.823800 6730418
-9.911058 -10.223735 0.060455 6730418
-10.606304 -10.361351 0.266138 6730418
-9.204345 -10.018229 0.037258 6730418
-10.772635 -10.331111 0.308155 6730418
-9.474046 -9.732390 1.863972 6730418
-10.513890 -9.842062 0.891290 6730418
-9.479068 -9.995348 1.464510 6730418
-9.895722 -10.305589 0.969401 6730418
-9.787367 -10.976900 0.068172 6730418
-9.995811 -9.574972 2.222927 6730418
-9.748940 -10.096927 2.043238 6730418
-9.153650 -10.454461 2.738463 6730418
-10.168634 -9.961156 2.019511 6730418
-10.402019 -9.943099 2.514593 6730418
-9.667462 -10.161217 2.537736 6730418
-10.135024 -9.967136 2.530450 6730418
-9.228735 -10.399187 1.152954 6730418
-10.333679 -10.716889 2.783427 6730418
-10.048267 -9.632063 2.809945 6730418
-9.254350 -10.611383 0.803777 6730418
-10.251613 -9.455004 1.222325 6730418
-10.006461 -9.240582 1.018002 6730418
-10.282485 -9.187942 2.743298 6730418
-9.362659 -10.553223 0.669697 6730418
-10.820458 -10.025221 0.945676 6730418
-9.937541 -10.607505 0.068842 6730418
-9.319322 -9.943796 1.828447 6730418
-9.350803 -9.233215 1.594659 6730418
-10.864739 -9.567195 0.618257 6730418
-9.521016 -9.866180 1.168678 6730418
-10.170732 -9.978423 1.351845 6730418
-10.112400 -9.906387 1.554413 6730418
-10.248074 -10.123247 2.137000 6730418
-9.600126 -9.450191 1.115002 6730418
-10.420637 -9.738983 0.856643 6730418
-10.360982 -9.408196 1.692692 6730418
-10.423061 -10.519669 2.931746 6730418
-10.219116 -10.950553 2.891750 6730418
-9.956303 -10.847624 2.290392 6730418
-9.928823 -9.558728 1.205020 6730418
-9.888285 -9.898659 2.567334 6730418
-9.524856 -9.348925 1.159586 6730418
-10.542059 -10.286009 1.021550 6730418
-9.786224 -9.952174 1.124235 6730418
-9.855306 -10.317200 2.110912 6730418
-9.645354 -9.589396 2.291260 6730418
-9.625208 -10.636750 2.310950 6730418
-9.814775 -9.173684 2.014051 6730418
-10.456790 -10.364178 0.583747 6730418
-9.989440 -10.966028 2.014325 6730418
-9.268249 -10.111745 0.079279 6730418
-10.448709 -9.491652 2.972704 6730418
-9.210843 -9.448362 2.271017 6730418
-10.126069 -9.226040 0.169080 6730418
-9.875509 -9.162029 2.223374 6730418
-9.053785 -9.838007 1.487180 6730418
-10.228849 -10.513814 0.405148 6730418
-9.694408 -9.106259 1.458152 6730418
-9.161392 -9.700340 1.647322 6730418
-9.223323 -9.564104 0.843693 6730418
-9.438121 -10.083221 0.660777 6730418
-9.451064 -10.412189 2.612441 6730418
-10.791264 -10.017837 0.449188 6730418
-10.698377 -9.871505 1.918755 6730418
-9.060986 -9.700006 0.690582 6730418
-9.776026 -9.705308 1.546740 6730418
-10.375941 -10.491201 1.511410 6730418
-9.253335 -9.451599 1.101260 6730418
-10.221251 -9.212097 2.316851 6730418
-10.814656 -9.625244 0.946355 6730418
-9.195820 -9.654117 0.422795 6730418
-9.659325 -9.742145 2.979816 6730418
-10.774429 -10.214708 2.391268 6730418
-9.276751 -9.826605 0.085873 6730418
-10.040565 -9.183516 2.147697 6730418
-9.697693 -10.264339 2.749821 6730418
-10.215302 -10.807126 1.887857 6730418
-9.487898 -10.117414 1.062042 6730418
-10.194340 -10.282932 1.181856 6730418
-10.164184 -9.794435 2.530335 6730418
-10.915949 -9.946801 1.769776 6730418
-9.218833 -9.606681 1.939567 6730418
-9.245525 -9.479563 2.025361 6730418
-9.884845 -10.255836 2.675231 6730418
-10.782841 -10.516809 2.455735 6730418
-9.353817 -10.384017 1.760350 6730418
-10.417856 -9.702935 1.261319 6730418
-10.160543 -10.190452 2.953775 6730418
-9.608982 -9.308866 1.790611 6730418
-9.467554 -10.818735 1.424962 6730418
-9.795053 -10.377300 0.615104 6730418
-9.582785 -10.292140 1.328194 6730418
-9.341450 -10.138744 1.209669 6730418
-9.335240 -9.245288 0.279533 6730418
-10.193192 -10.668180 0.957813 6730418
-10.498846 -10.513651 1.464632 6730418
-10.474287 -10.465573 2.431098 6730418
-10.582869 -9.977784 0.879153 6730418
-9.613345 -10.943909 1.945794 6730418
-9.213774 -10.470949 1.854288 6730418
-10.429435 -9.765171 2.664318 6730418
-10.372466 -10.192921 0.470495 6730418
-9.771266 -10.667433 2.639827 6730418
-10.905586 -10.019114 2.558795 6730418
-9.516895 -9.129289 0.809847 6730418
-10.044989 -10.333561 0.652846 6730418
-10.247858 -9.894602 0.357459 6730418
-9.963012 -9.866419 0.703510 6730418
-9.386263 -10.562644 0.692365 6730418
-10.726809 -10.126111 2.585343 6730418
-9.448495 -9.249725 2.935359 6730418
-9.978593 -9.410459 2.268920 6730418
-10.835631 -9.490805 2.553213 6730418
-10.013222 -10.450376 2.577632 6730418
-10.538539 -10.490501 2.391113 6730418
-9.542892 -9.847480 2.272283 6730418
-10.778248 -10.429256 0.606367 6730418
-10.556806 -9.250044 0.303790 6730418
-9.722867 -9.241484 1.743797 6730418
-9.221103 -9.985311 1.003906 6730418
-10.163025 -10.372835 2.353923 6730418
-10.848887 -10.184285 1.677411 6730418
-9.973275 -9.467797 1.362714 6730418
-9.240002 -10.160097 1.252008 6730418
-9.792887 -10.539371 0.317489 6730418
-10.097792 -10.274947 1.539650 6730418
-10.823351 -10.045623 1.514207 6730418
-10.022434 -10.613524 0.135290 6730418
-10.683372 -9.769902 2.589942 6730418
-9.127614 -10.128539 2.658781 6730418
-9.826964 -10.306833 2.649022 6730418
-10.870199 -10.191959 2.601097 6730418
-10.537996 -9.170917 0.913506 6730418
-10.033894 -9.498516 2.405181 6730418
-9.443621 -10.504049 0.852793 6730418
-10.573614 -9.179569 2.245446 6730418
-10.105494 -10.215379 1.156430 6730418
-9.492757 -9.160374 2.046252 6730418
-9.376388 -9.638926 2.119605 6730418
-10.012098 -9.869657 2.348495 6730418
-10.284664 -9.277273 0.043514 6730418
-10.068361 -9.485992 1.571039 6730418
-10.693328 -10.581803 1.039390 6730418
-10.632595 -9.878029 1.950659 6730418
-9.093686 -9.952619 1.903836 6730418
-9.368984 -9.808644 1.213008 6730418
-9.822068 -9.190812 1.333337 6730418
-9.881816 -9.168174 0.064413 6730418
-9.045236 -9.971194 0.057936 6730418
-9.425749 -10.701000 0.483416 6730418
-10.623498 -9.858148 0.441264 6730418
-10.493362 -10.179204 2.549076 6730418
-9.656840 -10.287886 1.109591 6730418
-9.465961 -9.446657 0.591287 6730418
-9.449556 -10.789454 1.622517 6730418
-10.025643 -9.505147 0.244746 6730418
-10.713084 -10.009087 1.250232 6730418
-9.803226 -10.690289 0.658092 6730418
-9.217261 -9.550022 0.785087 6730418
-9.613576 -9.458096 2.200906 6730418
-9.832864 -10.951808 0.191029 6730418
-10.138991 -9.253777 2.396023 6730418
-10.380275 -9.505515 1.043445 6730418
-10.702229 -10.325539 1.950513 6730418
-10.904308 -10.410944 2.229227 6730418
-10.318074 -10.564185 1.126256 6730418
-10.088751 -10.710508 1.011481 6730418
-9.705410 -9.795774 1.512408 6730418
-10.584870 -10.310923 1.233034 6730418
-10.587843 -10.797798 2.155010 6730418
-10.914389 -10.185223 2.559922 6730418
-10.749322 -10.482972 2.223436 6730418
-10.076324 -9.381485 1.177855 6730418
-9.500518 -10.305036 0.545584 6730418
-10.137932 -10.689240 0.684171 6730418
-9.403491 -10.730405 0.077630 6730418
-9.505684 -9.457053 1.595640 6730418
-10.527739 -9.344466 1.597162 6730418
-10.531596 -10.530768 2.099395 6730418
-10.169049 -9.660987 2.022721 6730418
-10.798308 -9.634259 0.641324 6730418
-10.534252 -9.977550 2.854525 6730418
-10.875917 -9.901632 2.961682 6730418
-9.730244 -9.755017 1.094395 6730418
-10.913361 -9.680977 0.208916 6730418
-9.898390 -9.775313 2.585567 6730418
-9.475509 -9.232289 2.631583 6730418
-9.288417 -9.362398 0.280741 6730418
-9.894506 -9.691694 2.427628 6730418
-10.381943 -9.651754 0.316471 6730418
-10.788153 -9.962008 0.630327 6730418
-9.974579 -9.171496 1.638444 6730418
-9.738546 -9.048538 2.247794 6730418
-10.481606 -9.254028 1.238059 6730418
-10.118221 -10.075940 1.965307 6730418
-9.566121 -10.086814 0.176121 6730418
-9.391435 -9.213803 2.646434 6730418
-10.374398 -10.090466 1.004884 6730418
-10.240220 -10.213085 1.108429 6730418
-10.645383 -10.243158 0.548025 6730418
-10.489129 -10.195814 2.216393 6730418
-9.865289 -9.458038 2.235132 6730418
-9.258855 -9.386280 0.725862 6730418
-9.997838 -10.156928 1.478081 6730418
-10.378637 -9.657030 1.757669 6730418
-10.494816 -10.130228 2.429035 6730418
-9.779548 -10.371037 2.309304 6730418
-9.578881 -9.523435 2.982969 6730418
-10.685680 -9.943871 2.790507 6730418
-9.494034 -10.328123 2.305146 6730418
-10.004025 -10.048080 2.607088 6730418
-10.331873 -10.586623 1.210761 6730418
-10.075044 -9.957378 1.274636 6730418
-10.266555 -9.158785 1.316504 6730418
-9.580886 -10.212808 0.643159 6730418
-9.849516 -10.643834 0.163228 6730418
-9.811252 -10.261056 0.847270 6730418
-10.667270 -10.651032 2.921745 6730418
-9.595360 -9.391958 0.758720 6730418
-10.921661 -10.299848 1.372475 6730418
-10.312531 -9.913762 2.207153 6730418
-9.734461 -9.548602 0.909082 6730418
-9.796050 -9.160735 2.392191 6730418
-9.650360 -9.654850 1.382337 6730418
-9.251589 -9.642150 2.471415 6730418
-10.114244 -9.382841 2.628016 6730418
-10.523690 -9.700628 2.849041 6730418
-9.607114 -10.367125 2.184856 6730418
-9.483519 -10.705128 1.916647 6730418
-10.308954 -9.066571 1.808294 6730418
-10.327165 -10.351823 1.710727 6730418
-9.521214 -9.326034 1.198206 6730418
-9.867533 -10.243211 2.178641 6730418
-10.170004 -9.732338 1.829868 6730418
-10.849967 -10.278681 0.848262 6730418
-10.721485 -9.758159 0.636456 6730418
-9.331696 -9.353785 1.784846 6730418
-9.059464 -9.963086 0.103528 6730418
-10.743310 -9.517637 0.262796 6730418
-10.153022 -9.599539 1.718354 6730418
-10.432588 -9.523730 1.296916 6730418
-10.747422 -9.481184 1.129127 6730418
-10.302400 -10.030595 2.073751 6730418
-9.999213 -9.461137 2.770723 6730418
-10.765346 -9.567330 1.764135 6730418
-10.572167 -10.010073 1.140062 6730418
-10.896034 -9.765918 0.496212 6730418
-10.076217 -10.170810 0.979987 6730418
-9.414694 -9.658599 2.084347 6730418
-10.075966 -9.515018 2.765121 6730418
-10.641645 -9.409989 0.457695 6730418
-10.074942 -9.424371 0.871844 6730418
-10.711269 -10.247869 2.026765 6730418
-10.450243 -9.900713 0.673707 6730418
-9.348734 -10.483585 1.182042 6730418
-9.643804 -10.639662 1.755837 6730418
-9.963284 -10.332344 2.968315 6730418
-10.720422 -10.625721 0.351454 6730418
-10.068854 -10.038729 1.065149 6730418
-10.412081 -9.113731 0.766086 6730418
-10.095823 -10.488658 0.278685 6730418
-10.463973 -10.169337 1.740262 6730418
-9.266886 -9.384411 0.078794 6730418
-10.363948 -9.987813 0.736311 6730418
-10.445436 -9.521241 2.580153 6730418
-9.227611 -10.042255 2.880662 6730418
-10.556791 -9.807474 2.202464 6730418
-9.817997 -10.131537 0.985054 6730418
-10.348149 -10.521099 0.246865 6730418
-10.921383 -9.929855 1.650006 6730418
-9.206889 -9.879312 2.330571 6730418
-9.730469 -9.121155 0.221971 6730418
-10.586891 -10.000474 2.365618 6730418
-10.113978 -10.715351 1.980047 6730418
-10.903377 -9.782076 -0.011509 6730418
-10.663679 -9.878453 0.823900 6730418
-10.210034 -10.322018 2.544981 6730418
-10.428727 -10.646353 1.236104 6730418
-10.697457 -9.343440 2.632671 6730418
-9.175331 -10.615957 0.508556 6730418
-9.883707 -9.676479 2.489901 6730418
-9.140500 -9.907110 2.405748 6730418
-10.258339 -10.367217 1.056457 6730418
-9.332911 -9.837091 1.041225 6730418
-10.335949 -10.733726 2.793005 6730418
-9.674513 -10.233000 0.744453 6730418
-10.578253 -9.809999 2.102466 6730418
-9.961279 -10.956905 2.271733 6730418
-9.781672 -9.702573 2.197371 6730418
-10.205842 -9.223471 1.051082 6730418
-10.200953 -10.426298 1.650712 6730418
-9.576864 -9.918550 0.549517 6730418
-10.175773 -10.135696 2.326355 6730418
-9.315608 -10.723538 1.210971 6730418
-9.211126 -10.291038 0.617263 6730418
-9.585170 -9.911283 1.037359 6730418
-9.834189 -9.625819 2.590373 6730418
-10.474010 -9.763724 0.617982 6730418
-10.219312 -9.909277 0.465917 6730418
-10.445814 -10.663095 2.992933 6730418
-9.458220 -9.727528 2.447178 6730418
-9.142494 -10.250130 2.822628 6730418
-9.890504 -10.689054 0.857233 6730418
-9.874315 -10.732611 2.991942 6730418
-10.344427 -10.219475 0.965900 6730418
-10.469286 -10.410997 1.274417 6730418
-10.513678 -10.361653 1.818907 6730418
-10.534850 -10.782102 2.463159 6730418
-10.124246 -9.618814 2.163599 6730418
-9.995230 -9.535684 0.587344 6730418
-10.817833 -10.499377 1.115553 6730418
-9.056964 -10.089797 1.401240 6730418
-10.345965 -10.898347 0.050802 6730418
-9.792805 -9.518669 2.749930 6730418
-10.376386 -10.478131 2.404122 6730418
-9.882826 -10.704334 2.110461 6730418
-9.180100 -9.847190 0.937296 6730418
-9.359889 -10.739020 2.787592 6730418
-10.568327 -10.545946 0.073231 6730418
-9.962245 -9.899485 0.873438 6730418
-10.083511 -9.726983 2.032271 6730418
-9.730455 -9.872863 0.515949 6730418
-9.115878 -10.318644 0.533819 6730418
-9.826988 -10.368188 1.329825 6730418
-10.662094 -10.118895 1.393788 6730418
-9.052588 -9.854066 2.122088 6730418
-10.438992 -10.527729 0.667985 6730418
-10.183817 -9.750824 2.891332 6730418
-9.162037 -10.445086 0.058957 6730418
-10.965503 -9.848803 1.456407 6730418
-10.196499 -10.110229 2.182343 6730418
-10.371910 -10.302972 0.318898 6730418
-9.262039 -10.547677 1.066012 6730418
-10.109300 -10.089329 1.083817 6730418
-10.722289 -10.239119 2.514749 6730418
-9.804170 -10.475481 2.973360 6730418
-9.850744 -10.018441 1.277831 6730418
-9.720416 -10.821886 2.365456 6730418
-9.174914 -10.317155 1.499852 6730418
-10.475561 -9.558416 1.424852 6730418
-9.626081 -10.181036 2.704864 6730418
-10.617537 -9.384960 2.083479 6730418
-10.049593 -9.260298 1.637208 6730418
-10.461741 -9.837069 0.252011 6730418
-9.230862 -10.203090 2.874461 6730418
-10.682266 -10.068112 0.192142 6730418
-9.293614 -10.185158 2.832843 6730418
-10.087121 -10.854147 1.439414 6730418
-9.667896 -10.184754 1.130972 6730418
-10.907372 -10.021373 2.044927 6730418
-9.639422 -9.188244 2.523662 6730418
-10.570333 -9.255076 0.303758 6730418
-9.090383 -10.313418 2.789591 6730418
-10.183564 -10.679045 1.671265 6730418
-9.308384 -10.245214 0.423226 6730418
-10.390404 -10.285694 1.462774 6730418
-10.292627 -9.588977 2.584062 6730418
-10.860671 -9.517567 2.891956 6730418
-9.985955 -9.244074 0.837409 6730418
-9.283015 -9.486072 2.424238 6730418
-10.163783 -9.214684 2.780370 6730418
-10.780319 -9.733292 2.608150 6730418
-9.450620 -9.506751 0.292864 6730418
-9.325642 -9.538912 2.051491 6730418
-10.222437 -10.910806 0.398907 6730418
-9.101066 -10.336303 0.472985 6730418
-10.849556 -9.562936 1.408329 6730418
-9.956750 -10.088848 0.547635 6730418
-10.264258 -9.764900 1.598842 6730418
-10.683876 -9.721583 2.434666 6730418
-10.185563 -9.383956 1.669985 6730418
-9.509589 -10.156019 2.416395 6730418
-10.325877 -10.781778 2.926975 6730418
-10.025401 -10.449467 0.506022 6730418
-9.509655 -10.623232 2.289217 6730418
-9.559397 -10.717467 0.035314 6730418
-9.546480 -9.243823 1.174785 6730418
-9.419415 -9.483898 2.414998 6730418
-9.589074 -9.104009 0.163783 6730418
-10.239539 -10.228508 0.686749 6730418
-9.756955 -10.333436 0.049160 6730418
-10.353697 -9.289960 2.424466 6730418
-10.306088 -10.427152 0.125050 6730418
-9.483853 -10.764606 2.574554 6730418
-9.615332 -9.422325 0.461373 6730418
-9.132826 -10.006352 2.680311 6730418
-9.971861 -9.996300 2.763331 6730418
-10.524406 -10.491845 0.485343 6730418
-9.548021 -10.796055 1.797111 6730418
-10.704103 -10.378916 0.955313 6730418
-10.287319 -9.300582 1.206739 6730418
-10.583548 -10.023977 0.178783 6730418
-10.724544 -10.106093 0.711832 6730418
-9.901519 -10.846409 2.512810 6730418
-10.496687 -9.576211 2.835632 6730418
-10.755181 -10.445027 2.972589 6730418
-9.505059 -10.311182 1.743590 6730418
-10.396977 -9.927753 1.922786 6730418
-10.394310 -10.482891 0.964782 6730418
-10.297523 -9.774380 0.279873 6730418
-9.748223 -10.355563 0.106379 6730418
-10.676880 -10.043115 1.561211 6730418
-10.677609 -10.572059 0.219782 6730418
-10.295461 -10.152240 0.938720 6730418
-9.335265 -10.318743 1.279357 6730418
-9.482950 -9.219939 1.745712 6730418
-10.468297 -10.364223 0.936079 6730418
-10.229869 -9.887949 2.933211 6730418
-10.403328 -10.192249 2.261991 6730418
-10.347863 -10.767643 1.672769 6730418
-9.525301 -10.364449 1.132692 6730418
-9.522427 -10.078841 1.365667 6730418
-10.515346 -9.668267 0.146881 6730418
-9.605567 -10.139834 2.674934 6730418
-9.543572 -9.709818 1.178104 6730418
-9.839602 -10.582335 2.849847 6730418
-10.587083 -9.688447 1.490193 6730418
-10.014438 -10.577918 0.772017 6730418
-9.721623 -9.118395 1.468925 6730418
-10.788609 -10.010331 0.051159 6730418
-10.328915 -10.385744 2.396298 6730418
-9.904458 -9.557644 0.138433 6730418
-9.342456 -10.101379 1.449503 6730418
-9.102298 -10.240757 1.296865 6730418
-9.123905 -9.879428 0.010706 6730418
-10.416230 -9.938203 0.585690 6730418
-10.329231 -9.294565 0.193706 6730418
-10.838847 -10.511941 0.883994 6730418
-10.937353 -10.326241 2.060356 6730418
-9.535349 -10.280266 0.738738 6730418
-9.972644 -10.843523 1.542080 6730418
-9.583204 -10.594227 1.739613 6730418
-10.732235 -9.481478 0.465274 6730418
-10.317994 -9.593249 2.473848 6730418
-9.877743 -10.745847 1.900964 6730418
-10.060649 -9.261957 1.763080 6730418
-10.270252 -9.308934 2.075867 6730418
-10.820603 -9.709971 1.084150 6730418
-9.596538 -9.719640 2.486227 6730418
-9.314769 -9.623948 1.140055 6730418
-10.957432 -10.282642 1.628518 6730418
-10.421485 -10.867064 1.448321 6730418
-10.737397 -9.650782 1.691040 6730418
-9.694368 -9.719794 0.670451 6730418
-9.485364 -10.622534 0.069288 6730418
-10.054197 -9.143744 2.957179 6730418
-10.713284 -10.186665 2.316369 6730418
-10.434736 -9.759198 1.126558 6730418
-10.918458 -9.679777 2.405353 6730418
-9.785580 -9.305301 0.620885 6730418
-10.886033 -10.276800 0.323904 6730418
-10.855279 -10.195383 2.172650 6730418
-10.294553 -10.741751 0.048765 6730418
-10.218068 -10.455323 1.667881 6730418
-9.397797 -10.362770 2.296821 6730418
-10.398526 -10.706788 2.106916 6730418
-10.451040 -10.805299 2.465336 6730418
-9.993009 -10.680393 1.425613 6730418
-9.619851 -10.272338 1.913691 6730418
-9.870720 -10.087978 2.330445 6730418
-10.312611 -9.672496 1.179219 6730418
-9.174740 -10.230167 1.294702 6730418
-9.903501 -10.963992 0.155095 6730418
-10.483656 -9.217493 2.378299 6730418
-10.402766 -10.683028 1.639917 6730418
-10.213130 -9.889265 2.942030 6730418
-9.239699 -10.005474 2.990108 6730418
-9.487892 -10.475292 1.926394 6730418
-10.851514 -10.094575 1.952117 6730418
-10.856508 -9.677257 2.978978 6730418
-10.323349 -9.374327 1.511674 6730418
-9.971700 -10.663979 0.974699 6730418
-10.576496 -10.310608 1.895751 6730418
-10.555713 -9.501725 1.293308 6730418
-10.615150 -9.779879 0.071587 6730418
-10.836212 -10.498406 0.946552 6730418
-10.185154 -9.038037 0.704279 6730418
-10.267737 -10.930786 2.446328 6730418
-10.392646 -9.432811 0.451203 6730418
-9.374495 -10.785774 0.869877 6730418
-9.650133 -10.211247 2.366580 6730418
-9.947153 -10.396086 1.772412 6730418
-10.736817 -10.500769 0.865357 6730418
-10.170300 -9.908272 0.522519 6730418
-10.605091 -10.202645 1.487749 6730418
-9.975058 -9.934328 1.891206 6730418
-10.449661 -9.309441 1.265283 6730418
-9.627876 -9.395202 1.749524 6730418
-10.432012 -10.329635 2.183162 6730418
-10.834467 -10.383224 0.507385 6730418
-10.277734 -10.007787 2.613329 6730418
-9.957971 -9.740674 0.346021 6730418
-10.428941 -9.437777 0.587909 6730418
-10.352007 -10.431255 1.142718 6730418
-9.618013 -9.838517 0.767544 6730418
-9.802955 -9.454757 2.909178 6730418
-9.411578 -10.762759 2.892385 6730418
-10.053899 -10.048322 2.798864 6730418
-9.699845 -10.894369 1.847967 6730418
-10.252821 -9.557643 0.476790 6730418
-9.194731 -10.543031 2.233311 6730418
-9.771131 -9.703688 1.032810 6730418
-10.367911 -10.634000 2.299164 6730418
-9.561560 -10.268853 1.265438 6730418
-9.442151 -9.957475 1.625155 6730418
-10.782552 -9.847131 0.614352 6730418
-10.598716 -9.350371 1.333204 6730418
-9.406460 -9.632998 0.854158 6730418
-10.152154 -9.225194 0.155014 6730418
-9.850559 -9.371319 0.690435 6730418
-9.386961 -10.329074 0.292565 6730418
-9.796168 -9.042118 0.630170 6730418
-10.039747 -10.794253 1.174887 6730418
-10.536710 -10.356966 2.706254 6730418
-10.075059 -9.555151 0.480888 6730418
-9.588816 -10.110551 1.769989 6730418
-10.742816 -9.953995 2.205365 6730418
-9.347817 -9.624037 1.657780 6730418
-9.884350 -10.333142 1.736852 6730418
-9.277658 -9.661348 2.673607 6730418
-9.202733 -9.496648 2.553492 6730418
-9.862738 -9.596030 2.267285 6730418
-9.914608 -10.105204 0.721011 6730418
-9.763939 -10.810070 1.051814 6730418
-9.501075 -9.652254 0.287540 6730418
-9.916330 -9.056912 1.686148 6730418
-10.388206 -9.468092 2.125534 6730418
-10.578124 -9.994771 2.313732 6730418
-10.215300 -10.141260 0.593526 6730418
-9.917698 -10.553070 2.143365 6730418
-9.446877 -10.083532 2.666054 6730418
-9.812405 -10.605285 0.618230 6730418
-10.329091 -10.737470 2.443551 6730418
-9.889477 -10.801211 1.120010 6730418
-9.803800 -10.796538 2.775589 6730418
-9.124045 -10.425209 0.661195 6730418
-9.608797 -9.367914 0.227148 6730418
-9.439438 -9.990729 1.594671 6730418
-10.529886 -9.626657 1.088607 6730418
-10.474327 -10.336740 0.983928 6730418
-9.541757 -9.247910 1.456829 6730418
-9.169075 -10.059327 0.691408 6730418
-10.980978 -9.860991 1.300113 6730418
-9.631099 -9.497581 1.888985 6730418
-9.888318 -10.020449 2.235882 6730418
-10.377853 -10.434490 2.234060 6730418
-9.132215 -10.073534 0.653674 6730418
-9.973721 -9.241878 1.099690 6730418
-9.917343 -9.975023 2.970962 6730418
-9.834487 -9.195170 1.087577 6730418
-9.267809 -10.329483 2.358387 6730418
-9.539959 -10.222232 1.775216 6730418
-10.178836 -10.519523 0.132313 6730418
-10.570355 -9.433719 0.184772 6730418
-10.330942 -10.023798 2.870937 6730418
-10.531372 -9.430532 0.410406 6730418
-10.465323 -10.451313 2.414505 6730418
-10.712350 -10.199783 1.708973 6730418
-9.164084 -10.283636 2.727452 6730418
-10.510217 -10.187910 2.890295 6730418
-10.534375 -9.531855 1.422100 6730418
-9.771579 -9.166742 2.942440 6730418
-10.764729 -10.420451 0.450466 6730418
-10.485484 -9.503527 2.953252 6730418
-10.602029 -9.249352 0.026552 6730418
-10.055055 -9.616659 0.032155 6730418
-10.329422 -10.686825 2.329067 6730418
-10.698659 -10.174387 2.900149 6730418
-9.786175 -9.627074 0.481746 6730418
-10.586079 -9.824776 0.461196 6730418
-9.394206 -10.697697 2.447438 6730418
-10.193434 -9.106128 1.580660 6730418
-9.897374 -9.044069 0.168383 6730418
-9.979161 -10.983798 0.454621 6730418
-10.040271 -9.400352 2.247323 6730418
-9.753303 -10.488501 0.314459 6730418
-10.043896 -10.591192 2.130482 6730418
-10.426850 -9.563382 2.969031 6730418
-10.410518 -10.239467 1.736633 6730418
-10.421757 -10.133109 2.021278 6730418
-10.090564 -9.738797 0.236460 6730418
-10.729704 -9.541214 2.954833 6730418
-10.129145 -10.707263 0.264956 6730418
-10.147751 -9.621055 2.921022 6730418
-10.391606 -9.472971 1.765679 6730418
-10.361120 -10.782850 2.758854 6730418
-9.822338 -10.851001 0.731649 6730418
-10.693232 -9.921303 1.475954 6730418
-9.811547 -9.833121 2.677603 6730418
-9.741029 -10.535030 0.105430 6730418
-9.606922 -10.792437 1.705019 6730418
-10.701717 -10.331766 2.407366 6730418
-10.029346 -9.834887 0.646386 6730418
