# .PCD v0.7 - Point Cloud Data file format
VERSION 0.7
FIELDS x y z rgb
SIZE 4 4 4 4
TYPE F F F U
COUNT 1 1 1 1
WIDTH 1292
HEIGHT 1
VIEWPOINT 0 0 0 1 0 0 0
POINTS 1292
DATA ascii
10.356388 11.217099 3.795231 11697996
10.002526 9.583165 3.586921 11697996
11.122072 9.921058 0.664218 11697996
9.387654 9.096232 1.079607 11697996
10.173390 10.767462 0.386074 11697996
11.265837 10.321830 0.741531 11697996
9.733948 9.551650 1.436602 11697996
10.657148 9.037171 0.819627 11697996
9.350121 9.888460 3.629341 11697996
11.082704 9.633490 0.732724 11697996
9.570261 8.809946 3.782714 11697996
10.477688 9.224607 0.850577 11697996
8.972761 9.979792 3.944547 11697996
8.806962 11.194138 3.370888 11697996
8.804584 11.038242 0.967868 11697996
9.838339 10.006106 3.278150 11697996
9.858320 9.769413 1.681970 11697996
11.164458 10.753486 2.539454 11697996
9.130857 9.779346 2.299704 11697996
10.553054 9.322392 0.175487 11697996
10.906607 9.451817 0.039779 11697996
9.302045 9.396334 2.531559 11697996
11.174473 10.413856 1.052822 11697996
10.874798 10.183662 3.624796 11697996
10.461380 10.229447 3.521637 11697996
10.967144 9.501869 3.194838 11697996
9.940360 9.473169 3.834917 11697996
10.328215 10.587785 1.402506 11697996
8.986075 9.174554 2.721442 11697996
10.712490 9.390469 3.031884 11697996
10.914829 9.935138 1.419146 11697996
10.442595 8.823650 1.151157 11697996
10.717157 10.064988 1.346031 11697996
9.758760 9.830558 2.784166 11697996
11.105845 9.209680 0.665024 11697996
10.976533 11.252793 0.863704 11697996
9.126623 8.780665 1.640656 11697996
9.512849 11.142618 2.112605 11697996
10.771297 9.532537 1.101110 11697996
9.051236 9.339885 2.108665 11697996
10.406101 8.982871 1.314287 11697996
9.607048 9.610437 0.116509 11697996
10.359425 10.094457 1.569135 11697996
10.516618 9.546362 2.816145 11697996
11.064594 10.891349 1.736010 11697996
10.780977 11.102064 3.535006 11697996
9.440050 9.095455 0.059303 11697996
9.575947 9.010944 2.061612 11697996
10.013886 9.820230 3.296696 11697996
9.349936 10.268486 1.483196 11697996
8.900377 11.214961 2.814756 11697996
9.715692 9.337000 1.667331 11697996
9.254889 9.603338 3.863529 11697996
9.660336 8.867064 3.211838 11697996
10.332741 10.866596 2.043877 11697996
9.815125 9.384549 0.824175 11697996
9.344538 11.199466 2.001871 11697996
10.929667 9.246646 3.357010 11697996
9.598923 9.668630 3.045771 11697996
9.324342 9.842318 1.901456 11697996
8.994753 9.349881 1.655353 11697996
8.885845 10.345520 3.483230 11697996
9.022485 9.324361 2.441247 11697996
9.323215 9.924023 3.716054 11697996
10.464649 10.920300 3.703620 11697996
10.060203 10.349984 2.923113 11697996
10.117432 10.720124 0.056594 11697996
10.566840 9.223890 2.087929 11697996
8.763126 11.210813 0.433918 11697996
9.687432 10.753200 0.059903 11697996
10.918125 9.042050 0.971490 11697996
9.318815 8.935750 1.198944 11697996
10.884917 9.054220 3.778023 11697996
10.910833 10.867324 1.170938 11697996
9.869298 9.099778 3.923964 11697996
8.795511 9.321795 3.100344 11697996
10.425375 9.265477 0.793690 11697996
10.277011 9.293741 1.147149 11697996
10.929854 9.136457 0.379116 11697996
9.096498 9.966491 1.507857 11697996
9.833879 11.188105 2.210002 11697996
10.484640 10.900569 2.310576 11697996
9.523188 10.607225 1.282440 11697996
10.217307 9.731400 3.947701 11697996
9.450412 10.165969 1.374344 11697996
9.873974 10.708178 0.352951 11697996
10.109251 9.291950 3.640779 11697996
11.041029 9.958484 1.082600 11697996
10.682093 10.130133 2.432279 11697996
9.499928 10.017701 1.730267 11697996
11.056284 9.858049 2.212348 11697996
11.237891 11.115417 1.081219 11697996
11.101841 11.075549 3.704489 11697996
11.158876 10.880862 3.079274 11697996
9.314315 9.654522 3.002462 11697996
8.863193 10.275434 2.750986 11697996
10.587523 8.980721 1.535742 11697996
11.136872 11.125958 2.265174 11697996
8.819038 10.789230 1.985781 11697996
10.421096 9.464820 1.496832 11697996
9.820995 10.199799 0.144139 11697996
8.869615 10.774049 3.841121 11697996
10.491993 9.121472 3.247802 11697996
10.979962 10.190246 3.546366 11697996
11.213456 8.879030 1.513785 11697996
10.956559 11.061468 0.751760 11697996
10.983397 9.719697 3.071268 11697996
10.567051 10.423912 3.640184 11697996
10.779232 10.300872 3.871943 11697996
9.523296 9.633893 0.662459 11697996
10.174160 10.548669 2.048233 11697996
10.010012 9.256167 0.613840 11697996
9.824871 8.925160 1.354632 11697996
8.766559 10.311574 1.056822 11697996
9.221723 11.062189 2.101226 11697996
10.420285 9.924695 1.968942 11697996
9.737593 9.850836 0.670911 11697996
9.452998 9.892247 2.388097 11697996
10.656380 9.475228 0.366159 11697996
10.586937 9.344847 1.887943 11697996
10.367559 11.161018 2.707645 11697996
10.388771 11.009627 2.467793 11697996
10.009156 10.264444 2.980672 11697996
9.652050 9.914621 1.227864 11697996
9.531985 10.661439 1.487622 11697996
9.039475 9.839703 2.683177 11697996
10.189485 9.533895 0.867808 11697996
10.845284 10.643507 1.999220 11697996
11.105612 10.606907 1.202758 11697996
10.224800 10.626047 3.681839 11697996
9.469801 9.420903 3.637879 11697996
10.474078 8.805313 2.596976 11697996
9.063326 10.172235 3.911267 11697996
10.911325 10.116818 3.889589 11697996
10.433834 10.824360 0.071082 11697996
11.042885 9.415429 3.873273 11697996
10.402225 10.286457 0.840337 11697996
11.162435 10.577122 3.710624 11697996
10.620006 9.438013 3.017129 11697996
10.759835 8.883740 3.517613 11697996
11.001379 9.779679 1.044330 11697996
9.326393 10.793266 0.564616 11697996
9.834815 9.961193 3.156961 11697996
8.983354 8.816234 3.671723 11697996
11.242711 10.300054 2.788849 11697996
9.669867 11.004410 2.407511 11697996
10.482078 9.849584 2.685969 11697996
10.255278 10.765665 2.974352 11697996
8.864918 8.829266 2.800706 11697996
10.618438 11.059709 1.953142 11697996
8.777371 9.052761 2.709389 11697996
9.312311 10.442349 2.126233 11697996
9.460820 9.017552 0.737805 11697996
9.183488 9.260282 2.211957 11697996
10.799946 9.211108 3.709036 11697996
11.182311 9.620632 0.264782 11697996
9.962247 10.394522 3.537882 11697996
9.283642 10.379169 2.228510 11697996
9.559125 9.074847 2.212545 11697996
10.627357 10.682991 0.030095 11697996
11.069177 11.165089 2.801566 11697996
10.700739 11.217397 0.061768 11697996
10.799666 9.978535 3.970273 11697996
10.179791 10.747663 3.850300 11697996
9.920454 8.802770 1.243686 11697996
10.919559 8.962776 3.156386 11697996
8.824510 9.490470 1.474010 11697996
9.975613 8.947203 1.286331 11697996
9.057652 10.321825 0.491899 11697996
10.771003 9.162400 3.308143 11697996
10.158390 9.551121 2.056513 11697996
9.682827 10.058858 3.972725 11697996
11.195354 11.228196 3.958246 11697996
9.830282 9.191015 3.480031 11697996
11.124012 9.727376 1.372088 11697996
9.054935 9.871356 2.918103 11697996
8.801427 10.452015 3.203629 11697996
10.380450 9.299858 3.415241 11697996
10.670769 9.543977 1.763472 11697996
10.420693 8.794103 1.728209 11697996
10.664425 9.901385 2.270946 11697996
8.851001 9.328450 2.994732 11697996
9.814866 10.888080 3.071728 11697996
9.538237 9.611609 3.528664 11697996
9.921255 9.722613 1.492736 11697996
8.868170 11.096742 3.022909 11697996
8.982805 10.317659 1.961833 11697996
8.765240 10.694261 0.109236 11697996
9.818016 9.338417 2.517878 11697996
11.204400 9.355617 1.261964 11697996
9.238410 9.891044 1.997782 11697996
8.952937 10.977066 0.534440 11697996
10.072097 10.002979 2.219437 11697996
9.824265 10.271122 3.044338 11697996
11.031368 10.623121 3.570112 11697996
8.814692 9.058498 1.977875 11697996
9.793144 8.949948 0.546074 11697996
10.410118 8.980713 3.363132 11697996
9.898592 10.244980 1.544289 11697996
10.301930 8.901418 1.458665 11697996
11.019959 9.242587 1.357409 11697996
10.223019 10.219273 3.190480 11697996
9.946303 9.180931 2.514326 11697996
10.477495 10.351320 1.352668 11697996
11.021873 10.894380 1.344542 11697996
9.027916 10.423029 0.690660 11697996
9.111748 10.256213 1.673722 11697996
9.015290 9.306088 0.107679 11697996
10.829940 9.169048 1.146241 11697996
10.388589 10.175149 2.239378 11697996
9.442820 10.837325 1.017779 11697996
8.937421 10.645116 1.390138 11697996
10.981342 10.732000 0.404226 11697996
10.031639 10.158875 2.633575 11697996
9.338314 10.685122 2.834302 11697996
10.853994 8.984894 3.869231 11697996
10.898100 10.056417 2.562228 11697996
9.746916 9.921454 3.920093 11697996
11.194942 11.023753 2.195441 11697996
10.466696 10.306952 1.335275 11697996
10.565378 9.297808 1.190401 11697996
10.780118 9.179696 2.795994 11697996
8.863333 10.786060 0.580984 11697996
10.355348 8.943221 2.968679 11697996
9.526451 9.917817 1.428843 11697996
9.353897 9.587061 0.389792 11697996
10.861773 10.481112 3.639417 11697996
10.583810 9.823948 3.868691 11697996
8.822805 10.891483 2.194386 11697996
9.686933 9.808824 2.984038 11697996
9.058132 8.808538 2.563320 11697996
11.034467 9.648092 1.590783 11697996
10.709569 10.860161 0.137444 11697996
9.411246 11.129683 2.735251 11697996
10.285447 10.166744 2.569256 11697996
9.564785 9.544149 2.039711 11697996
8.889231 10.007086 1.963314 11697996
9.132939 10.748227 0.894141 11697996
8.799625 10.794515 1.705361 11697996
9.772398 9.970118 2.072520 11697996
10.300355 8.956072 1.740188 11697996
9.523860 9.868682 0.547508 11697996
9.331321 9.647799 0.692022 11697996
8.803514 10.241110 3.151752 11697996
10.464534 10.265608 3.704529 11697996
10.810724 10.811486 0.047879 11697996
10.248357 10.130363 0.500860 11697996
11.020907 9.861691 1.859352 11697996
9.808572 9.271420 2.241241 11697996
10.056259 9.041517 0.094345 11697996
9.649567 10.043155 0.941533 11697996
10.562377 10.084318 1.596981 11697996
9.265737 11.122293 2.407607 11697996
9.706394 10.087071 0.749156 11697996
9.904501 10.911674 0.198518 11697996
10.387877 10.489618 2.069663 11697996
9.148314 10.037309 0.513293 11697996
8.841469 11.040963 0.846000 11697996
11.091632 9.362940 0.796788 11697996
10.129599 9.223543 2.622023 11697996
10.977921 10.843320 0.493036 11697996
10.461762 10.990108 2.102125 11697996
8.999778 10.305930 3.535774 11697996
9.418307 9.592147 0.164245 11697996
11.070713 8.977384 3.033349 11697996
11.088245 8.975192 3.877439 11697996
8.848912 10.530915 0.399501 11697996
8.901029 9.476270 0.760416 11697996
10.305535 11.149207 3.033938 11697996
8.794811 10.172304 0.887718 11697996
8.793004 8.811194 3.770556 11697996
11.229214 10.571570 2.115625 11697996
10.406664 9.048458 3.183897 11697996
9.316681 9.206787 0.551540 11697996
10.962163 9.753946 3.339657 11697996
10.612504 10.436233 0.440211 11697996
9.760510 8.975122 3.748636 11697996
9.296498 9.415906 2.423931 11697996
9.125115 9.231526 3.890720 11697996
9.809993 9.759706 2.013905 11697996
10.481230 10.550421 0.014003 11697996
9.535955 10.844415 1.282763 11697996
10.350255 10.463873 2.604181 11697996
11.035573 10.934327 0.613567 11697996
9.243756 9.492915 1.100502 11697996
9.579754 9.305516 2.806256 11697996
9.664952 10.371847 1.400656 11697996
10.081727 10.927753 3.144161 11697996
11.173573 9.818729 0.035079 11697996
9.461837 9.534998 0.942297 11697996
8.952111 10.702610 1.239755 11697996
9.100363 9.093186 3.676006 11697996
10.829735 9.832026 2.438589 11697996
11.201841 8.921275 4.004102 11697996
9.967237 10.832788 1.863492 11697996
8.915933 9.014797 0.980881 11697996
9.676671 10.181783 1.007636 11697996
10.330777 9.563118 1.566119 11697996
10.811607 10.350284 1.320243 11697996
10.271681 9.348549 3.959558 11697996
10.057302 9.555047 3.303537 11697996
9.002991 10.411514 0.894600 11697996
9.868633 9.217188 3.742604 11697996
11.130392 9.001080 2.058337 11697996
10.825865 10.818623 0.376803 11697996
9.211234 10.294493 0.865677 11697996
9.343660 11.109999 3.168514 11697996
9.824475 9.002069 0.154332 11697996
10.013289 9.629739 0.399927 11697996
8.837417 10.035387 2.433139 11697996
9.961891 11.103877 0.890708 11697996
10.453477 9.932942 0.054395 11697996
10.307057 9.619212 3.002010 11697996
10.042441 9.212210 3.305597 11697996
10.329001 9.822497 3.834951 11697996
9.290919 11.134622 1.617533 11697996
9.091328 10.532921 1.406176 11697996
8.860557 9.890323 2.244545 11697996
9.838869 10.228674 2.353120 11697996
10.847940 10.566385 1.385934 11697996
10.952924 9.914130 3.715869 11697996
10.259250 10.053746 2.670299 11697996
8.898540 9.641143 2.002205 11697996
10.956143 10.771350 1.441794 11697996
10.820564 8.847219 3.010523 11697996
9.062027 10.262185 3.221781 11697996
10.794998 8.948459 1.608250 11697996
9.235390 10.929775 0.484511 11697996
10.789761 9.965795 0.011730 11697996
10.714247 10.346152 3.555457 11697996
10.855587 10.973501 2.314986 11697996
10.037917 9.578453 3.372536 11697996
10.991907 10.265218 0.258117 11697996
8.887713 9.298267 2.639647 11697996
9.427231 8.836502 3.009276 11697996
9.393597 10.154105 1.951444 11697996
10.751182 10.833025 3.173268 11697996
8.963692 8.949314 0.492538 11697996
10.812978 10.641617 3.089654 11697996
9.943660 10.093674 3.264959 11697996
11.156951 10.664074 2.871782 11697996
11.065868 10.041950 1.979825 11697996
9.235159 10.028086 2.794863 11697996
10.594241 10.785352 3.214249 11697996
9.387316 10.746550 1.738492 11697996
11.169545 9.422218 3.548851 11697996
10.982810 9.591954 1.010028 11697996
8.927296 11.033390 0.411621 11697996
8.796630 10.886083 0.131246 11697996
10.184170 10.053188 1.337234 11697996
10.591772 10.302747 1.469883 11697996
8.971457 9.981585 3.803867 11697996
10.457089 10.589982 1.776344 11697996
9.642023 11.141518 2.710683 11697996
10.907691 9.645396 3.149453 11697996
8.861806 10.906046 3.943666 11697996
10.863245 10.429341 1.876758 11697996
10.738270 9.683963 1.074824 11697996
9.763394 9.415895 0.386847 11697996
10.087774 10.085430 2.758561 11697996
9.770665 11.167625 0.743181 11697996
8.981084 10.027905 3.973766 11697996
10.462925 9.810745 3.140902 11697996
9.411832 9.769938 0.688021 11697996
8.928551 11.147670 3.049526 11697996
9.272442 9.050618 3.723525 11697996
11.123587 9.035554 2.140742 11697996
11.234583 10.823262 0.938361 11697996
10.854359 10.618488 3.680518 11697996
9.087966 9.660400 3.979101 11697996
10.731201 10.588226 2.154947 11697996
10.670532 10.581907 0.473913 11697996
9.201514 9.017570 1.648781 11697996
9.323439 9.946342 3.774688 11697996
8.896812 9.649716 1.826015 11697996
10.668024 8.930964 1.609804 11697996
10.686677 10.497908 2.335864 11697996
10.633889 9.841042 1.867297 11697996
10.900255 10.084430 3.989543 11697996
9.052327 9.441671 2.760949 11697996
10.462379 9.689917 3.168781 11697996
10.759252 9.032862 2.157658 11697996
9.103481 10.826822 0.108362 11697996
9.278398 11.061389 3.206703 11697996
9.903119 10.959872 0.805406 11697996
10.869867 10.768887 0.867263 11697996
9.206225 9.474949 1.063069 11697996
10.429626 9.659260 3.627169 11697996
10.881516 11.183568 0.719636 11697996
9.220534 11.144666 2.191366 11697996
9.608377 10.664025 1.807228 11697996
10.079597 9.896420 3.951802 11697996
9.381523 10.948322 2.697016 11697996
10.826586 10.486214 3.179456 11697996
10.798403 10.892784 3.092662 11697996
9.721328 10.507283 1.342517 11697996
10.825635 9.323267 1.160656 11697996
10.004592 9.333695 0.581301 11697996
9.011406 9.586622 1.067965 11697996
9.170468 9.156555 0.238747 11697996
9.297998 10.303176 3.844951 11697996
9.721005 8.929179 0.463300 11697996
9.196793 8.757263 2.306829 11697996
10.896276 9.183138 2.983407 11697996
8.895144 9.659162 3.885386 11697996
9.564038 10.158938 3.683133 11697996
11.052422 9.227230 0.950285 11697996
10.719776 9.474007 1.231032 11697996
9.841162 9.592444 1.542268 11697996
8.793827 11.146050 2.167800 11697996
11.138607 10.242169 2.364926 11697996
11.196068 9.595404 1.193841 11697996
11.205014 9.805039 0.709092 11697996
9.142239 9.770955 2.514250 11697996
9.178199 10.291388 3.245512 11697996
9.536388 9.403916 2.846982 11697996
8.823792 9.566228 3.752389 11697996
10.183669 10.847994 2.577460 11697996
10.603462 10.313502 3.848311 11697996
10.024714 10.093883 3.901745 11697996
8.811811 8.904541 1.707811 11697996
10.221007 8.978687 0.232600 11697996
9.096764 10.990705 0.800534 11697996
8.819846 8.892712 3.106904 11697996
9.911997 8.906394 3.157632 11697996
11.156960 10.940130 2.190117 11697996
9.265204 8.770450 0.896888 11697996
8.977882 9.080282 1.599166 11697996
9.299019 10.231702 1.375675 11697996
10.494607 8.768040 3.298947 11697996
10.750656 9.803827 3.684003 11697996
9.587453 9.700502 0.407964 11697996
9.387496 8.826539 3.307928 11697996
10.675901 9.558007 2.413543 11697996
10.147943 9.519299 4.011817 11697996
9.585275 9.794120 1.669830 11697996
9.788598 10.126767 3.006384 11697996
9.999270 9.419999 1.898278 11697996
10.733347 10.923979 1.407533 11697996
9.947870 8.846609 1.469510 11697996
9.203939 10.440046 1.909192 11697996
9.141481 11.068117 2.058179 11697996
9.991549 9.820528 3.661855 11697996
11.023324 10.068736 0.155445 11697996
9.363038 10.973355 1.382169 11697996
9.872999 10.179706 3.406562 11697996
11.258512 10.695271 0.204448 11697996
10.006499 9.600797 1.277041 11697996
10.903923 9.398113 2.360926 11697996
10.598496 8.755675 1.634556 11697996
8.893112 10.828594 2.387772 11697996
9.067430 9.482577 1.757105 11697996
9.202347 8.862697 3.781994 11697996
9.799644 9.080206 1.117906 11697996
9.570513 8.827378 3.036725 11697996
10.563811 8.776617 2.813916 11697996
11.208794 9.429129 0.264035 11697996
11.231192 9.878721 2.905874 11697996
10.173042 11.211101 0.633624 11697996
10.024864 10.751315 1.979528 11697996
9.785333 10.505761 1.075024 11697996
10.702176 9.809045 2.540746 11697996
10.760917 8.828739 1.767401 11697996
10.688168 9.183578 0.606651 11697996
10.442094 10.729505 0.663426 11697996
8.766517 9.263407 3.430662 11697996
9.948357 10.359685 0.999644 11697996
9.997312 10.837914 1.656047 11697996
8.834698 10.298059 3.879683 11697996
9.438158 10.042398 1.583292 11697996
10.832416 9.830147 1.628414 11697996
8.817369 8.878030 1.050317 11697996
9.417073 11.077649 1.651706 11697996
10.921156 9.495107 1.651562 11697996
8.797418 11.232316 2.955301 11697996
8.880437 10.077321 0.886122 11697996
10.585469 10.740877 0.831224 11697996
9.123887 8.833128 2.652918 11697996
10.035230 9.548230 2.587216 11697996
8.809774 10.087311 3.353905 11697996
10.599097 9.511908 2.524317 11697996
8.880635 9.849575 0.514907 11697996
9.566041 10.161042 3.951849 11697996
8.798958 9.931775 1.340329 11697996
9.225596 10.279275 3.096409 11697996
11.264749 11.039522 0.857373 11697996
9.808106 9.889231 0.368332 11697996
9.643728 9.869791 0.277396 11697996
10.998897 9.922325 1.351399 11697996
9.240383 11.172828 0.623102 11697996
11.066346 11.111687 2.965344 11697996
11.059769 10.679932 1.339375 11697996
10.466650 10.483611 0.218386 11697996
10.016129 11.198715 1.516060 11697996
10.541246 10.219916 3.797433 11697996
9.376020 10.524943 0.555542 11697996
10.598865 9.413518 3.107380 11697996
10.239612 10.697177 0.780123 11697996
8.857123 10.067069 1.644483 11697996
11.162635 9.741985 1.503602 11697996
8.944091 9.297290 3.458835 11697996
10.331716 8.860203 3.586342 11697996
10.460665 8.839878 3.908665 11697996
9.290622 9.117985 2.120526 11697996
10.445004 10.826973 0.612898 11697996
10.674253 9.725083 0.421815 11697996
10.645705 9.876939 1.906296 11697996
9.431583 9.815150 3.634439 11697996
8.936034 9.161077 2.849527 11697996
10.322192 9.177165 2.878427 11697996
10.073089 11.071514 3.046436 11697996
10.362346 10.591199 3.480393 11697996
10.098685 10.113873 0.857229 11697996
9.943314 9.609071 0.414928 11697996
9.516879 10.995474 1.481438 11697996
10.117034 8.909374 1.181429 11697996
10.097789 11.148828 2.680119 11697996
10.116403 9.382005 2.266659 11697996
9.009011 8.855821 0.232509 11697996
9.263245 9.254352 2.061777 11697996
9.306769 10.923857 0.826310 11697996
11.198496 9.713802 1.939508 11697996
10.507512 11.231689 1.982177 11697996
9.214701 11.049761 0.612206 11697996
8.774038 11.239021 0.046604 11697996
9.434824 10.080506 0.764335 11697996
10.625142 10.527278 2.619109 11697996
10.760440 10.356916 1.018020 11697996
9.578973 11.009510 1.489833 11697996
9.035242 9.045303 1.567808 11697996
9.700948 10.994561 1.287915 11697996
9.780675 9.068852 0.598678 11697996
9.265318 8.974047 2.031485 11697996
10.942208 10.385842 0.063204 11697996
10.596967 9.257193 1.799401 11697996
10.023911 9.949605 1.153983 11697996
10.265972 10.494135 3.132931 11697996
9.971795 10.973572 0.348121 11697996
9.088736 10.539988 3.436709 11697996
9.653745 11.227495 3.404594 11697996
8.995599 10.537163 0.469097 11697996
10.141594 8.884635 3.231566 11697996
10.773477 10.322460 0.754740 11697996
10.087222 8.866441 2.450166 11697996
11.249080 9.058809 0.475505 11697996
9.540031 9.239279 0.634597 11697996
11.194489 9.031356 3.285633 11697996
9.179112 9.758615 0.782620 11697996
9.325948 9.230405 4.013452 11697996
10.483156 9.255320 2.556003 11697996
9.827260 9.376804 1.028506 11697996
10.019315 11.214884 2.908283 11697996
11.124703 10.353895 0.288366 11697996
10.828039 9.268048 1.017777 11697996
10.599158 10.667145 3.126229 11697996
10.565474 10.917220 1.465356 11697996
9.970855 9.023751 0.796002 11697996
10.709618 9.765644 0.202841 11697996
9.014229 9.983561 0.463644 11697996
10.842705 9.641744 1.400697 11697996
10.625584 11.195138 3.937161 11697996
10.646093 9.640018 3.763916 11697996
11.160114 9.933815 2.978781 11697996
11.055523 9.967499 3.083556 11697996
8.808696 10.920760 2.790485 11697996
11.057845 9.857750 2.766346 11697996
9.283924 9.779340 3.418077 11697996
9.327399 9.010900 3.437353 11697996
9.881879 10.690550 2.549067 11697996
10.895845 9.224478 0.187310 11697996
10.714794 10.522819 1.272504 11697996
9.922734 10.691221 2.351850 11697996
9.134629 10.423242 1.810242 11697996
10.189522 9.344563 2.202564 11697996
11.060390 10.186213 0.202798 11697996
10.064874 11.172688 2.956367 11697996
10.642209 10.996916 3.852294 11697996
9.754239 8.824567 1.511161 11697996
9.600076 9.456023 1.386084 11697996
10.714929 10.735579 1.614292 11697996
9.575306 10.488149 2.737842 11697996
10.220327 11.256680 0.275444 11697996
9.615462 8.867464 3.300696 11697996
9.549184 10.290145 3.168901 11697996
10.324677 9.126458 3.295912 11697996
9.379206 10.345615 2.977609 11697996
9.613063 10.632551 1.767512 11697996
9.074518 10.805494 2.139389 11697996
10.792602 10.498402 0.930879 11697996
10.829494 10.928869 3.720958 11697996
10.693536 10.933470 1.674280 11697996
11.212057 9.262369 3.308021 11697996
9.864308 11.232195 1.723696 11697996
8.846044 8.803997 2.456084 11697996
9.171922 10.105096 3.116528 11697996
10.591668 10.045535 0.199374 11697996
8.837736 10.199025 3.403430 11697996
10.284573 9.538062 0.840301 11697996
10.227179 8.947823 1.418720 11697996
9.596482 8.911750 3.574184 11697996
9.783847 9.803375 1.576088 11697996
10.878045 9.973875 3.082418 11697996
10.705278 10.340232 3.305634 11697996
10.818343 10.476260 0.696332 11697996
10.779656 10.238479 3.863309 11697996
11.083344 9.510201 1.701653 11697996
9.508494 10.824852 2.613812 11697996
10.234371 8.790789 3.101048 11697996
11.171108 9.477425 2.696711 11697996
10.335591 10.113398 2.048621 11697996
10.346798 10.034942 0.981678 11697996
8.898562 10.967503 3.415842 11697996
10.644553 9.909552 1.754308 11697996
9.492982 9.990358 2.177277 11697996
10.124326 10.738168 3.253109 11697996
9.306954 10.446069 1.866235 11697996
9.233063 9.739249 2.712895 11697996
9.783772 9.140209 3.538188 11697996
9.590540 11.064425 2.026033 11697996
10.628763 8.874444 1.317725 11697996
8.917745 11.147473 0.042641 11697996
11.038057 10.341231 2.046675 11697996
8.880769 11.182340 0.038019 11697996
9.277541 11.122307 1.594285 11697996
10.137949 9.160510 1.451725 11697996
9.189170 10.607464 0.526484 11697996
10.823237 10.945420 3.782228 11697996
10.168377 9.809035 2.665752 11697996
10.970352 10.447666 2.332994 11697996
11.152058 9.906586 2.089484 11697996
9.967944 10.202575 2.187460 11697996
10.029370 10.211555 2.028966 11697996
8.894826 9.555234 0.936706 11697996
10.429235 11.000813 2.164841 11697996
11.005352 10.946806 1.704938 11697996
9.967565 8.829905 0.471181 11697996
9.323777 10.400616 3.319607 11697996
11.144290 9.187616 3.197516 11697996
11.109812 10.618390 2.362350 11697996
10.863769 11.152136 1.186528 11697996
10.747355 9.594519 2.714024 11697996
9.998010 10.835449 1.078080 11697996
11.062219 10.047852 1.240011 11697996
8.996230 10.047886 2.569135 11697996
10.084658 10.376041 0.451177 11697996
10.828935 9.917706 3.408182 11697996
9.853373 10.389385 3.111009 11697996
10.124978 11.182154 1.570446 11697996
9.546713 9.954226 1.528330 11697996
10.311879 10.231183 3.242834 11697996
10.918380 10.699720 3.205905 11697996
10.735901 10.692419 0.909297 11697996
10.708657 10.064567 1.560359 11697996
9.730310 10.711008 3.988945 11697996
10.861225 9.598013 1.373964 11697996
9.074951 10.122344 3.922700 11697996
9.152577 9.557828 0.255081 11697996
10.955557 10.899268 1.630390 11697996
10.157799 10.259699 2.388085 11697996
9.546778 10.961143 1.839625 11697996
10.152413 10.721514 0.186859 11697996
10.882478 8.887354 0.791990 11697996
9.122151 10.870716 0.710397 11697996
11.017179 10.996261 0.507040 11697996
10.054422 10.200487 3.184836 11697996
10.379272 9.963398 0.199464 11697996
10.244069 8.945274 1.574444 11697996
9.292167 8.921900 1.485026 11697996
8.944186 10.295933 3.106985 11697996
10.465240 9.351323 1.525758 11697996
9.164490 9.328908 3.695818 11697996
9.458196 9.218627 0.595357 11697996
10.339129 11.071939 1.192081 11697996
10.499053 9.153461 1.475621 11697996
11.165171 10.376622 1.915694 11697996
10.624407 9.008292 3.653761 11697996
10.937299 10.819174 0.853842 11697996
10.863911 9.177009 1.478529 11697996
9.583009 11.182477 1.857383 11697996
8.934836 10.204384 1.779322 11697996
11.240408 10.134690 0.200335 11697996
10.023231 10.946249 3.591783 11697996
10.615805 10.332233 0.273684 11697996
8.844089 10.555209 0.609629 11697996
8.987485 8.849605 1.456409 11697996
10.906228 9.453048 0.185425 11697996
10.407667 9.478826 3.713416 11697996
10.227919 10.445881 0.743860 11697996
10.407899 10.737874 0.156931 11697996
10.803875 9.183435 1.211736 11697996
10.949798 9.806316 3.757215 11697996
10.434214 9.582895 1.602381 11697996
8.852051 8.969364 0.558001 11697996
10.184146 10.280080 3.698431 11697996
9.268758 11.028663 0.665025 11697996
10.770817 8.812523 0.572082 11697996
9.000217 10.702785 2.566269 11697996
10.746916 9.481207 3.123259 11697996
9.569317 9.807419 0.857831 11697996
10.981746 11.173950 2.357718 11697996
9.602106 10.539591 2.882089 11697996
9.668244 11.078641 1.306244 11697996
9.824767 11.161662 2.725264 11697996
10.312443 10.304098 3.023678 11697996
10.422602 10.658390 3.523368 11697996
10.941991 10.663609 1.437772 11697996
9.095778 10.896778 2.679981 11697996
10.838438 9.631649 0.367984 11697996
10.999329 10.569908 3.103030 11697996
8.790446 9.064427 3.980085 11697996
9.496490 9.439283 2.530339 11697996
10.741842 10.253502 2.472689 11697996
8.802963 9.470100 0.681002 11697996
10.243666 9.235537 3.710227 11697996
10.159159 9.111230 2.551338 11697996
10.360305 11.027695 2.572127 11697996
9.058503 9.495999 1.928125 11697996
10.076484 9.383610 2.243293 11697996
9.162365 9.394876 0.638819 11697996
11.034026 9.603630 3.923359 11697996
10.257677 10.744407 1.826914 11697996
10.999168 9.991730 2.423930 11697996
10.277240 10.958817 1.666950 11697996
9.665824 9.773086 3.333166 11697996
10.554312 8.873919 1.935270 11697996
9.294718 10.689721 1.514668 11697996
9.362030 9.295149 2.061208 11697996
9.146853 9.092721 3.240450 11697996
9.390803 10.511559 2.006456 11697996
11.075741 9.041913 2.337736 11697996
11.156972 9.892686 2.438618 11697996
9.303418 11.170762 2.933804 11697996
9.604120 11.220491 1.225240 11697996
9.070318 9.498037 3.176725 11697996
11.181789 8.941078 1.380063 11697996
10.248564 9.970709 1.701696 11697996
10.093322 10.461281 2.632345 11697996
9.341312 9.115701 0.754976 11697996
9.927120 9.428100 0.380574 11697996
9.067339 8.905914 1.381415 11697996
8.855119 10.311373 2.399336 11697996
9.744310 8.983077 2.948299 11697996
10.160857 11.004054 0.856706 11697996
11.065552 9.281167 4.018800 11697996
10.776968 8.969760 1.239573 11697996
9.644492 9.950629 2.832017 11697996
10.067779 9.363053 2.825040 11697996
10.077235 11.138678 3.072277 11697996
11.026746 10.864758 3.188208 11697996
9.412543 10.900015 1.013700 11697996
9.542056 10.788831 1.060892 11697996
8.742502 9.284962 0.076431 11697996
10.492449 10.788545 2.034117 11697996
10.465697 10.672886 2.455152 11697996
10.162976 9.081081 2.917596 11697996
10.345299 9.615873 3.744279 11697996
9.173386 10.708697 3.715156 11697996
9.678569 10.830683 2.557242 11697996
10.987800 9.893354 0.431090 11697996
10.601634 10.819449 3.351718 11697996
10.737899 10.273677 2.083215 11697996
10.353354 10.421132 0.290106 11697996
10.990195 10.451056 2.630668 11697996
9.685911 9.671078 2.629498 11697996
11.138731 10.953832 1.281087 11697996
9.394004 9.491891 3.130805 11697996
10.952179 8.937542 3.585600 11697996
11.237103 9.824045 1.978894 11697996
10.464197 10.287869 2.661544 11697996
9.675623 9.149150 0.418703 11697996
11.245445 10.428211 0.300749 11697996
9.989820 9.262661 1.000085 11697996
10.394511 10.362639 2.395566 11697996
10.827833 8.791612 1.220267 11697996
9.979610 9.050561 0.534064 11697996
9.727902 11.175040 0.818171 11697996
10.128235 9.192594 1.179222 11697996
8.907649 9.481197 1.552874 11697996
9.687754 8.922729 1.698434 11697996
9.828894 9.851285 1.053439 11697996
10.099841 10.840611 3.368567 11697996
10.289965 8.944715 1.097944 11697996
9.068467 10.209632 1.294292 11697996
11.075409 8.861749 1.984502 11697996
11.064178 9.334040 2.213585 11697996
11.057206 9.184473 3.942821 11697996
8.881697 10.402268 2.283975 11697996
8.859951 10.414643 0.499277 11697996
9.014818 11.103462 3.747555 11697996
9.210290 9.703247 0.827993 11697996
9.219213 10.741864 1.366593 11697996
9.338326 10.725974 1.330668 11697996
10.996569 10.243629 1.979288 11697996
10.383723 10.514376 2.554947 11697996
8.852780 10.262873 3.299602 11697996
9.443577 10.229527 3.615759 11697996
9.090172 10.907869 3.195439 11697996
11.149511 10.303164 0.738340 11697996
9.414369 9.053351 2.449313 11697996
9.127953 10.072195 1.043996 11697996
11.056517 9.482538 2.050279 11697996
10.805761 9.510273 0.272649 11697996
9.799380 10.375434 1.854542 11697996
10.246819 10.104768 1.205019 11697996
8.770208 10.454781 3.062158 11697996
10.313631 9.235776 1.387601 11697996
9.748018 9.285181 0.019905 11697996
9.246175 9.958778 2.870434 11697996
10.557415 9.526968 0.896069 11697996
10.192927 10.203280 3.592286 11697996
8.931598 11.068214 1.880477 11697996
11.018798 9.194945 1.304695 11697996
9.185810 9.810202 2.964560 11697996
8.930442 9.086432 2.147076 11697996
9.400013 10.272214 1.045871 11697996
11.034688 9.611846 3.499824 11697996
9.613305 10.095069 1.940724 11697996
10.603812 11.205741 0.077132 11697996
9.674050 9.654677 1.359141 11697996
10.795469 8.941750 3.643316 11697996
9.614245 10.441387 0.317878 11697996
10.772295 9.990279 2.870000 11697996
9.124952 10.060628 3.792801 11697996
8.960491 10.836675 3.465504 11697996
10.679309 8.902601 1.554690 11697996
9.139773 10.581012 2.751231 11697996
9.959260 10.057501 3.962297 11697996
10.164463 10.915122 2.330151 11697996
9.902781 10.116122 0.339718 11697996
8.883801 8.909801 2.151323 11697996
10.255695 9.778284 3.824457 11697996
10.639649 11.199574 2.239467 11697996
9.290358 10.122589 3.187346 11697996
9.853395 9.937304 2.618918 11697996
8.898928 10.258233 0.209138 11697996
10.773968 10.458920 1.934249 11697996
10.127213 9.678983 3.342765 11697996
10.983388 10.156705 3.386810 11697996
8.951960 9.227899 3.913328 11697996
9.317491 10.832745 3.336545 11697996
10.325155 10.720097 0.958231 11697996
10.838749 9.923163 2.288120 11697996
10.502378 8.763121 3.485419 11697996
10.814409 8.900248 0.860497 11697996
9.393665 10.235680 2.547724 11697996
9.098073 10.843840 1.134444 11697996
10.340168 8.841428 3.274135 11697996
9.653690 10.790627 2.918324 11697996
9.894740 10.544312 1.157761 11697996
11.121306 10.997081 1.438676 11697996
9.557851 8.828486 3.911395 11697996
10.745131 9.855278 2.297143 11697996
8.776430 9.328677 1.204272 11697996
10.841813 11.117030 3.723340 11697996
10.719357 10.929562 2.522094 11697996
9.539968 9.767160 1.212073 11697996
10.204508 9.251546 1.994313 11697996
9.751360 10.015864 2.716879 11697996
10.042389 9.722290 0.818520 11697996
10.336454 11.244543 1.885644 11697996
10.634309 9.189082 0.207289 11697996
9.504498 10.700511 1.200546 11697996
11.210845 11.007352 2.559351 11697996
10.524467 9.727383 2.050070 11697996
8.974590 10.390279 3.861300 11697996
9.208329 10.599061 0.148006 11697996
10.288486 10.027267 3.645622 11697996
10.768011 10.614351 3.069778 11697996
9.591133 11.223593 3.659488 11697996
9.378507 9.243452 2.973269 11697996
10.000551 9.259053 1.213284 11697996
9.122334 8.979658 0.815753 11697996
10.357355 9.634434 3.117790 11697996
10.587249 11.095860 2.260135 11697996
10.164067 8.909195 0.507734 11697996
10.722570 10.085031 3.466274 11697996
9.104925 10.969636 2.167868 11697996
11.002980 10.117703 1.568967 11697996
10.640701 10.407629 0.592501 11697996
8.830968 10.835288 2.862586 11697996
8.824995 10.476693 0.248978 11697996
9.385389 10.145688 3.525364 11697996
9.043297 9.293852 2.157114 11697996
9.652221 9.734757 2.089561 11697996
10.337771 10.038018 1.895451 11697996
9.253379 9.337492 2.329280 11697996
9.533171 10.870979 3.353272 11697996
10.072490 9.979487 3.334095 11697996
10.690590 8.797635 0.834285 11697996
9.206342 11.234437 3.939142 11697996
9.398173 9.900944 0.935539 11697996
8.853564 11.210941 2.735621 11697996
10.126822 9.582621 3.413980 11697996
11.259620 10.307501 0.173165 11697996
9.300822 9.023465 2.726129 11697996
8.942942 9.314941 1.301603 11697996
9.012708 9.771333 1.626306 11697996
8.872915 9.710377 2.167355 11697996
11.058180 11.076315 3.611258 11697996
10.402541 9.875096 3.007329 11697996
8.762277 9.722337 3.485643 11697996
10.299505 9.614186 0.336277 11697996
10.467651 10.568850 1.881280 11697996
10.743841 9.649141 0.056170 11697996
11.149839 8.952600 3.996996 11697996
10.578240 10.439246 2.018672 11697996
10.225143 10.219280 0.751191 11697996
10.005312 9.171804 1.462780 11697996
11.114744 9.261490 2.181200 11697996
9.035691 11.184901 0.924409 11697996
9.010694 9.460768 3.309810 11697996
10.507496 9.956444 2.754940 11697996
8.759070 11.167303 1.148511 11697996
10.532942 9.807405 3.097246 11697996
9.142938 10.676784 3.412694 11697996
9.139564 10.179340 3.980929 11697996
10.974177 10.252965 1.934733 11697996
10.921917 9.647398 1.014511 11697996
9.408491 8.952072 3.898239 11697996
8.760079 9.803569 2.459474 11697996
10.237056 10.454540 1.874205 11697996
11.067789 10.891527 3.538960 11697996
8.859139 9.439383 3.886455 11697996
9.888011 9.105590 3.475152 11697996
9.981085 9.600507 2.145047 11697996
8.922377 9.998868 2.432493 11697996
9.646022 9.917304 3.713317 11697996
9.911945 10.891351 2.614621 11697996
10.936161 11.127895 0.850886 11697996
9.322425 9.071517 0.081250 11697996
9.663448 10.869319 0.117790 11697996
10.169247 10.311412 3.539145 11697996
10.957172 9.053224 0.935294 11697996
9.316607 11.052686 1.770798 11697996
10.150660 9.216521 2.197690 11697996
8.786944 9.995999 0.763971 11697996
9.770719 9.872001 3.932760 11697996
9.965595 11.203056 2.377572 11697996
9.352861 10.892466 2.973575 11697996
10.679943 9.635326 2.239273 11697996
10.921886 9.062595 2.784367 11697996
10.889242 10.893284 1.791326 11697996
11.236120 9.900536 2.215215 11697996
9.645555 9.302177 2.475132 11697996
9.323011 8.865705 2.925285 11697996
11.042123 8.986048 2.696261 11697996
9.826235 8.790246 0.582237 11697996
9.822937 9.059245 3.569488 11697996
10.972938 9.787479 0.838324 11697996
11.140089 9.063030 3.671402 11697996
10.457355 9.163301 2.269274 11697996
10.769966 10.405778 1.395289 11697996
9.376412 10.554281 0.179304 11697996
9.378406 10.728128 2.743760 11697996
9.547805 9.293997 3.917952 11697996
9.036858 10.936156 2.199085 11697996
9.757649 9.915930 0.551346 11697996
10.548807 10.138694 1.800101 11697996
11.204711 11.048240 0.284618 11697996
8.944609 10.474865 2.783313 11697996
10.433013 10.051452 1.518533 11697996
10.603874 10.349995 0.794212 11697996
10.593212 9.662333 3.574168 11697996
11.073699 8.847617 0.302721 11697996
11.022840 11.186265 -0.009548 11697996
10.737511 9.730560 3.571131 11697996
9.658970 10.839373 3.360338 11697996
9.529308 9.419103 2.215501 11697996
10.503305 9.599240 1.574240 11697996
11.023724 9.449068 1.962146 11697996
10.400578 10.009948 0.530371 11697996
9.771690 11.148737 2.391721 11697996
11.119195 8.914133 2.347797 11697996
11.008630 9.643773 2.523117 11697996
9.720433 10.883877 2.663073 11697996
9.152339 10.350899 0.886834 11697996
9.301432 8.845749 2.222725 11697996
11.070660 9.857692 3.026185 11697996
9.438821 10.876828 1.292966 11697996
10.283033 9.270595 1.536059 11697996
9.637461 10.434284 1.958069 11697996
9.727678 9.163911 2.239702 11697996
9.198544 9.102524 0.659473 11697996
10.516134 11.077682 3.429003 11697996
9.878432 9.788591 2.121318 11697996
10.176224 9.161344 3.333778 11697996
10.412999 10.095802 1.524467 11697996
9.234589 10.841896 1.173386 11697996
9.654578 10.218622 3.968604 11697996
9.756794 8.989838 3.506457 11697996
8.928227 9.528791 0.273879 11697996
10.620521 10.418657 0.112044 11697996
9.368462 10.490462 1.879869 11697996
10.524340 8.971009 2.446664 11697996
10.482547 10.307681 0.617518 11697996
9.921583 10.042764 3.655183 11697996
9.794940 9.748349 0.634270 11697996
11.199936 10.520020 2.808742 11697996
9.672435 10.626304 1.928176 11697996
9.137507 10.870893 3.791958 11697996
9.259662 11.060648 1.258044 11697996
11.115037 11.122862 3.826702 11697996
10.390125 10.179238 2.389442 11697996
9.878907 10.103880 3.626436 11697996
9.119962 9.104860 1.813296 11697996
9.563943 9.946736 3.254659 11697996
10.935530 9.267863 0.143808 11697996
11.093698 9.154049 0.666998 11697996
9.753134 11.090501 2.575056 11697996
10.999430 9.322700 1.447453 11697996
9.283601 9.894028 2.538037 11697996
11.195624 11.127872 0.854432 11697996
11.175390 10.572641 1.851601 11697996
10.329975 8.823166 3.730648 11697996
9.309158 9.754852 3.143318 11697996
10.332367 9.022174 0.872000 11697996
9.584582 9.442515 0.024205 11697996
10.060616 8.896006 3.134041 11697996
10.812010 10.409988 3.049617 11697996
8.756462 9.106860 3.496660 11697996
10.019390 9.566970 1.124780 11697996
10.320506 9.418313 2.356565 11697996
11.139950 9.601718 3.454117 11697996
9.847055 11.175464 3.253772 11697996
11.002408 10.567248 2.604624 11697996
10.677196 10.406938 0.633796 11697996
9.022552 9.116093 2.273441 11697996
10.182589 9.509077 3.768929 11697996
10.811905 10.695810 0.710197 11697996
11.234572 8.808878 0.946925 11697996
9.279301 9.564263 3.783503 11697996
11.214246 10.230970 1.608121 11697996
10.943480 9.435172 1.665544 11697996
11.024326 10.193069 2.408401 11697996
8.876563 10.793968 1.249645 11697996
9.611840 9.832810 0.368726 11697996
10.306903 8.981170 3.231930 11697996
9.570105 8.832808 1.269150 11697996
11.036550 9.140924 1.157743 11697996
10.322877 8.776525 0.429410 11697996
9.892744 9.686069 2.822575 11697996
10.843791 9.755367 3.944981 11697996
9.075593 9.309252 3.380272 11697996
10.033812 10.882258 0.732546 11697996
10.122638 8.788061 3.061581 11697996
10.836148 9.295028 3.630849 11697996
9.516539 9.767331 3.441923 11697996
9.490743 8.955185 3.446550 11697996
10.142595 9.190824 1.290551 11697996
10.564238 9.076610 1.766068 11697996
9.823953 10.889833 3.599214 11697996
11.077421 9.666782 3.527241 11697996
9.761642 10.927155 3.276225 11697996
10.059831 9.547158 0.544533 11697996
9.187544 9.256289 2.878567 11697996
10.474059 8.968699 3.131227 11697996
9.883423 9.572591 0.408077 11697996
8.780906 10.853904 3.306611 11697996
10.327680 9.645473 0.708752 11697996
10.505378 10.901826 1.657855 11697996
9.740492 10.719033 1.919737 11697996
9.246537 10.211844 2.051314 11697996
10.527260 10.696019 3.655639 11697996
10.077978 9.885624 3.122758 11697996
9.949408 9.651393 1.624305 11697996
9.318102 9.884373 3.459935 11697996
9.925459 11.155737 3.832219 11697996
8.983082 11.189949 0.977616 11697996
10.557477 10.107791 0.139497 11697996
10.502102 10.313123 1.757605 11697996
10.080677 9.132556 0.811877 11697996
9.414901 9.561048 2.555598 11697996
11.108889 10.943309 1.020310 11697996
10.658764 11.111167 1.050655 11697996
9.609162 10.415275 0.991191 11697996
8.861814 11.194339 1.628488 11697996
10.198454 10.052269 2.947093 11697996
8.948343 9.273890 1.982491 11697996
11.040233 8.998600 0.635556 11697996
9.803843 8.732224 0.759757 11697996
9.137375 10.413500 1.643876 11697996
10.843418 9.208425 0.563546 11697996
9.859491 9.601377 2.817080 11697996
9.745853 10.215903 0.236600 11697996
11.035553 10.434755 0.428139 11697996
9.469017 10.138471 1.535718 11697996
8.771299 11.104167 2.477203 11697996
10.315376 9.479835 0.510805 11697996
10.683822 8.869484 0.204144 11697996
11.226801 9.402933 2.632995 11697996
9.481323 10.715678 1.238734 11697996
10.223214 8.999970 1.022972 11697996
10.715522 10.836349 1.700318 11697996
9.526920 9.990876 2.376277 11697996
10.349494 9.143078 0.469373 11697996
10.597286 9.056444 2.471201 11697996
10.705991 10.151537 1.159118 11697996
9.373862 9.206702 1.785082 11697996
9.843801 10.301925 2.027235 11697996
9.156830 9.047451 1.645276 11697996
9.641980 8.988499 2.453597 11697996
9.515100 11.225410 1.589245 11697996
11.189262 9.620098 1.538696 11697996
9.688690 8.845913 0.383569 11697996
10.321010 10.664469 2.673981 11697996
10.978498 8.769913 2.015178 11697996
9.526230 9.028634 0.079197 11697996
10.012053 10.387052 2.647088 11697996
9.431187 9.615645 1.598503 11697996
9.395621 10.718987 2.867395 11697996
9.914446 9.751826 1.018034 11697996
9.166021 10.279652 2.881810 11697996
9.400496 10.656086 0.797271 11697996
10.080103 9.772742 3.924827 11697996
9.080398 10.578591 2.227149 11697996
8.775607 8.948486 1.137857 11697996
10.625965 9.158110 1.335542 11697996
10.057466 9.718255 2.248317 11697996
11.108236 10.358478 0.234099 11697996
11.107647 10.321305 3.529732 11697996
9.081622 10.220588 1.800865 11697996
9.891623 10.842725 3.200544 11697996
10.706570 10.665768 1.170551 11697996
11.211226 10.124439 1.944918 11697996
10.914155 11.224920 1.381824 11697996
10.715311 11.079850 3.800233 11697996
9.865365 10.256490 1.957623 11697996
11.228741 10.353801 0.473477 11697996
10.523155 10.042806 2.087571 11697996
10.050745 9.782228 3.639857 11697996
9.384127 10.669711 2.028771 11697996
9.591484 10.318422 2.704568 11697996
9.794217 9.640723 0.962072 11697996
9.079775 8.888204 3.379090 11697996
9.503691 8.969426 0.047561 11697996
10.741007 10.035142 2.259563 11697996
9.519461 9.167297 3.836408 11697996
9.942532 9.883456 2.110592 11697996
9.363221 10.531930 0.405163 11697996
9.679202 10.204892 2.051480 11697996
9.382609 11.116366 3.836827 11697996
9.934181 9.968763 2.198931 11697996
8.940928 10.296807 0.942734 11697996
9.606146 9.626538 2.306782 11697996
11.132246 10.465687 1.170341 11697996
10.860074 10.429950 1.610995 11697996
9.361584 9.386255 0.083288 11697996
9.933045 10.021251 1.242779 11697996
11.171625 9.852736 1.082780 11697996
9.734151 9.339321 0.010699 11697996
9.007556 9.528548 1.790189 11697996
10.867167 9.456853 0.641485 11697996
9.659342 10.028354 1.459733 11697996
9.699433 10.795196 0.258452 11697996
11.232126 10.289348 4.019573 11697996
8.752732 9.717850 2.605682 11697996
10.001645 10.794144 3.158041 11697996
10.091710 9.999909 2.266427 11697996
11.148092 9.832009 2.102379 11697996
9.788809 10.179270 3.487331 11697996
8.949296 9.176558 2.395592 11697996
9.704925 10.380546 2.862734 11697996
10.533507 9.856523 3.807684 11697996
10.552951 9.588749 2.840237 11697996
8.997869 9.483736 2.927082 11697996
10.845087 11.203773 2.785214 11697996
11.213758 10.722916 0.472578 11697996
11.245383 8.776716 1.754800 11697996
9.803999 9.923099 2.493743 11697996
10.448190 8.890691 3.629660 11697996
10.666767 9.595573 1.696934 11697996
10.293324 8.917869 1.278007 11697996
9.690911 10.445944 3.806308 11697996
10.626862 10.493750 1.280592 11697996
10.116883 10.335595 3.678985 11697996
10.178427 9.208012 0.610267 11697996
9.841414 9.098587 1.025378 11697996
10.578045 10.626009 1.753287 11697996
9.942789 10.157924 0.437655 11697996
10.079732 10.398094 3.694558 11697996
10.233930 9.616430 1.546771 11697996
11.059228 9.450530 3.296536 11697996
9.760986 8.767739 3.519279 11697996
9.401801 9.823665 1.254787 11697996
8.947881 8.965506 3.438367 11697996
10.489941 10.507650 1.262923 11697996
10.247685 10.104712 0.199148 11697996
9.006947 10.437736 2.988275 11697996
10.702016 8.818162 1.070036 11697996
8.988273 9.035497 3.323961 11697996
9.762846 11.120705 2.942807 11697996
9.774570 10.924561 0.210099 11697996
11.058932 9.523283 2.040837 11697996
10.512337 10.142273 3.043964 11697996
9.212909 10.627475 2.746678 11697996
11.131116 10.896551 0.135090 11697996
10.086840 9.178596 1.881472 11697996
10.646925 10.247004 2.243308 11697996
11.224784 9.862537 3.119391 11697996
9.007949 10.075289 2.522533 11697996
10.921207 9.119426 1.191996 11697996
11.116389 10.805980 0.161224 11697996
10.397058 10.937103 3.300399 11697996
10.665399 10.835361 3.054053 11697996
9.475867 9.307150 1.085035 11697996
8.916932 9.914742 2.699344 11697996
9.986284 10.561654 3.665563 11697996
10.319273 10.477185 0.966937 11697996
10.275339 9.409468 2.803055 11697996
11.162909 11.035511 2.724509 11697996
9.557891 8.813015 1.102279 11697996
9.489339 9.562818 1.509915 11697996
10.158903 11.129859 2.564874 11697996
9.095276 9.267921 1.719182 11697996
9.389400 8.949993 2.900017 11697996
9.682955 9.737292 2.010087 11697996
10.689967 11.068277 3.709513 11697996
11.103518 10.392377 3.785915 11697996
10.957930 9.186158 0.054919 11697996
11.092540 10.425238 3.165733 11697996
8.964736 9.010333 1.210732 11697996
8.916048 10.263912 3.055321 11697996
9.011990 9.518524 0.979501 11697996
9.319308 9.589961 2.676019 11697996
10.032057 9.153948 3.150777 11697996
8.780388 8.929328 0.452978 11697996
10.151305 10.348665 1.283192 11697996
8.787389 10.221062 0.906959 11697996
9.466563 10.141456 0.387396 11697996
9.608444 9.911070 1.759040 11697996
9.294084 9.153924 1.355812 11697996
9.969630 9.037212 0.927096 11697996
9.370677 9.556469 0.351459 11697996
9.285892 9.592700 0.320862 11697996
9.547297 10.352252 1.879890 11697996
9.052303 9.846119 3.744061 11697996
9.504498 10.023905 0.547406 11697996
9.812394 10.376433 0.697485 11697996
10.791444 11.179702 1.689866 11697996
10.971898 10.237903 0.735490 11697996
9.332665 9.118269 2.453909 11697996
10.032471 9.430039 1.642959 11697996
9.478496 10.050065 2.799972 11697996
10.081038 10.545225 2.641040 11697996
10.924939 9.715565 2.188489 11697996
10.833910 9.545960 0.689763 11697996
9.451838 11.212796 3.634677 11697996
11.191709 10.272945 0.568081 11697996
10.966355 10.517521 3.547284 11697996
11.013453 10.083722 2.393732 11697996
9.444357 8.810472 1.783340 11697996
10.411198 11.075073 0.508774 11697996
9.690631 9.011804 2.016881 11697996
9.683630 9.590022 2.020558 11697996
10.297591 9.629985 1.252176 11697996
9.968087 10.517146 1.314035 11697996
10.371902 9.649848 3.543715 11697996
11.203835 8.864122 0.842513 11697996
10.183127 9.133674 2.827621 11697996
9.539170 9.294468 2.102980 11697996
8.763817 9.350684 0.369490 11697996
9.718790 9.511621 0.657610 11697996
9.059948 10.153475 1.903616 11697996
11.077603 10.271678 1.504309 11697996
9.348667 10.086668 0.702677 11697996
10.115562 8.789658 0.009049 11697996
9.942210 10.448827 3.030626 11697996
9.139004 9.252403 2.542949 11697996
9.294140 9.292062 0.502575 11697996
10.767743 11.155643 3.953483 11697996
9.222088 10.303450 1.542678 11697996
9.889126 9.539360 3.528412 11697996
8.777218 9.436825 2.228669 11697996
10.342733 9.663242 2.791240 11697996
9.736305 11.217409 3.821402 11697996
10.381560 10.604579 3.033685 11697996
10.550378 10.960485 3.954109 11697996
11.210435 9.094216 2.777680 11697996
9.857514 9.382257 2.467153 11697996
10.316718 10.735708 3.244941 11697996
9.517093 10.211458 3.512817 11697996
9.274187 9.952586 0.082686 11697996
10.249306 10.840450 1.679965 11697996
10.732328 10.225805 2.018981 11697996
10.904143 10.636308 1.077874 11697996
10.142417 8.868060 1.866076 11697996
10.013577 10.322717 1.237660 11697996
11.117232 9.618726 1.904875 11697996
10.463981 9.468150 3.632845 11697996
9.974710 10.079082 0.965470 11697996
10.846616 10.956800 1.221511 11697996
10.231727 9.827111 2.585646 11697996
