# .PCD v0.7 - Point Cloud Data file format
VERSION 0.7
FIELDS x y z rgb
SIZE 4 4 4 4
TYPE F F F U
COUNT 1 1 1 1
WIDTH 1284
HEIGHT 1
VIEWPOINT 0 0 0 1 0 0 0
POINTS 1284
DATA ascii
9.285831 11.036459 1.780256 11697996
10.154594 9.217297 2.190865 11697996
8.786252 10.021255 0.765526 11697996
9.724566 9.877887 3.964727 11697996
9.938335 11.156120 2.369615 11697996
9.347468 10.902389 2.935990 11697996
10.649645 9.638520 2.228849 11697996
10.915150 9.036111 2.777251 11697996
10.888524 10.875992 1.800178 11697996
11.248069 9.920002 2.240510 11697996
9.661413 9.325274 2.499605 11697996
9.320150 8.859655 2.920609 11697996
11.026277 8.991795 2.691816 11697996
9.892329 8.825829 0.589924 11697996
9.797766 9.066600 3.548309 11697996
10.982697 9.774043 0.835973 11697996
11.122263 9.031152 3.685236 11697996
10.453463 9.171690 2.275540 11697996
10.777343 10.434895 1.390927 11697996
9.321576 10.582692 0.176447 11697996
9.388781 10.712105 2.749171 11697996
9.550487 9.315183 3.935447 11697996
9.051774 10.949734 2.188215 11697996
9.763787 9.905816 0.549230 11697996
10.518153 10.114504 1.788588 11697996
11.221638 11.048875 0.306033 11697996
8.932969 10.462034 2.818218 11697996
10.430333 10.051233 1.535242 11697996
10.613029 10.350678 0.767320 11697996
10.547738 9.665475 3.572719 11697996
11.049121 8.875607 0.344333 11697996
11.004722 11.221814 0.005325 11697996
10.752860 9.756028 3.540493 11697996
9.674677 10.797351 3.373542 11697996
9.512962 9.421444 2.211231 11697996
10.494903 9.587174 1.559621 11697996
11.041678 9.433609 1.938967 11697996
10.398487 9.997025 0.541549 11697996
9.817749 11.168838 2.390567 11697996
11.073440 8.912283 2.355835 11697996
10.962663 9.600779 2.521818 11697996
9.720369 10.910995 2.644402 11697996
9.147396 10.345880 0.890425 11697996
9.293079 8.833688 2.223160 11697996
11.067959 9.883741 3.045968 11697996
9.420675 10.909494 1.271664 11697996
10.257569 9.265219 1.505943 11697996
9.603930 10.423808 1.985209 11697996
9.700987 9.177553 2.258884 11697996
9.226284 9.126345 0.638988 11697996
10.496091 11.075954 3.444963 11697996
9.870293 9.795967 2.137552 11697996
10.144760 9.184282 3.348022 11697996
10.431048 10.109004 1.542415 11697996
9.225438 10.841798 1.182523 11697996
9.640185 10.242096 3.955317 11697996
9.768900 8.998721 3.522815 11697996
8.946710 9.518855 0.286396 11697996
10.629554 10.436955 0.137485 11697996
9.354727 10.484214 1.901964 11697996
10.523341 8.981559 2.465796 11697996
10.477712 10.330952 0.634418 11697996
9.952761 10.074186 3.633646 11697996
9.753142 9.739428 0.661981 11697996
11.214868 10.480996 2.802908 11697996
9.671461 10.630727 1.934842 11697996
9.144228 10.865625 3.779112 11697996
9.261684 11.081424 1.239297 11697996
11.106195 11.124534 3.822799 11697996
10.358210 10.207872 2.434400 11697996
9.874784 10.092010 3.650946 11697996
9.115218 9.087774 1.792482 11697996
9.572774 9.957005 3.276911 11697996
10.947759 9.264420 0.120497 11697996
11.022169 9.187449 0.636763 11697996
9.759798 11.121564 2.577851 11697996
11.008420 9.316038 1.451912 11697996
9.276140 9.886587 2.554948 11697996
11.202841 11.104794 0.869144 11697996
11.180647 10.598026 1.842708 11697996
10.344518 8.814811 3.765850 11697996
9.257454 9.743550 3.127993 11697996
10.320679 9.006203 0.874083 11697996
9.596407 9.418322 0.074636 11697996
10.060674 8.881258 3.149240 11697996
10.809034 10.397415 3.068259 11697996
8.772043 9.124386 3.485914 11697996
9.986835 9.571232 1.104066 11697996
10.320024 9.455160 2.293744 11697996
11.160899 9.613144 3.448660 11697996
9.870647 11.163062 3.243698 11697996
11.002784 10.562986 2.668222 11697996
10.692908 10.426087 0.648748 11697996
9.029688 9.103030 2.310640 11697996
10.169559 9.507026 3.786848 11697996
10.816688 10.707186 0.710061 11697996
11.235660 8.804769 0.945627 11697996
9.290321 9.549644 3.794879 11697996
11.243781 10.242058 1.586431 11697996
10.922629 9.399999 1.662385 11697996
11.035038 10.168126 2.434749 11697996
8.889524 10.779450 1.258098 11697996
9.638366 9.845912 0.359401 11697996
10.289005 8.971481 3.217833 11697996
9.540996 8.818882 1.286047 11697996
11.018560 9.097727 1.162415 11697996
10.332657 8.790296 0.417833 11697996
9.868679 9.665443 2.799421 11697996
10.846272 9.739185 3.950810 11697996
9.036526 9.296529 3.380711 11697996
10.021744 10.897468 0.742433 11697996
10.119823 8.809247 3.099304 11697996
10.877694 9.275450 3.619155 11697996
9.516738 9.761097 3.420573 11697996
9.484758 8.957099 3.463324 11697996
10.155179 9.178090 1.285966 11697996
10.581734 9.077250 1.822336 11697996
9.846787 10.873893 3.610275 11697996
11.092775 9.660478 3.545937 11697996
9.779635 10.929001 3.276236 11697996
10.056716 9.495985 0.526809 11697996
9.180417 9.286427 2.908713 11697996
10.432060 8.974470 3.124648 11697996
9.855472 9.545936 0.431639 11697996
8.779436 10.858313 3.305716 11697996
10.311375 9.635665 0.708164 11697996
10.498433 10.917200 1.669654 11697996
9.758884 10.712239 1.945080 11697996
9.245091 10.184744 2.056607 11697996
10.573264 10.695745 3.654943 11697996
10.105381 9.883424 3.171591 11697996
9.987082 9.687817 1.597403 11697996
9.344466 9.875535 3.476657 11697996
9.894145 11.160481 3.806817 11697996
8.969572 11.179765 1.004913 11697996
10.574040 10.075936 0.141087 11697996
10.532082 10.292394 1.776505 11697996
10.113334 9.066307 0.812191 11697996
9.414208 9.547365 2.587912 11697996
11.108596 11.001062 0.990272 11697996
10.601068 11.111896 1.060768 11697996
9.595384 10.384624 0.980614 11697996
8.867099 11.226623 1.632583 11697996
10.203619 10.061666 2.922129 11697996
8.944413 9.257889 1.976548 11697996
11.046607 9.022554 0.647307 11697996
9.791068 8.749962 0.773938 11697996
9.177514 10.415102 1.676159 11697996
10.853636 9.246567 0.570264 11697996
9.857606 9.587193 2.810690 11697996
9.760934 10.204704 0.246350 11697996
11.024943 10.441605 0.401884 11697996
9.470565 10.114786 1.539270 11697996
8.753237 11.119006 2.505330 11697996
10.301903 9.487768 0.525466 11697996
10.673082 8.853165 0.191149 11697996
11.228191 9.433054 2.640532 11697996
9.543740 10.747188 1.215604 11697996
10.189942 8.996036 1.029096 11697996
10.730391 10.831237 1.680482 11697996
9.504267 9.997293 2.364823 11697996
10.366265 9.144867 0.473550 11697996
10.621106 9.058247 2.450144 11697996
10.703808 10.163404 1.175855 11697996
9.359174 9.214581 1.768226 11697996
9.859335 10.242623 2.024800 11697996
9.172609 9.064635 1.664926 11697996
9.639547 8.970993 2.459230 11697996
9.517013 11.187350 1.628067 11697996
11.186305 9.658247 1.541223 11697996
9.650407 8.862269 0.408493 11697996
10.315516 10.673665 2.653108 11697996
10.997417 8.751070 2.008296 11697996
9.525261 9.048643 0.077552 11697996
10.010136 10.352035 2.662211 11697996
9.429969 9.634876 1.593876 11697996
9.408222 10.713593 2.892790 11697996
9.936027 9.752843 1.045204 11697996
9.125852 10.241624 2.888455 11697996
9.412661 10.644632 0.809233 11697996
10.059406 9.772897 3.903986 11697996
9.077571 10.601531 2.248507 11697996
8.805657 8.939430 1.186755 11697996
10.593997 9.198456 1.319454 11697996
10.099784 9.717399 2.256672 11697996
11.124310 10.361223 0.232739 11697996
11.097264 10.334590 3.539880 11697996
9.087951 10.223644 1.832881 11697996
9.902475 10.862441 3.198913 11697996
10.709174 10.682709 1.184702 11697996
11.203650 10.102855 1.968733 11697996
10.931870 11.205160 1.334575 11697996
10.722178 11.069914 3.797463 11697996
9.916663 10.270820 1.958896 11697996
11.234274 10.356418 0.458764 11697996
10.524625 10.046601 2.093774 11697996
10.065122 9.766278 3.648359 11697996
9.420153 10.698850 2.032218 11697996
9.590785 10.312798 2.667866 11697996
9.790204 9.636395 0.961459 11697996
9.082336 8.891411 3.349561 11697996
9.499658 8.954650 0.051628 11697996
10.768648 10.049961 2.262749 11697996
9.502647 9.178388 3.811477 11697996
9.944831 9.903051 2.147579 11697996
9.398227 10.569309 0.387997 11697996
9.693853 10.189301 2.064615 11697996
9.378197 11.109079 3.828351 11697996
9.938224 9.984422 2.222350 11697996
8.972096 10.300057 0.947672 11697996
9.614101 9.617335 2.336132 11697996
11.129875 10.440205 1.176376 11697996
10.875183 10.420963 1.605852 11697996
9.387318 9.398167 0.096694 11697996
9.915897 10.058726 1.272858 11697996
11.190799 9.864568 1.126628 11697996
9.744268 9.316010 0.002362 11697996
9.029346 9.531215 1.800713 11697996
10.841801 9.441649 0.608359 11697996
9.655712 10.014134 1.474898 11697996
9.712527 10.824403 0.281801 11697996
11.225358 10.302933 3.989642 11697996
8.766307 9.734658 2.588167 11697996
9.975273 10.807168 3.182306 11697996
10.104871 9.958841 2.268808 11697996
11.152184 9.878532 2.097816 11697996
9.805270 10.176052 3.505177 11697996
8.964252 9.203482 2.393500 11697996
9.679420 10.397660 2.851092 11697996
10.527346 9.825548 3.780989 11697996
10.569534 9.598860 2.844868 11697996
8.997462 9.478353 2.887558 11697996
10.862840 11.218719 2.807507 11697996
11.228714 10.683004 0.473197 11697996
11.260038 8.751935 1.771473 11697996
9.789960 9.927450 2.502060 11697996
10.453415 8.897084 3.607038 11697996
10.664508 9.611574 1.722322 11697996
10.316029 8.936218 1.264232 11697996
9.725114 10.478041 3.802724 11697996
10.598071 10.461396 1.303436 11697996
10.163272 10.304697 3.638562 11697996
10.152495 9.243603 0.607799 11697996
9.847844 9.099219 1.038288 11697996
10.558004 10.642601 1.752142 11697996
9.942498 10.143372 0.443722 11697996
10.081634 10.400287 3.712870 11697996
10.210701 9.623083 1.570146 11697996
11.091350 9.432074 3.333666 11697996
9.763862 8.764003 3.509041 11697996
9.388223 9.784611 1.272013 11697996
8.933566 8.957798 3.443725 11697996
10.512133 10.487636 1.272304 11697996
10.246211 10.100202 0.159953 11697996
9.020658 10.474033 2.961312 11697996
10.735250 8.812483 1.107219 11697996
8.983994 9.045200 3.285238 11697996
9.766507 11.110657 2.908630 11697996
9.788134 10.934750 0.203654 11697996
11.043309 9.472176 2.031987 11697996
10.524456 10.106603 3.017884 11697996
9.220244 10.594564 2.779802 11697996
11.143412 10.909171 0.177786 11697996
10.102260 9.158622 1.862693 11697996
10.631809 10.258154 2.282258 11697996
11.205870 9.848829 3.110319 11697996
9.036245 10.050246 2.466339 11697996
10.941191 9.107241 1.212292 11697996
11.134331 10.780226 0.137571 11697996
10.407016 10.959156 3.293330 11697996
10.700079 10.803572 3.028590 11697996
9.489636 9.305942 1.074250 11697996
8.866067 9.899421 2.708011 11697996
10.002076 10.558885 3.665394 11697996
10.267502 10.474870 0.928496 11697996
10.276389 9.392569 2.782177 11697996
11.119670 11.013328 2.709751 11697996
9.565928 8.827035 1.095148 11697996
9.470845 9.596481 1.494695 11697996
10.155334 11.118211 2.560248 11697996
9.112262 9.229157 1.725684 11697996
9.376388 8.961898 2.930964 11697996
9.673945 9.709388 2.045096 11697996
10.684939 11.069994 3.696892 11697996
11.112137 10.382074 3.788321 11697996
10.943857 9.170727 0.018798 11697996
11.127557 10.429531 3.198193 11697996
8.954589 9.037524 1.216288 11697996
8.915584 10.276572 3.055825 11697996
8.985013 9.512243 0.974985 11697996
9.317742 9.576570 2.664089 11697996
10.062107 9.136273 3.173034 11697996
8.765429 8.938821 0.438741 11697996
10.148790 10.326263 1.263719 11697996
8.828633 10.262025 0.890825 11697996
9.484313 10.122957 0.411055 11697996
9.599729 9.884471 1.766454 11697996
9.333922 9.132259 1.346965 11697996
9.962694 9.017928 0.916040 11697996
9.393169 9.526000 0.386180 11697996
9.271579 9.623043 0.313812 11697996
9.541631 10.357736 1.904323 11697996
9.038199 9.845444 3.714365 11697996
9.463992 10.013810 0.529037 11697996
9.787332 10.379364 0.679412 11697996
10.806985 11.186312 1.672526 11697996
11.016276 10.276907 0.738687 11697996
9.364441 9.073066 2.494717 11697996
10.042935 9.459106 1.673785 11697996
9.520695 10.037008 2.825815 11697996
10.070328 10.540391 2.621924 11697996
10.926533 9.712030 2.200973 11697996
10.842086 9.552847 0.680224 11697996
9.455578 11.231385 3.656287 11697996
11.171897 10.318384 0.526893 11697996
10.953043 10.514184 3.544215 11697996
11.015951 10.109971 2.409790 11697996
9.442765 8.797460 1.774984 11697996
10.423080 11.090385 0.527597 11697996
9.707656 9.015879 2.005634 11697996
9.639561 9.570405 2.028391 11697996
10.294829 9.598852 1.234251 11697996
9.967842 10.519836 1.349062 11697996
10.369114 9.674471 3.559825 11697996
11.207758 8.887676 0.841857 11697996
10.174472 9.118065 2.827163 11697996
9.546653 9.278158 2.095593 11697996
8.760741 9.374665 0.383139 11697996
9.691156 9.497889 0.702111 11697996
9.033298 10.118662 1.879490 11697996
11.082104 10.259539 1.517443 11697996
9.404809 10.087613 0.692404 11697996
10.158605 8.800333 0.000799 11697996
10.002694 10.462923 3.021415 11697996
9.119415 9.247787 2.551293 11697996
9.322616 9.308996 0.479114 11697996
10.762501 11.177461 3.973878 11697996
9.210140 10.316157 1.555596 11697996
9.898914 9.500304 3.559574 11697996
8.776793 9.442375 2.251884 11697996
10.340732 9.675243 2.793273 11697996
9.735052 11.198111 3.821296 11697996
10.355370 10.587020 3.035107 11697996
10.566620 10.973554 3.958262 11697996
11.203435 9.083825 2.766514 11697996
9.815406 9.386477 2.477342 11697996
10.314287 10.729900 3.273565 11697996
9.526184 10.202651 3.523453 11697996
9.260350 9.978538 0.095178 11697996
10.229845 10.805274 1.705739 11697996
10.736625 10.267185 1.978635 11697996
10.924923 10.593862 1.045396 11697996
10.150959 8.854687 1.858819 11697996
10.011978 10.314437 1.226184 11697996
11.120924 9.597720 1.923421 11697996
10.446590 9.483891 3.642074 11697996
9.969220 10.108948 0.904154 11697996
10.846841 10.975011 1.268207 11697996
10.249028 9.787678 2.560996 11697996
9.724966 9.167885 3.331486 11697996
9.742984 10.886249 2.192988 11697996
9.487150 10.389083 0.849864 11697996
10.903724 10.639819 3.420383 11697996
9.244039 9.640520 2.324779 11697996
8.999076 10.792104 0.009798 11697996
9.389528 10.893897 1.931411 11697996
9.866866 8.878605 3.047308 11697996
8.825213 9.810419 2.047688 11697996
8.990706 10.643821 0.363159 11697996
8.802801 9.271038 1.202036 11697996
10.894736 9.379636 1.043102 11697996
10.893734 10.452153 3.060092 11697996
9.069172 10.855817 3.803744 11697996
10.924045 9.490873 2.974840 11697996
10.897028 8.793455 0.331757 11697996
9.047391 10.357125 1.046063 11697996
10.408183 8.837452 1.919828 11697996
9.366980 9.333571 0.053872 11697996
9.596788 9.961619 1.262244 11697996
10.729335 8.904274 1.091040 11697996
9.106897 10.544824 0.973951 11697996
10.562279 10.171604 0.414135 11697996
11.015711 9.310044 1.875472 11697996
9.047683 9.864761 1.991905 11697996
10.107198 11.112404 2.757761 11697996
8.852201 9.213484 0.617913 11697996
9.520000 10.818379 3.755371 11697996
9.247471 9.627891 2.222023 11697996
9.249508 10.464952 0.174671 11697996
10.705141 9.871094 2.495157 11697996
9.540837 8.846254 3.781401 11697996
10.945673 10.029303 1.457878 11697996
9.086111 10.407793 1.683289 11697996
9.310925 9.376204 2.044822 11697996
10.243939 8.816214 3.902208 11697996
10.058098 9.176276 3.296483 11697996
10.692399 10.095388 3.223303 11697996
11.222513 10.624417 3.834426 11697996
9.261840 9.284213 2.152330 11697996
9.532430 10.959118 3.253422 11697996
10.053628 9.310485 0.463901 11697996
9.513944 10.454490 2.381451 11697996
10.959574 8.891591 1.132247 11697996
9.666186 10.350224 1.574989 11697996
10.493383 10.432867 1.559413 11697996
9.878976 9.063317 2.518857 11697996
9.301910 10.512529 2.093314 11697996
9.233449 10.057901 0.636817 11697996
9.622559 10.444640 3.795571 11697996
10.304166 9.833112 3.574665 11697996
10.034032 9.323313 2.016410 11697996
10.618697 9.838022 0.421694 11697996
11.233138 10.544308 3.189112 11697996
10.717241 9.627481 3.228853 11697996
10.211665 10.380974 0.740832 11697996
9.619698 10.345179 2.653471 11697996
11.008401 11.142261 3.968077 11697996
11.084412 11.213902 1.996447 11697996
9.187989 9.030001 0.260018 11697996
9.756578 9.763361 3.581577 11697996
9.313265 11.114641 1.613562 11697996
8.947137 10.561860 0.445694 11697996
11.184804 10.991258 2.702540 11697996
8.868450 10.689067 1.593675 11697996
10.639391 9.448076 1.060744 11697996
10.856116 9.577619 3.144830 11697996
10.172978 10.226315 0.937794 11697996
9.091871 9.678983 2.378921 11697996
11.091920 9.120052 0.523453 11697996
9.349080 8.835010 2.226980 11697996
10.911084 10.849890 2.329044 11697996
10.462808 10.749994 3.795426 11697996
9.468097 10.909224 0.999545 11697996
9.280887 10.207861 3.526093 11697996
10.355736 9.479397 2.932978 11697996
10.587804 10.445647 3.637382 11697996
8.870291 11.128729 1.208224 11697996
9.548350 10.204838 1.133029 11697996
9.608373 10.039310 3.157202 11697996
10.699109 10.354400 3.205557 11697996
10.140965 9.571748 0.163700 11697996
9.053456 8.930184 0.050020 11697996
9.506961 10.254925 1.410020 11697996
10.614953 9.583221 3.579848 11697996
9.106380 11.170290 0.584502 11697996
9.538389 11.126583 0.474433 11697996
10.704455 8.854835 1.562148 11697996
10.415707 10.830060 2.157741 11697996
11.220394 10.932960 3.047576 11697996
11.144559 8.910241 2.594806 11697996
9.910412 10.824579 3.910389 11697996
9.451494 10.425324 3.902619 11697996
9.107744 9.198026 3.180578 11697996
9.115677 10.540507 3.385151 11697996
10.948879 11.052798 2.846331 11697996
9.588090 10.434817 2.062295 11697996
9.371642 9.965692 3.740538 11697996
10.957466 9.746012 3.789713 11697996
9.602991 9.053997 0.379452 11697996
9.088815 9.204308 0.583651 11697996
9.491070 9.063057 1.361225 11697996
9.747149 10.343971 3.266534 11697996
10.809348 9.322296 0.747905 11697996
9.061239 10.150310 1.976637 11697996
9.514848 10.549459 1.124062 11697996
10.101064 9.230977 2.760262 11697996
9.497967 10.199352 0.011103 11697996
9.387371 9.193599 0.236584 11697996
10.839625 9.858379 1.488009 11697996
9.829889 10.773888 0.163839 11697996
9.005140 9.714250 0.860122 11697996
10.175694 9.452438 2.055431 11697996
10.929769 9.237686 1.048420 11697996
8.860349 10.263453 1.876924 11697996
8.808817 11.013331 3.586994 11697996
10.568540 9.095499 2.370488 11697996
9.307350 10.955504 1.785251 11697996
10.606916 9.918191 0.530402 11697996
9.463412 9.156044 3.754516 11697996
10.287292 10.268218 0.051368 11697996
10.703139 9.018803 3.691121 11697996
9.142638 11.111563 3.951051 11697996
10.274667 9.288400 1.965583 11697996
8.800906 8.995916 3.705734 11697996
10.301316 9.238154 2.661443 11697996
9.717989 10.010879 3.929263 11697996
8.785119 9.796930 1.470566 11697996
9.273520 10.483001 2.139113 11697996
9.667941 10.677277 2.749656 11697996
9.330088 9.841916 2.144737 11697996
8.748476 10.284765 3.225929 11697996
9.295462 10.953566 0.110224 11697996
8.795636 9.434777 2.480339 11697996
10.857829 9.797258 1.524955 11697996
10.278396 9.818003 1.777451 11697996
10.456216 10.022710 2.361851 11697996
10.157650 9.216636 2.903797 11697996
10.105427 10.339133 3.511228 11697996
9.154000 10.086559 1.025474 11697996
9.365796 8.819149 2.598444 11697996
11.247790 11.145926 1.236905 11697996
9.090871 10.170521 2.620562 11697996
9.641036 9.707928 2.757057 11697996
9.352734 9.784349 1.689487 11697996
9.372956 10.845469 3.613500 11697996
10.685467 8.862295 2.788191 11697996
10.154361 9.353987 1.596711 11697996
10.931280 10.729932 3.806383 11697996
9.092128 9.463099 3.350004 11697996
10.057942 9.649536 0.874383 11697996
9.203247 10.982574 0.445415 11697996
9.012733 11.011620 1.967510 11697996
10.919058 10.812787 1.326710 11697996
9.869490 9.256107 3.180781 11697996
10.369252 9.844002 1.360735 11697996
10.301693 9.854751 3.896589 11697996
9.421048 9.073226 3.589327 11697996
9.782950 10.452098 3.239218 11697996
9.013798 9.809368 2.781216 11697996
10.360170 11.017222 0.435277 11697996
10.140596 10.948429 3.015458 11697996
8.993716 9.484608 0.271546 11697996
8.768960 10.161119 0.981513 11697996
9.704903 10.668872 0.559994 11697996
10.357985 10.202819 3.322012 11697996
9.120087 10.214186 3.660240 11697996
11.223142 10.307787 2.525417 11697996
10.945742 10.040915 2.858085 11697996
10.175548 9.985543 0.155542 11697996
10.528812 9.430445 1.623293 11697996
9.089981 9.124391 0.500127 11697996
8.875744 10.887237 0.487973 11697996
9.105529 10.192888 2.279414 11697996
9.784313 10.627435 2.012657 11697996
10.908887 9.388648 3.397408 11697996
9.006867 10.735426 2.037863 11697996
8.832515 10.144187 2.801827 11697996
9.748494 10.092892 0.649583 11697996
10.749590 10.693466 0.483705 11697996
9.336671 10.089340 3.232409 11697996
8.757201 8.956700 1.693598 11697996
9.630266 9.749804 1.447911 11697996
9.597503 11.142545 2.495436 11697996
11.037679 9.837940 2.811737 11697996
9.435945 9.401290 2.554314 11697996
9.300117 9.585803 1.686701 11697996
10.565639 11.219507 0.405070 11697996
9.292233 8.887294 3.430812 11697996
10.576560 9.775887 2.312808 11697996
9.986939 10.675823 1.599358 11697996
9.800170 11.160589 2.107344 11697996
10.610180 11.027258 2.323104 11697996
9.743778 11.074158 3.428522 11697996
10.124313 8.963755 0.107124 11697996
9.773752 10.467067 1.654130 11697996
8.853225 9.752161 2.762531 11697996
10.138672 9.895066 2.366981 11697996
10.941726 9.954340 1.827589 11697996
10.108322 10.697623 1.097034 11697996
9.258043 8.989489 3.195549 11697996
9.629525 9.630895 0.832950 11697996
9.775327 10.157288 1.004614 11697996
10.031366 9.933997 2.441140 11697996
11.211445 10.528012 3.293819 11697996
9.652095 9.936426 1.910001 11697996
10.662530 8.806711 0.209160 11697996
11.139557 9.333650 -0.001933 11697996
11.111650 9.330627 0.817924 11697996
9.768607 10.287712 1.547324 11697996
10.370932 8.984403 0.690794 11697996
11.127601 8.898705 2.820080 11697996
11.203896 9.429525 3.281531 11697996
11.066739 9.198616 2.093447 11697996
11.159322 10.764494 3.929803 11697996
10.552107 9.692499 2.582246 11697996
10.106178 10.143520 0.329856 11697996
10.817010 10.500199 1.372068 11697996
9.491116 8.796469 1.576553 11697996
9.331430 9.925725 3.448807 11697996
10.705647 10.525961 2.112862 11697996
10.880484 8.852067 2.297079 11697996
9.048486 8.866781 3.401906 11697996
10.210038 10.744413 0.417423 11697996
11.118629 10.917935 3.497517 11697996
10.654610 10.441853 3.047948 11697996
9.331388 9.986515 3.406473 11697996
10.377401 11.057268 0.771676 11697996
10.081563 9.367741 0.852201 11697996
10.540012 10.356295 1.694624 11697996
10.028790 10.195750 3.371043 11697996
9.600378 9.999483 2.733397 11697996
10.503759 9.170861 1.227295 11697996
9.960511 9.601602 1.760930 11697996
10.766120 10.230865 1.753517 11697996
10.689376 11.032398 0.914468 11697996
11.079723 9.843577 2.109191 11697996
10.478913 10.136950 1.533207 11697996
11.061017 9.295808 3.891920 11697996
9.175339 9.728559 2.568929 11697996
10.538082 10.295786 2.324316 11697996
9.558657 10.818787 1.704430 11697996
10.504649 9.501286 3.965076 11697996
10.293041 10.342822 1.579646 11697996
9.322005 9.765356 0.313931 11697996
9.003869 10.649807 2.495643 11697996
11.020675 11.034195 2.976604 11697996
9.281036 9.511448 0.111578 11697996
9.415438 10.476759 2.577252 11697996
9.241464 10.063134 -0.017955 11697996
10.374760 9.618631 0.278225 11697996
9.926229 11.032827 1.124176 11697996
10.090406 9.887105 0.990619 11697996
9.976311 9.868219 1.804092 11697996
8.941648 9.041445 0.510363 11697996
10.191094 10.374263 3.626983 11697996
10.828019 10.449523 1.534486 11697996
9.287359 10.520198 3.025009 11697996
8.954781 9.293228 3.959911 11697996
9.261186 9.351297 3.740321 11697996
10.515474 10.308800 0.150047 11697996
11.175630 11.048128 2.764156 11697996
10.137287 10.416975 4.004915 11697996
9.034248 11.045029 2.459468 11697996
9.982543 10.578049 1.076739 11697996
10.734775 10.406956 0.965572 11697996
10.293023 9.865671 1.925625 11697996
9.230377 9.851193 3.106509 11697996
10.853344 10.003135 1.284810 11697996
11.248218 8.846330 0.159666 11697996
9.282146 9.572750 1.906919 11697996
9.427092 10.225762 3.915215 11697996
10.618611 10.952600 2.739927 11697996
9.777976 9.417582 2.252942 11697996
11.205885 10.710386 1.658986 11697996
9.111485 10.785382 0.274149 11697996
9.641899 9.703453 0.178161 11697996
9.719366 9.019001 2.254491 11697996
9.858915 11.045771 3.545871 11697996
10.619591 9.141953 3.462175 11697996
9.459208 10.155506 1.870103 11697996
9.641986 9.857615 3.419713 11697996
10.201274 9.584596 3.206003 11697996
10.858921 8.800796 0.643325 11697996
10.185341 9.783608 1.633677 11697996
9.453724 9.019736 3.393053 11697996
10.109587 10.842074 2.306730 11697996
10.153016 9.891712 3.392411 11697996
9.795404 9.095241 3.023424 11697996
11.171640 9.559683 1.180482 11697996
9.188700 9.629901 2.704474 11697996
9.136163 10.061442 1.829710 11697996
11.025419 10.299905 3.431909 11697996
9.059069 9.572345 0.204130 11697996
10.630677 9.793407 1.392666 11697996
10.982152 10.144392 0.073911 11697996
10.456718 10.184381 2.270181 11697996
10.438313 10.571329 2.566437 11697996
10.942296 9.781100 3.758684 11697996
9.423358 10.707561 3.112727 11697996
8.801842 9.772941 3.753864 11697996
10.426261 9.068942 0.448837 11697996
8.910757 9.610672 0.114380 11697996
10.949107 9.912371 1.923491 11697996
10.430243 10.314321 1.420568 11697996
9.009007 9.199525 1.528892 11697996
11.063712 8.965568 1.390909 11697996
9.229184 10.475471 1.186644 11697996
9.530307 11.026071 0.758884 11697996
10.650944 11.005230 2.843746 11697996
11.139060 10.751137 0.159507 11697996
9.129445 8.860763 0.255189 11697996
9.908279 10.019512 3.861108 11697996
10.429016 9.522203 2.689368 11697996
11.044437 10.890890 2.943409 11697996
10.005593 10.750919 0.071202 11697996
10.275290 9.057987 0.292153 11697996
10.391988 10.944444 0.978324 11697996
8.784897 9.416413 0.775486 11697996
9.336183 11.070882 1.224826 11697996
10.745657 9.034729 1.540980 11697996
9.993665 10.624751 0.391616 11697996
10.710343 9.857033 1.707745 11697996
10.232089 10.075088 3.927735 11697996
10.609461 9.417603 3.092892 11697996
10.124939 11.160063 0.261496 11697996
9.003706 9.884474 1.726213 11697996
9.559701 10.125544 3.801975 11697996
9.752051 10.786525 1.250121 11697996
11.043084 11.007994 0.460832 11697996
10.267902 9.202170 2.143801 11697996
8.747037 9.116563 1.871166 11697996
8.769538 9.221950 1.245827 11697996
8.822100 9.551596 2.064959 11697996
9.366497 10.847136 1.821870 11697996
9.014960 10.289347 2.114861 11697996
8.994725 10.671078 1.971792 11697996
9.152156 10.560316 0.310911 11697996
10.108437 11.182566 2.705885 11697996
9.312599 10.178807 3.491393 11697996
11.074740 10.557141 2.641253 11697996
10.692499 9.783772 0.664180 11697996
9.626823 9.004513 2.027932 11697996
10.355608 10.320569 3.002478 11697996
10.193417 9.215020 1.885123 11697996
11.208441 9.835596 2.014253 11697996
11.086101 9.222028 2.222451 11697996
9.947977 11.040089 1.747912 11697996
11.186471 9.503755 1.488040 11697996
9.979223 9.175678 1.369041 11697996
10.672723 10.549518 3.151008 11697996
11.097926 11.128760 3.790915 11697996
9.974122 9.165123 3.661120 11697996
11.196299 11.153786 0.596641 11697996
9.173375 9.244893 3.875064 11697996
10.810639 10.267411 2.583915 11697996
10.145396 10.176252 0.335363 11697996
9.831271 10.222190 0.587520 11697996
10.355998 8.732005 0.300909 11697996
10.456121 9.625025 2.661425 11697996
9.453104 9.142511 2.350228 11697996
8.769233 10.490748 3.909278 11697996
10.879731 10.097220 2.880886 11697996
10.570629 11.034595 3.487240 11697996
9.082662 9.750404 3.622411 11697996
8.808633 9.464392 0.849582 11697996
9.335584 10.843801 2.074388 11697996
10.187572 9.483068 2.919822 11697996
9.635254 9.833795 0.657690 11697996
11.046469 9.803586 2.109948 11697996
10.105235 10.326403 2.276776 11697996
10.773326 11.124825 1.840360 11697996
10.180970 9.685347 3.220343 11697996
8.803863 9.228196 0.236140 11697996
10.761578 9.778166 3.122169 11697996
11.195239 8.792205 0.995856 11697996
9.710078 10.489906 2.725869 11697996
10.936146 10.529384 1.867221 11697996
9.808251 10.816671 3.957401 11697996
10.677377 10.441041 0.111611 11697996
11.053458 8.978656 1.035815 11697996
10.224012 9.179807 0.956395 11697996
10.229272 11.162316 2.425311 11697996
9.506996 11.016912 0.756168 11697996
9.573352 10.631160 0.761534 11697996
9.018979 8.975459 1.439891 11697996
10.714427 9.782240 2.748747 11697996
10.419323 10.020678 2.190149 11697996
10.560752 8.833633 2.509283 11697996
9.024699 11.171895 1.085371 11697996
9.608747 10.141658 3.537178 11697996
9.652013 10.941172 2.871101 11697996
10.588887 9.155149 0.974088 11697996
8.828306 9.163298 1.163434 11697996
11.101295 10.659349 1.706984 11697996
8.919777 9.647371 3.327106 11697996
10.679430 9.130838 2.195330 11697996
10.691325 9.876282 3.824341 11697996
8.889384 9.393348 1.896496 11697996
9.975057 9.256923 1.366792 11697996
10.594240 9.930319 0.778338 11697996
9.528092 10.824393 3.162384 11697996
9.210481 9.568544 3.056172 11697996
10.145817 9.455158 2.875617 11697996
11.213997 9.858416 0.527820 11697996
10.856520 9.462925 0.485588 11697996
9.997477 11.189660 0.798920 11697996
9.621531 9.340570 0.588729 11697996
9.486144 9.596705 3.592902 11697996
9.740458 9.368614 3.481550 11697996
9.889061 10.002884 3.140052 11697996
9.234269 9.783605 2.401247 11697996
9.597688 9.353413 1.788908 11697996
8.804211 9.985112 0.826978 11697996
10.821373 10.562337 0.093420 11697996
8.883733 10.706251 0.349364 11697996
11.098785 11.185755 3.630368 11697996
10.411118 9.269046 1.213305 11697996
10.337219 8.859424 3.461329 11697996
11.180375 11.267825 3.788872 11697996
10.983252 9.772066 1.156087 11697996
11.060443 9.312916 2.878362 11697996
10.025838 10.879234 3.834349 11697996
9.954147 9.922416 2.965708 11697996
10.630878 11.040070 1.472831 11697996
9.907363 10.880289 0.942434 11697996
9.804120 9.634487 2.275281 11697996
10.735664 9.305354 3.239348 11697996
9.460622 9.690691 0.265146 11697996
10.513781 9.105188 2.411212 11697996
8.854967 9.326008 1.311976 11697996
10.540747 9.550059 3.644798 11697996
11.093743 9.101390 1.238192 11697996
10.338297 8.813398 1.704017 11697996
10.918061 10.699336 2.704233 11697996
9.599627 8.988986 1.284678 11697996
8.785932 9.697233 0.368056 11697996
8.845318 9.086482 3.097689 11697996
10.564956 10.711075 2.065685 11697996
10.467681 9.859227 1.355606 11697996
10.380580 8.974606 3.741307 11697996
10.313657 10.715475 2.354729 11697996
10.984036 8.828999 0.203784 11697996
9.030428 9.516226 2.721958 11697996
10.497653 9.756404 2.942986 11697996
10.767107 10.249215 3.134178 11697996
10.420557 8.989959 1.436968 11697996
10.109820 9.652285 2.015144 11697996
9.533543 11.042287 1.933841 11697996
9.757180 9.472748 1.390004 11697996
9.308640 10.531406 3.829279 11697996
10.917939 9.618546 0.695999 11697996
9.794467 10.566253 2.626328 11697996
8.828218 9.839398 1.598559 11697996
10.278892 10.273935 3.726163 11697996
8.761065 9.750889 1.649315 11697996
9.393641 10.187365 1.837510 11697996
9.453123 9.551433 0.052256 11697996
9.876397 10.163593 1.842953 11697996
9.461640 8.768557 2.167185 11697996
9.444327 10.119148 0.434402 11697996
9.317957 8.804077 3.963920 11697996
8.947429 10.355843 2.355626 11697996
9.609006 10.059559 1.686532 11697996
9.271638 9.907105 0.909835 11697996
10.754269 10.817880 1.385056 11697996
11.175465 9.879428 3.215229 11697996
10.552380 10.238438 1.247386 11697996
8.937190 10.627899 3.720489 11697996
10.536500 10.224609 2.753516 11697996
9.684808 9.296734 3.527559 11697996
10.951633 11.128930 0.942986 11697996
10.437762 10.648763 2.611382 11697996
10.181970 10.666683 1.216223 11697996
10.514528 9.444900 2.204334 11697996
9.869731 9.346977 0.030927 11697996
9.574156 10.704745 0.598313 11697996
10.348936 9.253697 0.256526 11697996
9.009886 10.761879 0.472578 11697996
10.386866 10.934958 2.033875 11697996
10.060617 9.051641 2.667044 11697996
10.206914 9.210223 3.797264 11697996
10.831680 9.837394 2.886526 11697996
10.335296 11.130872 1.092678 11697996
10.963439 9.081519 0.526465 11697996
11.109235 10.025183 1.416818 11697996
9.385834 10.219941 3.537825 11697996
9.064160 8.787513 1.295686 11697996
10.359999 10.545632 1.344389 11697996
8.934852 8.920127 3.283810 11697996
10.259961 9.152312 3.903550 11697996
9.120656 10.335824 2.619892 11697996
9.239159 9.814033 0.664911 11697996
9.863168 11.069271 3.323397 11697996
8.974730 10.286490 3.252933 11697996
8.822822 11.252176 2.893861 11697996
9.359846 10.300094 3.579691 11697996
11.155402 11.192959 0.505799 11697996
8.964648 9.249540 0.656170 11697996
10.233579 8.984118 3.660462 11697996
10.421337 11.099733 0.572088 11697996
8.760808 9.815771 3.657780 11697996
10.122518 10.351221 3.571559 11697996
9.572903 10.221890 1.110467 11697996
9.718461 8.771660 3.131906 11697996
10.024315 9.516549 3.107520 11697996
10.527781 9.814013 2.841724 11697996
9.326569 8.998160 1.037916 11697996
10.784710 11.059087 1.595243 11697996
9.943020 9.327036 3.095331 11697996
10.335785 9.419999 1.340583 11697996
10.393372 10.924782 3.322890 11697996
8.844370 9.680864 1.902150 11697996
9.233397 10.814441 3.032591 11697996
9.414158 10.774926 1.304814 11697996
9.298606 9.893969 2.374569 11697996
11.106174 9.012857 0.157593 11697996
10.086842 8.978984 1.869092 11697996
10.681449 9.907315 1.105895 11697996
10.313661 10.177683 0.632783 11697996
10.950659 9.683957 3.099430 11697996
8.878860 10.630081 1.578442 11697996
10.228298 9.632334 3.029074 11697996
9.018579 10.493984 3.398305 11697996
10.247928 10.467846 0.001592 11697996
9.076900 10.371047 2.125409 11697996
9.817780 10.470270 1.627328 11697996
10.056417 9.865559 1.466411 11697996
10.850803 9.902640 1.304456 11697996
9.491350 8.945896 1.807067 11697996
10.597307 9.196447 2.168177 11697996
11.212662 10.328057 3.113505 11697996
11.225337 9.375238 3.505141 11697996
9.931486 9.066886 1.586225 11697996
10.918941 9.820769 1.136164 11697996
11.239239 10.100790 0.409936 11697996
9.900792 8.757130 2.259909 11697996
10.040744 9.498280 2.365900 11697996
9.983584 10.765804 1.725666 11697996
9.908054 9.970940 2.872590 11697996
9.927839 10.683463 3.804611 11697996
10.682284 9.343586 2.492213 11697996
9.459688 8.948294 0.263134 11697996
9.341915 8.869490 0.463282 11697996
9.077496 10.609223 3.253409 11697996
8.922910 9.550975 3.327541 11697996
10.133363 10.970537 0.129833 11697996
8.781763 10.504469 3.784226 11697996
10.324679 8.826236 3.565089 11697996
9.302254 10.592729 1.819569 11697996
9.439367 10.895089 1.906025 11697996
8.924773 9.903473 0.178882 11697996
10.419837 9.468423 2.739489 11697996
10.491758 9.646329 3.269423 11697996
10.277127 9.773435 0.835146 11697996
9.287296 10.123048 0.230853 11697996
8.823308 10.300730 0.950483 11697996
10.465305 11.238363 3.558317 11697996
9.033217 8.949269 2.903347 11697996
9.556117 10.383873 3.702260 11697996
8.772809 10.057351 2.460049 11697996
10.778130 10.605756 3.401310 11697996
11.050188 11.244246 3.638514 11697996
10.486004 8.830243 0.964940 11697996
8.953079 10.324969 0.045066 11697996
9.101285 9.444840 0.706675 11697996
9.265709 8.944903 0.319729 11697996
9.583232 9.153510 0.240351 11697996
10.856078 10.310938 1.688290 11697996
9.835925 10.230899 3.614156 11697996
9.131717 9.795523 1.779479 11697996
9.898183 9.432046 1.233991 11697996
9.343507 9.176355 1.508731 11697996
10.180622 10.490797 3.052382 11697996
10.097745 9.923918 0.766173 11697996
11.057211 9.091683 1.688403 11697996
8.769359 10.489218 0.243971 11697996
10.411215 11.124746 2.033882 11697996
9.911196 9.538373 1.715401 11697996
11.228319 10.154046 0.791490 11697996
9.818390 9.177247 1.802892 11697996
9.740891 9.652768 2.912075 11697996
10.768705 9.467019 3.016479 11697996
10.584310 8.780232 2.900500 11697996
10.580698 10.544921 2.345186 11697996
9.355300 9.821796 3.234336 11697996
10.374296 10.662046 2.625136 11697996
10.364224 10.565798 2.552882 11697996
8.760248 8.862333 0.488109 11697996
10.175921 9.002876 2.631177 11697996
9.920874 10.288871 2.058421 11697996
9.789659 11.160527 2.446406 11697996
8.755159 9.439166 -0.003230 11697996
10.629432 9.456309 0.335653 11697996
-9.802954 -10.473166 0.708293 6730418
-10.254937 -10.949303 1.079211 6730418
-10.584319 -9.855663 2.161597 6730418
-10.414184 -9.417956 0.342469 6730418
-9.662881 -9.590993 1.808377 6730418
-9.901238 -9.367772 2.429322 6730418
-10.009874 -10.275098 2.927647 6730418
-9.663737 -9.384174 0.197294 6730418
-9.593579 -9.693606 2.402247 6730418
-9.414166 -10.326512 0.282979 6730418
-10.732847 -9.743084 1.207393 6730418
-9.442042 -10.356277 1.968095 6730418
-9.642982 -10.826705 2.880490 6730418
-10.250791 -10.148006 1.452176 6730418
-9.505921 -10.141455 0.792518 6730418
-9.303991 -10.574156 1.769800 6730418
-10.478287 -9.784227 0.160842 6730418
-9.337842 -10.728779 1.811664 6730418
-9.601853 -10.759815 1.304018 6730418
-9.845232 -10.471496 1.580192 6730418
-9.377518 -10.545250 1.765395 6730418
-9.788048 -9.231272 1.233401 6730418
-9.813893 -9.028959 2.115531 6730418
-9.741435 -10.778301 0.118006 6730418
-10.301287 -10.059876 0.330787 6730418
-10.107660 -9.705794 0.846648 6730418
-10.279265 -10.527437 0.454782 6730418
-9.908545 -9.609626 0.901678 6730418
-10.400373 -10.455906 0.951581 6730418
-9.606648 -10.431858 2.087648 6730418
-10.217068 -10.634335 2.025474 6730418
-9.443834 -9.317850 2.828480 6730418
-9.997221 -10.886169 1.244841 6730418
-10.824770 -9.433112 1.714866 6730418
-9.617034 -9.394762 2.117980 6730418
-10.481910 -9.811214 0.353459 6730418
-9.897134 -9.760371 1.188562 6730418
-9.568418 -10.549848 1.021584 6730418
-9.755152 -10.735118 1.893595 6730418
-9.361887 -9.458503 1.094177 6730418
-9.109384 -10.321595 0.466946 6730418
-9.926214 -10.781357 0.234578 6730418
-10.013547 -9.149715 2.579512 6730418
-9.548325 -10.188921 2.723956 6730418
-9.909072 -9.396574 2.497972 6730418
-10.343628 -9.811622 1.841553 6730418
-9.805221 -10.364362 0.820277 6730418
-9.407839 -9.422122 1.214479 6730418
-10.539929 -10.442562 1.862851 6730418
-9.461658 -9.441360 2.338284 6730418
-10.789329 -10.296499 2.736325 6730418
-9.303990 -9.876660 2.700268 6730418
-10.618232 -10.014530 1.927537 6730418
-9.903769 -10.162134 1.144819 6730418
-10.387861 -10.493473 2.560198 6730418
-9.932030 -10.452191 0.735436 6730418
-9.819702 -9.809989 1.409006 6730418
-9.508348 -10.255193 2.589658 6730418
-9.801972 -9.317760 1.810828 6730418
-9.767331 -10.537698 2.931021 6730418
-10.287987 -10.223089 1.295342 6730418
-9.126880 -9.743246 1.240963 6730418
-9.348224 -9.996037 2.100852 6730418
-10.227412 -9.087740 2.064065 6730418
-9.322930 -9.711769 2.708454 6730418
-10.202340 -9.341523 1.056569 6730418
-9.642445 -9.621034 1.172796 6730418
-10.063237 -9.047731 1.162841 6730418
-9.773349 -9.891912 0.939211 6730418
-10.598710 -10.606868 0.614178 6730418
-9.164424 -10.587055 0.734065 6730418
-10.046822 -10.898488 1.829375 6730418
-9.976972 -9.589499 2.850836 6730418
-9.682544 -10.096801 0.332440 6730418
-9.971860 -10.076518 1.488073 6730418
-9.507584 -9.332094 1.910077 6730418
-9.163221 -9.556340 1.159267 6730418
-10.031429 -9.163193 0.081802 6730418
-9.582994 -9.900006 0.736138 6730418
-9.807744 -9.902188 2.312579 6730418
-9.344172 -10.709718 1.967823 6730418
-10.473097 -9.462182 1.223723 6730418
-10.370296 -9.676020 2.664478 6730418
-9.183020 -9.966027 2.762189 6730418
-9.417601 -10.358515 0.125787 6730418
-10.240421 -9.449630 1.603409 6730418
-10.757668 -9.829054 1.459775 6730418
-10.188032 -9.806057 2.182608 6730418
-10.493896 -9.429025 1.210446 6730418
-9.980971 -9.388712 0.587346 6730418
-10.842125 -10.194836 2.638796 6730418
-9.934400 -9.710005 2.322043 6730418
-10.802456 -9.856076 1.497100 6730418
-10.714420 -9.758205 0.839044 6730418
-9.692549 -10.534115 2.709354 6730418
-10.693564 -10.591891 1.427001 6730418
-10.068314 -10.341511 1.560469 6730418
-9.751486 -10.958326 0.362965 6730418
-10.033278 -10.343249 1.143752 6730418
-9.438251 -10.264803 1.130033 6730418
-9.621970 -10.248355 2.200839 6730418
-9.092291 -9.859494 0.362162 6730418
-10.623739 -10.140686 0.452669 6730418
-9.506620 -10.516277 1.514771 6730418
-9.768390 -10.370803 1.987147 6730418
-9.972210 -10.249237 2.818874 6730418
-10.017714 -10.230726 2.381951 6730418
-9.426264 -9.586832 0.751729 6730418
-9.490008 -9.898825 2.661369 6730418
-9.742275 -10.502110 2.086056 6730418
-9.431722 -10.242945 0.559167 6730418
-9.035725 -10.298315 1.082559 6730418
-9.788185 -9.077734 0.912786 6730418
-9.203176 -10.428097 2.460555 6730418
-9.695400 -9.753206 2.765059 6730418
-9.117381 -10.292727 0.137136 6730418
-9.612865 -10.410847 1.006146 6730418
-10.389387 -10.479041 2.315252 6730418
-9.638519 -9.085583 1.864568 6730418
-9.285030 -10.133882 1.560794 6730418
-9.138706 -9.574115 1.738921 6730418
-9.348467 -9.536050 2.254178 6730418
-10.339302 -10.652003 0.662070 6730418
-9.260509 -10.370021 0.999679 6730418
-9.246381 -9.457472 0.326444 6730418
-9.303584 -10.031548 1.364006 6730418
-9.199635 -10.192758 1.833171 6730418
-10.373031 -9.320271 0.722284 6730418
-10.886559 -10.098281 2.208857 6730418
-9.892276 -9.407151 2.647027 6730418
-10.834269 -9.547821 1.609021 6730418
-9.232939 -10.244675 1.987288 6730418
-9.504657 -10.835117 2.815316 6730418
-9.401594 -10.447587 2.763458 6730418
-10.483773 -10.361880 2.152781 6730418
-9.981971 -10.558245 1.550947 6730418
-9.550925 -9.166049 2.710920 6730418
-9.972438 -10.486819 2.525430 6730418
-10.905767 -10.314890 1.749477 6730418
-10.284785 -9.495786 1.490453 6730418
-9.607273 -10.657834 2.449758 6730418
-9.419762 -9.978286 1.824997 6730418
-9.911833 -10.197845 0.056782 6730418
-10.602810 -10.358733 0.255054 6730418
-9.213943 -10.030011 0.022518 6730418
-10.783472 -10.293637 0.300524 6730418
-9.462734 -9.742195 1.831910 6730418
-10.528465 -9.826646 0.908052 6730418
-9.472473 -10.016738 1.501094 6730418
-9.881608 -10.329687 0.967092 6730418
-9.800585 -10.936281 0.077697 6730418
-9.978935 -9.544974 2.238567 6730418
-9.739715 -10.077398 2.047845 6730418
-9.122110 -10.460588 2.742045 6730418
-10.165955 -9.968158 2.016475 6730418
-10.371738 -9.919326 2.508387 6730418
-9.684303 -10.191833 2.509387 6730418
-10.163605 -9.947351 2.547698 6730418
-9.209320 -10.423592 1.141591 6730418
-10.323397 -10.758370 2.796128 6730418
-10.038247 -9.627758 2.819802 6730418
-9.246358 -10.654648 0.793409 6730418
-10.223726 -9.446383 1.215859 6730418
-10.027797 -9.236816 1.025442 6730418
-10.327509 -9.206574 2.739657 6730418
-9.373756 -10.548378 0.683790 6730418
-10.789943 -10.035251 0.963092 6730418
-9.919140 -10.668470 0.061284 6730418
-9.287817 -9.936974 1.821366 6730418
-9.353472 -9.244916 1.599059 6730418
-10.892285 -9.565067 0.611642 6730418
-9.526656 -9.867600 1.167483 6730418
-10.150120 -9.960258 1.353772 6730418
-10.082524 -9.917084 1.542262 6730418
-10.238869 -10.131863 2.128677 6730418
-9.609982 -9.417829 1.112004 6730418
-10.429890 -9.719329 0.896874 6730418
-10.327923 -9.416320 1.688465 6730418
-10.429470 -10.526214 2.940786 6730418
-10.271448 -10.962070 2.915887 6730418
-9.943180 -10.825496 2.298762 6730418
-9.896063 -9.537882 1.192652 6730418
-9.887032 -9.863821 2.553220 6730418
-9.554766 -9.384565 1.137834 6730418
-10.528934 -10.293309 0.997819 6730418
-9.816781 -9.945187 1.107709 6730418
-9.808527 -10.322269 2.105145 6730418
-9.629801 -9.596596 2.263797 6730418
-9.631863 -10.615883 2.327566 6730418
-9.822149 -9.181389 2.023069 6730418
-10.463073 -10.400920 0.615436 6730418
-10.009800 -10.954969 1.998153 6730418
-9.234513 -10.127232 0.080092 6730418
-10.402855 -9.458865 2.944803 6730418
-9.231090 -9.460344 2.274235 6730418
-10.143634 -9.228121 0.134596 6730418
-9.862170 -9.172129 2.223096 6730418
-9.063651 -9.827662 1.494776 6730418
-10.230262 -10.493189 0.412047 6730418
-9.723237 -9.100047 1.452127 6730418
-9.189463 -9.690654 1.673716 6730418
-9.244462 -9.540557 0.828589 6730418
-9.463210 -10.117021 0.686408 6730418
-9.429523 -10.367623 2.603102 6730418
-10.780355 -10.010425 0.459035 6730418
-10.710261 -9.863142 1.917605 6730418
-9.054050 -9.650962 0.682407 6730418
-9.795598 -9.669863 1.551555 6730418
-10.362994 -10.485744 1.520937 6730418
-9.232845 -9.458976 1.102214 6730418
-10.217724 -9.217478 2.312457 6730418
-10.798278 -9.618808 0.917061 6730418
-9.239744 -9.674499 0.487946 6730418
-9.667568 -9.778836 2.995924 6730418
-10.796597 -10.220532 2.379541 6730418
-9.242400 -9.837888 0.056128 6730418
-10.024884 -9.175356 2.156499 6730418
-9.732213 -10.267677 2.755057 6730418
-10.211025 -10.829126 1.873460 6730418
-9.470752 -10.084155 1.052623 6730418
-10.200837 -10.295473 1.187321 6730418
-10.171660 -9.801804 2.533256 6730418
-10.886309 -9.942641 1.771858 6730418
-9.255148 -9.589343 1.976229 6730418
-9.250995 -9.500702 1.991973 6730418
-9.891170 -10.201625 2.640805 6730418
-10.776824 -10.481535 2.478371 6730418
-9.333888 -10.384022 1.737796 6730418
-10.415405 -9.710055 1.205742 6730418
-10.184161 -10.155260 2.943487 6730418
-9.623218 -9.298718 1.746405 6730418
-9.449434 -10.828249 1.424700 6730418
-9.748569 -10.360513 0.606487 6730418
-9.592793 -10.283898 1.389568 6730418
-9.339991 -10.123969 1.229507 6730418
-9.356573 -9.261271 0.276231 6730418
-10.182405 -10.678113 0.945514 6730418
-10.517100 -10.500617 1.469743 6730418
-10.466286 -10.511434 2.465421 6730418
-10.567494 -9.957200 0.893878 6730418
-9.621110 -10.922594 1.936024 6730418
-9.224038 -10.471708 1.849448 6730418
-10.428518 -9.767857 2.664741 6730418
-10.362831 -10.146148 0.498923 6730418
-9.778497 -10.664779 2.626607 6730418
-10.909853 -10.063322 2.572684 6730418
-9.511488 -9.140548 0.822632 6730418
-10.044893 -10.334012 0.658985 6730418
-10.267467 -9.886824 0.374397 6730418
-9.959260 -9.884749 0.697222 6730418
-9.381974 -10.566432 0.680335 6730418
-10.703816 -10.173075 2.571977 6730418
-9.480189 -9.221990 2.969869 6730418
-9.956158 -9.426746 2.274607 6730418
-10.812465 -9.507143 2.549566 6730418
-9.989468 -10.447390 2.570003 6730418
-10.529637 -10.508589 2.389317 6730418
-9.524271 -9.843836 2.259143 6730418
-10.795761 -10.440907 0.620039 6730418
-10.549598 -9.232264 0.288423 6730418
-9.717259 -9.227750 1.748854 6730418
-9.258765 -9.967153 0.987030 6730418
-10.136200 -10.401945 2.353722 6730418
-10.811396 -10.170979 1.664250 6730418
-9.986369 -9.433972 1.351885 6730418
-9.218945 -10.177691 1.269597 6730418
-9.769723 -10.553786 0.335219 6730418
-10.103095 -10.288789 1.537348 6730418
-10.817739 -10.020233 1.555579 6730418
-10.017687 -10.594293 0.122228 6730418
-10.713643 -9.798358 2.611650 6730418
-9.164208 -10.125784 2.665946 6730418
-9.793040 -10.291360 2.660254 6730418
-10.911746 -10.240017 2.595903 6730418
-10.498584 -9.178700 0.921580 6730418
-10.029178 -9.508945 2.402138 6730418
-9.475266 -10.476633 0.857833 6730418
-10.590224 -9.197885 2.234758 6730418
-10.132336 -10.231958 1.156445 6730418
-9.497237 -9.187996 2.033442 6730418
-9.372878 -9.649557 2.137612 6730418
-9.999164 -9.890291 2.383864 6730418
-10.301515 -9.314508 0.047926 6730418
-10.126569 -9.516939 1.564935 6730418
-10.694089 -10.577274 1.036132 6730418
-10.639443 -9.854874 1.906531 6730418
-9.081350 -9.951558 1.887917 6730418
-9.385386 -9.792638 1.232636 6730418
-9.825076 -9.164809 1.346438 6730418
-9.842151 -9.149568 0.084335 6730418
-9.064744 -9.945079 0.059864 6730418
-9.361068 -10.674868 0.544847 6730418
-10.622051 -9.831858 0.448736 6730418
-10.510664 -10.177567 2.560717 6730418
-9.667903 -10.271260 1.085816 6730418
-9.473183 -9.443774 0.573412 6730418
-9.486172 -10.799809 1.601995 6730418
-9.961626 -9.532098 0.262253 6730418
-10.710324 -10.006300 1.285790 6730418
-9.833163 -10.639491 0.663739 6730418
-9.198495 -9.514752 0.766623 6730418
-9.643793 -9.448150 2.165867 6730418
-9.837061 -10.892982 0.185246 6730418
-10.143076 -9.242188 2.411350 6730418
-10.380985 -9.493987 1.053092 6730418
-10.690623 -10.280273 1.966915 6730418
-10.941556 -10.391441 2.211752 6730418
-10.325741 -10.583483 1.119918 6730418
-10.098173 -10.708507 0.994934 6730418
-9.700959 -9.781020 1.479791 6730418
-10.585264 -10.334471 1.241181 6730418
-10.586982 -10.801821 2.150300 6730418
-10.917749 -10.207337 2.572754 6730418
-10.760346 -10.491398 2.223236 6730418
-10.096968 -9.360910 1.203014 6730418
-9.510684 -10.301251 0.553541 6730418
-10.140599 -10.684354 0.692635 6730418
-9.395336 -10.732014 0.089049 6730418
-9.477977 -9.455141 1.574184 6730418
-10.519913 -9.364417 1.567728 6730418
-10.502892 -10.555182 2.100893 6730418
-10.114641 -9.641007 2.014977 6730418
-10.807783 -9.594675 0.652327 6730418
-10.496983 -9.982927 2.852427 6730418
-10.871700 -9.895337 2.948315 6730418
-9.734353 -9.741332 1.104305 6730418
-10.927422 -9.692523 0.183359 6730418
-9.893169 -9.749307 2.548994 6730418
-9.481752 -9.261750 2.606863 6730418
-9.259778 -9.370621 0.300842 6730418
-9.892835 -9.679498 2.401028 6730418
