# .PCD v0.7 - Point Cloud Data file format
VERSION 0.7
FIELDS x y z rgb
SIZE 4 4 4 4
TYPE F F F U
COUNT 1 1 1 1
WIDTH 1291
HEIGHT 1
VIEWPOINT 0 0 0 1 0 0 0
POINTS 1291
DATA ascii
9.609967 10.250443 3.511213 11697996
9.732970 9.407069 3.166924 11697996
10.326824 9.630932 0.923721 11697996
10.149864 9.691917 3.084748 11697996
9.050636 9.779853 1.523250 11697996
9.557051 8.922207 1.841885 11697996
10.240705 9.607240 2.377516 11697996
10.600834 10.337868 3.409291 11697996
11.034899 10.115994 0.238971 11697996
10.213286 8.770006 1.864778 11697996
10.758739 11.043170 1.128150 11697996
9.927995 9.293504 0.321688 11697996
9.096635 8.785331 0.414855 11697996
9.619340 10.109114 1.081426 11697996
11.146199 10.915781 2.071131 11697996
9.772613 10.348286 3.619247 11697996
9.814018 9.647820 3.596736 11697996
10.393161 9.549645 1.022563 11697996
8.773236 10.542485 3.545877 11697996
10.438267 10.214095 3.862030 11697996
10.074540 9.877683 0.336788 11697996
9.055522 9.497958 2.972099 11697996
9.761553 9.572946 2.307186 11697996
9.854012 10.289520 2.140197 11697996
10.210660 9.203980 1.104029 11697996
11.096400 9.183320 0.605469 11697996
10.609736 9.764644 1.616479 11697996
10.799207 11.182728 1.046292 11697996
9.910016 10.179406 3.687601 11697996
10.169284 10.865600 1.447806 11697996
9.592223 8.917481 3.411841 11697996
9.712349 10.838531 3.030087 11697996
9.340116 10.016138 3.951834 11697996
10.816526 9.690533 1.421998 11697996
10.487544 10.409536 3.650864 11697996
9.433719 10.244982 0.882912 11697996
10.008487 9.057789 3.080189 11697996
10.680313 9.076569 1.796875 11697996
9.375035 10.960017 2.291100 11697996
10.867481 11.019258 0.556528 11697996
9.435086 9.630682 3.036934 11697996
9.028465 9.395193 2.333795 11697996
10.115028 9.004669 3.684582 11697996
9.072381 10.810427 1.631592 11697996
10.929004 9.985698 1.458060 11697996
9.200423 9.140392 2.069921 11697996
11.229878 9.305045 2.097091 11697996
9.111929 11.184484 1.259755 11697996
10.139441 9.964994 1.617133 11697996
9.144958 10.470347 1.249807 11697996
8.831450 9.433867 3.023477 11697996
10.810493 11.080909 2.382412 11697996
10.487898 10.927221 1.068747 11697996
9.163681 8.990355 3.929426 11697996
11.225517 8.819370 3.036517 11697996
9.112604 9.598182 1.986575 11697996
9.186556 9.968896 1.330995 11697996
9.895737 8.925508 1.629855 11697996
10.660756 10.841187 1.255497 11697996
9.100721 10.394978 1.148029 11697996
9.252872 8.764990 2.796099 11697996
10.915606 10.231345 1.282605 11697996
9.795972 9.831637 3.091922 11697996
10.302626 8.839490 0.837640 11697996
9.624346 11.051279 0.203672 11697996
10.858979 9.606308 2.465670 11697996
8.758402 10.860517 2.785513 11697996
9.282545 10.832737 2.607813 11697996
10.163479 9.500795 0.601466 11697996
9.650805 9.744707 2.345172 11697996
8.887309 8.908669 1.678474 11697996
9.656131 9.066388 1.978229 11697996
9.116530 9.378119 2.724432 11697996
9.360504 8.871753 1.412159 11697996
9.504210 8.795151 2.749713 11697996
9.645127 9.028831 2.113038 11697996
10.999047 10.345633 3.510149 11697996
9.971879 10.172179 0.494038 11697996
10.503277 10.951230 0.721894 11697996
9.971082 10.680122 1.107815 11697996
9.123821 9.584050 3.814133 11697996
8.832299 9.134804 3.348564 11697996
8.925758 8.795743 0.547765 11697996
11.067686 10.440084 2.073955 11697996
9.355193 8.747848 3.485918 11697996
10.558425 9.661493 2.058480 11697996
8.908982 11.087644 0.788915 11697996
8.809709 9.776721 3.934734 11697996
10.294744 9.652390 2.590499 11697996
10.077170 10.401333 3.382103 11697996
10.656662 10.553696 1.073216 11697996
10.540795 11.240693 0.676676 11697996
10.685141 8.941420 1.517327 11697996
10.961035 11.070616 3.306765 11697996
10.990899 10.850224 0.241458 11697996
11.151537 8.929717 0.610545 11697996
10.144791 11.060789 1.460457 11697996
8.792679 10.505728 0.757426 11697996
9.196218 8.803671 2.506930 11697996
8.993258 9.649217 0.834581 11697996
9.136939 10.876565 2.319924 11697996
9.127751 9.031446 1.521325 11697996
10.030440 9.156148 0.395268 11697996
9.827738 10.146873 1.481115 11697996
9.360329 10.376016 1.687558 11697996
11.144247 10.071927 2.766311 11697996
10.305731 9.586293 0.197333 11697996
9.364238 9.216021 0.203726 11697996
10.861580 10.737077 0.442183 11697996
11.050573 10.970935 3.466486 11697996
10.632653 9.514528 3.550879 11697996
10.553114 9.196000 3.973721 11697996
9.678366 10.487250 2.585012 11697996
10.414723 10.753179 0.956021 11697996
10.482263 9.707401 0.758011 11697996
10.841977 10.740255 0.801554 11697996
10.779071 9.705252 1.224083 11697996
10.226612 10.087327 0.845419 11697996
10.512233 9.675679 0.274709 11697996
9.017710 8.989666 3.135518 11697996
10.157189 10.813763 0.699107 11697996
9.866064 9.921321 1.924887 11697996
9.094036 11.220700 1.757226 11697996
8.755738 10.122325 2.780522 11697996
9.007830 11.213297 1.955663 11697996
9.986670 10.618736 3.838258 11697996
10.179178 9.193169 0.969391 11697996
10.411873 9.621941 1.771076 11697996
9.730239 9.072928 2.748013 11697996
10.595341 8.784038 3.757549 11697996
9.419274 10.098517 1.869789 11697996
8.901752 8.829160 0.367276 11697996
11.079155 10.708236 3.627017 11697996
9.919725 10.287821 2.321585 11697996
9.473032 10.943205 0.647399 11697996
9.236423 9.414103 1.435400 11697996
8.767240 10.388996 2.178043 11697996
9.520658 11.071383 3.400470 11697996
9.225833 9.658440 2.701545 11697996
10.745314 9.756690 1.802619 11697996
9.557623 10.811773 1.161767 11697996
11.179358 9.073228 1.303696 11697996
10.686565 9.240966 1.503434 11697996
9.812005 10.917430 2.182183 11697996
10.942008 8.810100 1.124728 11697996
10.175919 11.198709 2.098893 11697996
10.853416 9.987420 2.935889 11697996
10.265109 10.631261 3.580047 11697996
10.048602 10.415882 2.798551 11697996
8.839073 8.989722 3.165314 11697996
11.003321 10.554990 1.142997 11697996
9.666972 10.297731 3.915823 11697996
10.110697 9.644664 0.959148 11697996
10.281528 10.056106 2.921353 11697996
8.788420 10.143257 2.934707 11697996
10.839847 9.314069 1.655314 11697996
10.418589 9.610741 1.102306 11697996
9.088296 8.910904 2.767431 11697996
9.345228 8.952824 2.775124 11697996
10.099335 8.830849 1.244361 11697996
10.780032 9.291070 0.016447 11697996
10.075959 10.547737 3.289921 11697996
10.765817 10.036379 3.302107 11697996
9.877719 10.449984 2.030389 11697996
9.228078 9.273804 2.081577 11697996
8.949043 10.853847 3.885268 11697996
10.653289 9.591453 1.278413 11697996
9.245296 10.253275 1.275530 11697996
10.064949 10.795679 2.014450 11697996
11.087287 11.056963 1.232534 11697996
9.143991 10.386867 2.491327 11697996
9.602359 9.054895 1.780624 11697996
10.899329 9.514893 0.548885 11697996
9.611768 8.927227 2.816291 11697996
10.417343 11.229376 0.589178 11697996
11.124429 10.050662 1.911333 11697996
11.172318 9.727846 2.442419 11697996
10.574556 8.807206 1.217090 11697996
10.461722 11.037468 1.752484 11697996
11.210417 9.291511 0.387017 11697996
10.615640 10.643451 1.913256 11697996
9.721611 9.601735 1.413976 11697996
10.627587 9.745534 0.498904 11697996
10.728541 9.704503 0.219703 11697996
9.548977 11.209656 2.479420 11697996
9.560885 11.042783 2.368916 11697996
9.350074 8.781754 3.129377 11697996
10.846058 9.781942 1.072883 11697996
9.850685 10.589986 1.585011 11697996
9.927170 9.167464 3.303601 11697996
10.455564 10.949769 0.835972 11697996
8.737200 11.093884 0.094080 11697996
10.608789 8.946647 1.466496 11697996
10.557241 8.960230 2.453917 11697996
9.759756 9.308935 3.644253 11697996
11.056584 10.221757 2.058523 11697996
11.090885 11.035131 0.013644 11697996
11.133949 9.079369 2.002810 11697996
10.224443 9.768250 2.075978 11697996
10.014826 9.278272 0.189410 11697996
8.871871 9.161063 2.084300 11697996
9.660388 9.689027 0.210579 11697996
8.828350 9.545251 1.892616 11697996
10.498083 8.813993 1.745768 11697996
9.138567 9.583688 0.321343 11697996
11.020437 8.792144 3.792957 11697996
10.533139 8.992098 1.870118 11697996
10.156724 9.185719 2.542344 11697996
9.254254 8.968708 0.171007 11697996
9.907529 10.684248 2.439340 11697996
9.235717 10.589471 3.015304 11697996
9.896012 10.413900 1.831818 11697996
9.097289 9.695999 1.747580 11697996
9.698673 10.398274 0.389566 11697996
10.008033 10.895165 2.386747 11697996
10.718556 9.932950 2.170129 11697996
9.721202 10.403008 3.628463 11697996
9.552807 10.300898 3.961766 11697996
8.831798 10.724692 1.038861 11697996
10.075301 10.812195 1.530735 11697996
8.771372 9.713315 0.338674 11697996
8.935162 9.876870 1.385998 11697996
10.453050 8.983749 2.578793 11697996
10.615149 10.836719 0.107202 11697996
11.143956 10.217840 1.747458 11697996
10.698442 10.143142 0.546475 11697996
11.173977 8.749207 2.277569 11697996
10.948913 9.302977 0.434443 11697996
8.983114 10.423520 1.619946 11697996
10.552101 10.673914 0.980335 11697996
10.747231 10.014475 2.771828 11697996
10.767929 10.149157 1.617183 11697996
10.216427 10.706639 3.582549 11697996
10.249373 11.120377 3.139162 11697996
9.227966 10.714131 1.153480 11697996
11.177312 9.522179 0.019021 11697996
10.392829 8.794712 0.695063 11697996
9.893081 10.089396 3.804118 11697996
9.786304 9.992125 3.319023 11697996
10.816425 11.152693 1.447697 11697996
10.086757 8.907458 0.107600 11697996
10.138247 10.595143 1.228506 11697996
10.564605 9.314411 2.015017 11697996
10.894176 9.826715 1.304012 11697996
8.737957 10.607230 1.201182 11697996
10.705211 9.663820 1.817575 11697996
10.913833 9.681733 3.630973 11697996
9.694386 9.154650 3.470964 11697996
9.748894 8.906582 3.200291 11697996
11.225140 9.061284 3.917647 11697996
9.271199 9.202949 2.729699 11697996
10.330523 10.633887 1.043059 11697996
10.319148 10.123801 0.947774 11697996
11.140689 11.125142 3.622672 11697996
9.464741 11.028053 3.349067 11697996
10.480727 9.501081 2.854648 11697996
11.139240 9.679333 0.671779 11697996
10.000061 9.160832 2.450585 11697996
10.803146 9.840943 0.104423 11697996
10.408325 11.115213 0.714588 11697996
9.266157 9.390417 2.079566 11697996
10.686220 11.009635 0.769541 11697996
9.727549 8.909451 1.933882 11697996
11.095088 9.082879 2.922101 11697996
10.996326 9.817457 0.415832 11697996
10.664200 11.244277 2.724303 11697996
9.257092 10.941633 0.368677 11697996
9.048803 9.516638 0.691482 11697996
10.208414 9.442780 1.635773 11697996
9.897141 8.986449 -0.010721 11697996
9.723578 9.052417 0.688268 11697996
10.798399 8.985065 0.537934 11697996
9.780273 11.067904 0.918697 11697996
11.134432 10.929015 1.842696 11697996
10.069760 8.802745 3.393171 11697996
8.891745 10.708401 2.156754 11697996
10.113028 8.918242 1.546871 11697996
10.586064 10.178741 2.178571 11697996
10.603136 10.149951 2.173720 11697996
10.922933 9.601939 3.904562 11697996
10.586240 10.774515 3.852345 11697996
9.002103 9.591576 2.313145 11697996
9.899402 10.267552 2.236820 11697996
9.945710 10.874649 2.859798 11697996
10.274946 9.283713 0.015997 11697996
9.783102 8.750788 3.453698 11697996
9.867674 8.807732 1.844753 11697996
10.599367 9.410963 0.979498 11697996
10.374176 10.236124 1.404353 11697996
9.866443 10.635817 0.947677 11697996
10.814877 8.883339 2.517251 11697996
10.845828 11.238895 3.663991 11697996
11.008437 10.680717 1.346871 11697996
10.548985 10.999901 3.528624 11697996
11.202208 10.884082 3.783854 11697996
10.885459 10.150064 2.217038 11697996
9.808548 10.580902 0.136034 11697996
10.659298 9.663651 3.077347 11697996
9.114528 10.197712 3.402692 11697996
11.154957 10.465619 3.715528 11697996
10.079942 10.812905 0.175725 11697996
9.439887 9.448345 0.205882 11697996
10.427894 10.228142 0.752881 11697996
10.252440 10.682999 0.010833 11697996
8.982331 11.091817 1.814553 11697996
9.365852 9.649453 0.141174 11697996
9.490704 8.822474 3.861756 11697996
10.323994 10.244163 3.776553 11697996
9.597041 10.999536 3.364521 11697996
11.155506 9.809977 0.848506 11697996
9.518392 9.752189 0.797087 11697996
10.572077 10.543933 2.044374 11697996
10.202390 8.852880 2.203754 11697996
10.024651 10.694800 1.618051 11697996
10.347011 9.804714 0.657294 11697996
9.812608 11.196197 0.424863 11697996
10.715077 9.739049 1.135179 11697996
10.496835 9.678119 3.552213 11697996
9.848986 10.538440 2.290569 11697996
11.220334 9.894297 0.347239 11697996
9.737160 9.296665 1.424430 11697996
8.997797 10.379556 3.620023 11697996
9.945634 9.085544 2.199337 11697996
11.224795 9.532131 0.993784 11697996
9.025634 9.904482 1.556171 11697996
11.200909 10.006623 0.271044 11697996
9.199591 11.112936 2.552639 11697996
10.851927 9.654366 1.813178 11697996
10.501946 10.534078 0.287401 11697996
10.737106 10.747071 2.399818 11697996
10.501760 10.076544 1.800082 11697996
11.180503 9.070213 1.006783 11697996
9.633495 11.142456 0.185566 11697996
9.583192 10.101935 3.719877 11697996
10.113177 9.736146 2.421570 11697996
9.403455 10.842311 2.736516 11697996
11.067127 10.492884 1.316347 11697996
9.061331 9.021172 0.953839 11697996
9.006198 10.340157 2.538133 11697996
10.775430 9.301513 0.045792 11697996
10.254123 10.603868 2.688361 11697996
9.618654 8.803257 3.559048 11697996
10.659500 10.465656 0.593606 11697996
10.680295 8.908629 2.193122 11697996
9.759175 10.098645 1.059610 11697996
10.112080 9.184650 2.331049 11697996
9.507386 9.711946 1.437620 11697996
8.983277 9.290340 0.210263 11697996
10.268346 9.869102 2.272466 11697996
10.812787 10.569468 3.721347 11697996
9.552500 9.254291 0.121426 11697996
9.567703 10.270085 0.513499 11697996
10.469105 9.271403 1.146778 11697996
9.472210 9.273879 2.746177 11697996
10.030723 9.155903 3.876415 11697996
11.143842 9.988936 2.705152 11697996
10.858763 9.581443 1.429306 11697996
10.124425 10.708246 3.821890 11697996
10.320853 10.771511 1.986627 11697996
10.955954 10.475658 1.433426 11697996
11.125313 10.821227 0.675758 11697996
9.729455 10.488529 1.079328 11697996
8.965921 9.838731 3.433454 11697996
11.075562 9.516426 3.166839 11697996
9.483993 10.748381 2.728777 11697996
10.202244 9.627812 1.944789 11697996
10.454023 9.178622 2.806246 11697996
11.247385 8.790004 3.276563 11697996
11.219297 9.965089 1.421880 11697996
10.405310 10.993862 0.430471 11697996
9.701027 11.137934 3.061192 11697996
9.613774 10.617074 1.476359 11697996
10.697175 9.478296 2.493536 11697996
10.201733 10.474775 3.910132 11697996
10.141828 10.867599 3.572145 11697996
9.182445 10.226086 2.131588 11697996
11.173422 10.987583 0.438126 11697996
10.316004 9.410345 3.732538 11697996
11.226994 9.625608 1.487364 11697996
10.347095 11.225281 3.789888 11697996
9.988585 9.617168 3.575103 11697996
11.158882 9.880904 0.680128 11697996
9.385743 9.093508 1.052758 11697996
10.185919 10.754343 0.430063 11697996
11.257705 10.331045 0.756846 11697996
9.719677 9.563745 1.473097 11697996
10.665599 9.052079 0.814994 11697996
9.327227 9.892783 3.611866 11697996
11.061576 9.643734 0.712872 11697996
9.505298 8.786135 3.799717 11697996
10.499194 9.199107 0.824019 11697996
9.025399 9.948864 3.944772 11697996
8.786830 11.198886 3.359998 11697996
8.811419 11.091118 1.013340 11697996
9.799777 10.030251 3.264669 11697996
9.858846 9.779430 1.694442 11697996
11.141679 10.756879 2.565377 11697996
9.105478 9.798080 2.254227 11697996
10.571768 9.282418 0.172989 11697996
10.980261 9.465093 0.021387 11697996
9.299589 9.425943 2.517857 11697996
11.199868 10.385221 1.035702 11697996
10.890832 10.159800 3.642895 11697996
10.483994 10.226513 3.518702 11697996
10.976123 9.505589 3.239050 11697996
9.911097 9.468485 3.850291 11697996
10.340867 10.578314 1.387359 11697996
8.997779 9.184432 2.737813 11697996
10.733270 9.379356 3.053063 11697996
10.887241 9.940324 1.390985 11697996
10.459105 8.866432 1.156285 11697996
10.726208 10.070747 1.360735 11697996
9.792441 9.840497 2.785352 11697996
11.122613 9.176906 0.666566 11697996
10.999345 11.264503 0.871886 11697996
9.113820 8.757297 1.635658 11697996
9.506585 11.152233 2.097482 11697996
10.729008 9.474830 1.090994 11697996
9.000597 9.340319 2.138396 11697996
10.397053 9.012115 1.299826 11697996
9.578058 9.616083 0.093382 11697996
10.374132 10.133751 1.596496 11697996
10.542776 9.520538 2.824130 11697996
11.047546 10.868065 1.744454 11697996
10.788942 11.103789 3.527236 11697996
9.453267 9.068961 0.042394 11697996
9.563064 8.979393 2.101833 11697996
10.044051 9.805395 3.285463 11697996
9.329299 10.289533 1.484110 11697996
8.861228 11.185179 2.821500 11697996
9.712313 9.350731 1.643123 11697996
9.243255 9.576180 3.859486 11697996
9.669421 8.852802 3.178163 11697996
10.313504 10.902052 2.047510 11697996
9.824877 9.381537 0.824700 11697996
9.350947 11.203905 1.965531 11697996
10.927225 9.253593 3.353775 11697996
9.578271 9.688324 3.056424 11697996
9.327335 9.817986 1.906987 11697996
9.013455 9.358713 1.649533 11697996
8.890260 10.342599 3.474297 11697996
9.017080 9.361294 2.440486 11697996
9.317052 9.875082 3.718289 11697996
10.479657 10.900583 3.688111 11697996
10.062509 10.352165 2.924540 11697996
10.063964 10.709859 0.051178 11697996
10.558124 9.274287 2.100638 11697996
8.773884 11.162536 0.447648 11697996
9.687433 10.817042 0.049016 11697996
10.920660 9.050200 0.979713 11697996
9.338943 8.939846 1.198788 11697996
10.889277 9.075034 3.795254 11697996
10.918040 10.841524 1.187753 11697996
9.877650 9.115858 3.934631 11697996
8.761477 9.293159 3.086648 11697996
10.428411 9.276571 0.758293 11697996
10.280000 9.289393 1.150141 11697996
10.928684 9.135965 0.396140 11697996
9.098001 9.967976 1.535179 11697996
9.805085 11.180442 2.226834 11697996
10.481628 10.909576 2.274032 11697996
9.509068 10.617735 1.233197 11697996
10.223366 9.766795 3.931725 11697996
9.451677 10.164068 1.383738 11697996
9.846952 10.718659 0.355772 11697996
10.085466 9.288984 3.655744 11697996
11.056469 9.951502 1.057666 11697996
10.657496 10.100088 2.412058 11697996
9.541293 9.998368 1.703815 11697996
11.052085 9.843037 2.214537 11697996
11.229191 11.122066 1.077739 11697996
11.133226 11.084691 3.718342 11697996
11.150313 10.912313 3.077851 11697996
9.319388 9.653089 2.985332 11697996
8.862243 10.246592 2.724818 11697996
10.556240 8.981622 1.576316 11697996
11.158502 11.124243 2.263605 11697996
8.807972 10.816475 1.976352 11697996
10.416770 9.454190 1.461366 11697996
9.827529 10.207948 0.142482 11697996
8.877819 10.769951 3.850370 11697996
10.480325 9.124213 3.246798 11697996
10.972168 10.177451 3.518319 11697996
11.198338 8.872664 1.534755 11697996
10.949914 11.056961 0.740079 11697996
10.963119 9.738195 3.104993 11697996
10.583389 10.412103 3.642186 11697996
10.776607 10.289406 3.862770 11697996
9.510141 9.625446 0.635652 11697996
10.162638 10.552743 2.101274 11697996
10.029423 9.253969 0.608009 11697996
9.834036 8.899601 1.355133 11697996
8.781968 10.339037 1.036713 11697996
9.254171 11.095087 2.067094 11697996
10.456222 9.926384 2.000848 11697996
9.758024 9.813951 0.723973 11697996
9.467362 9.851781 2.380615 11697996
10.660127 9.479171 0.332557 11697996
10.564290 9.347218 1.878164 11697996
10.355616 11.147960 2.711144 11697996
10.389711 10.992400 2.438194 11697996
10.022289 10.249980 3.003918 11697996
9.663215 9.898553 1.248821 11697996
9.524005 10.662816 1.526427 11697996
9.054939 9.854897 2.695472 11697996
10.154930 9.539882 0.867442 11697996
10.848567 10.622637 2.023853 11697996
11.119551 10.608523 1.191845 11697996
10.156460 10.641196 3.705411 11697996
9.478382 9.423548 3.645722 11697996
10.432600 8.833335 2.595732 11697996
9.046619 10.145905 3.894503 11697996
10.890317 10.077683 3.900373 11697996
10.462947 10.813639 0.083209 11697996
11.051876 9.399107 3.870529 11697996
10.412331 10.302736 0.802016 11697996
11.199687 10.565313 3.728195 11697996
10.633476 9.411081 3.019453 11697996
10.736360 8.892431 3.484517 11697996
11.009505 9.800507 1.025822 11697996
9.294472 10.789014 0.586025 11697996
9.821599 9.941155 3.152789 11697996
8.990680 8.792017 3.649716 11697996
11.211994 10.301462 2.807976 11697996
9.664836 10.989602 2.403291 11697996
10.492955 9.843541 2.688323 11697996
10.251516 10.725966 2.981617 11697996
8.854518 8.836564 2.743970 11697996
10.626410 11.072336 1.907911 11697996
8.738389 9.047938 2.722119 11697996
9.304118 10.448664 2.143308 11697996
9.404515 9.052194 0.740082 11697996
9.197312 9.258814 2.219739 11697996
10.802976 9.208994 3.707773 11697996
11.186531 9.620171 0.252279 11697996
9.940781 10.395437 3.526054 11697996
9.332478 10.380990 2.221808 11697996
9.578883 9.106182 2.237763 11697996
10.638124 10.663777 0.050983 11697996
11.069750 11.147923 2.829152 11697996
10.705929 11.245639 0.054431 11697996
10.789926 10.025327 3.980825 11697996
10.178932 10.754487 3.824699 11697996
9.919552 8.767999 1.256581 11697996
10.865080 8.972908 3.193963 11697996
8.807876 9.479186 1.446848 11697996
9.983049 8.932957 1.281007 11697996
9.060491 10.313824 0.464140 11697996
10.754653 9.137787 3.317128 11697996
10.163218 9.565908 2.063800 11697996
9.671724 10.069163 4.011943 11697996
11.233608 11.201364 3.995704 11697996
9.807555 9.190123 3.462718 11697996
11.143707 9.737127 1.375053 11697996
9.081758 9.864603 2.924565 11697996
8.797327 10.493281 3.193604 11697996
10.356474 9.284509 3.394321 11697996
10.708231 9.574002 1.762525 11697996
10.403279 8.787298 1.737625 11697996
10.722131 9.897205 2.277234 11697996
8.849562 9.320970 2.987352 11697996
9.800404 10.899950 3.096056 11697996
9.516804 9.595585 3.521781 11697996
9.952439 9.759266 1.442942 11697996
8.913651 11.110959 3.020021 11697996
9.007471 10.345223 1.950605 11697996
8.757288 10.720165 0.139681 11697996
9.807789 9.315002 2.526921 11697996
11.190118 9.353499 1.277835 11697996
9.254508 9.873912 2.010999 11697996
8.966631 11.018777 0.573860 11697996
10.104166 10.034620 2.223775 11697996
9.814833 10.283646 3.078521 11697996
11.046015 10.594174 3.597493 11697996
8.800549 9.079467 1.989756 11697996
9.796246 8.911180 0.544472 11697996
10.384313 8.989968 3.349670 11697996
9.900588 10.220318 1.535699 11697996
10.287017 8.904536 1.456021 11697996
11.011137 9.256535 1.365190 11697996
10.232698 10.207274 3.164479 11697996
9.955871 9.205110 2.510630 11697996
10.478069 10.363600 1.345461 11697996
10.991383 10.926380 1.354917 11697996
9.034301 10.382655 0.681723 11697996
9.113333 10.286639 1.685082 11697996
9.025955 9.294273 0.105591 11697996
10.812092 9.174340 1.112166 11697996
10.424251 10.177807 2.236872 11697996
9.445678 10.854884 1.027951 11697996
8.912892 10.691530 1.376624 11697996
10.974834 10.729438 0.375995 11697996
10.000118 10.171863 2.623122 11697996
9.350209 10.661966 2.810856 11697996
10.867575 8.993686 3.855977 11697996
10.857416 10.070253 2.565027 11697996
9.758758 9.929070 3.914293 11697996
11.173094 11.040932 2.161752 11697996
10.472890 10.343195 1.383759 11697996
10.556474 9.275095 1.163196 11697996
10.797375 9.202426 2.786804 11697996
8.893732 10.806993 0.609197 11697996
10.346551 8.920119 2.973177 11697996
9.551927 9.906388 1.432832 11697996
9.350697 9.574202 0.397250 11697996
10.860054 10.505909 3.620327 11697996
10.591740 9.795874 3.889042 11697996
8.828676 10.880228 2.191022 11697996
9.699671 9.780104 3.005440 11697996
9.064356 8.771444 2.567683 11697996
11.034809 9.632414 1.595505 11697996
10.714510 10.865243 0.149118 11697996
9.378288 11.115751 2.727643 11697996
10.313793 10.170430 2.545003 11697996
9.536893 9.516012 2.051209 11697996
8.871854 9.998670 1.952842 11697996
9.141397 10.731935 0.871203 11697996
8.808137 10.791638 1.718623 11697996
9.803918 9.955798 2.040006 11697996
10.300410 8.971453 1.697008 11697996
9.532830 9.884191 0.567543 11697996
9.317020 9.658784 0.697397 11697996
8.812051 10.294191 3.128623 11697996
10.469284 10.254669 3.701233 11697996
10.788810 10.774243 0.010402 11697996
10.253258 10.141333 0.481477 11697996
11.045012 9.893725 1.910646 11697996
9.839170 9.284043 2.230388 11697996
10.072926 9.038515 0.093953 11697996
9.695891 10.035655 0.943167 11697996
10.563446 10.076036 1.617864 11697996
9.273441 11.124234 2.399520 11697996
9.694823 10.104557 0.796044 11697996
9.909678 10.896581 0.179009 11697996
10.400814 10.507873 2.080860 11697996
9.167383 10.028572 0.520773 11697996
8.852245 11.011504 0.879494 11697996
11.091578 9.354383 0.804252 11697996
10.125340 9.258677 2.587167 11697996
10.978701 10.820946 0.490893 11697996
10.424757 11.006773 2.139988 11697996
9.000835 10.268375 3.547160 11697996
9.442515 9.613182 0.167641 11697996
11.080666 9.001098 2.992012 11697996
11.129626 8.958130 3.900852 11697996
8.850418 10.522503 0.435984 11697996
8.864190 9.447568 0.739390 11697996
10.299887 11.141184 3.022003 11697996
8.780557 10.206120 0.863775 11697996
8.789497 8.819317 3.791908 11697996
11.231227 10.566775 2.148278 11697996
10.394948 9.029960 3.193892 11697996
9.323713 9.212955 0.521412 11697996
10.951421 9.731750 3.376149 11697996
10.621778 10.436518 0.431166 11697996
9.770579 8.969635 3.788227 11697996
9.295730 9.403954 2.408809 11697996
9.095054 9.258978 3.891989 11697996
9.807122 9.764365 2.010547 11697996
10.472058 10.564927 0.028325 11697996
9.521824 10.874840 1.247036 11697996
10.335422 10.408781 2.597100 11697996
10.996619 10.985411 0.623898 11697996
9.251733 9.431163 1.074645 11697996
9.549273 9.295239 2.858087 11697996
9.655080 10.346893 1.380878 11697996
10.076179 10.943230 3.173688 11697996
11.138322 9.778537 0.040921 11697996
9.467843 9.549700 0.953672 11697996
8.972229 10.683457 1.254663 11697996
9.089363 9.092334 3.661149 11697996
10.839235 9.818693 2.414992 11697996
11.195047 8.936184 3.987957 11697996
9.991019 10.837275 1.831977 11697996
8.914934 8.988754 1.033882 11697996
9.691821 10.192374 1.020150 11697996
10.303740 9.553082 1.550892 11697996
10.809899 10.357290 1.332624 11697996
10.279437 9.366278 3.972901 11697996
10.096503 9.536739 3.276134 11697996
9.021592 10.363383 0.932984 11697996
9.875048 9.211573 3.753110 11697996
11.107779 8.973121 2.090265 11697996
10.791125 10.829512 0.397761 11697996
9.157710 10.323076 0.864008 11697996
9.360938 11.064350 3.184960 11697996
9.799217 9.036143 0.161284 11697996
10.017941 9.596369 0.412383 11697996
8.864145 10.048997 2.479065 11697996
9.948817 11.105611 0.863753 11697996
10.444796 9.932696 0.062016 11697996
10.304750 9.654269 2.972521 11697996
10.048938 9.208524 3.371937 11697996
10.329791 9.815191 3.844857 11697996
9.289658 11.137592 1.618011 11697996
9.084805 10.539634 1.403796 11697996
8.874678 9.949470 2.266152 11697996
9.835232 10.272118 2.370640 11697996
10.848880 10.595743 1.360432 11697996
10.946568 9.910722 3.703057 11697996
10.317560 10.007960 2.670476 11697996
8.889234 9.608181 2.029327 11697996
10.942655 10.746324 1.434963 11697996
10.817848 8.852261 3.022924 11697996
9.079452 10.248423 3.223204 11697996
10.796061 8.932076 1.569763 11697996
9.201013 10.890937 0.508698 11697996
10.787434 9.929575 0.030655 11697996
10.694371 10.345424 3.554147 11697996
10.892017 10.934267 2.356904 11697996
10.039532 9.554205 3.357047 11697996
10.992398 10.261590 0.263951 11697996
8.894965 9.300114 2.632297 11697996
9.385196 8.804725 2.992189 11697996
9.379592 10.136232 1.934489 11697996
10.770141 10.795369 3.207242 11697996
8.966887 8.935725 0.450721 11697996
10.814873 10.650249 3.113621 11697996
9.947819 10.054630 3.276230 11697996
11.171843 10.641577 2.907270 11697996
11.053808 10.071133 1.958404 11697996
9.184941 9.998189 2.804417 11697996
10.582789 10.785258 3.205269 11697996
9.352190 10.730918 1.729472 11697996
11.194440 9.422490 3.556654 11697996
10.988192 9.618242 0.980499 11697996
8.914596 11.017029 0.439855 11697996
8.811279 10.934894 0.126105 11697996
10.186534 10.001008 1.343496 11697996
10.634518 10.265540 1.454889 11697996
8.915507 9.961218 3.824394 11697996
10.459052 10.569140 1.813173 11697996
9.656829 11.144145 2.693124 11697996
10.905439 9.673820 3.166106 11697996
8.874585 10.918293 3.925381 11697996
10.855427 10.427522 1.897824 11697996
10.707582 9.691962 1.127031 11697996
9.790057 9.420802 0.385117 11697996
10.078864 10.067712 2.748328 11697996
9.773727 11.152012 0.763242 11697996
8.958315 10.022885 3.946944 11697996
10.485096 9.810106 3.127019 11697996
9.410302 9.745470 0.685519 11697996
8.932796 11.135004 3.077308 11697996
9.237313 9.045085 3.732005 11697996
11.111639 9.004942 2.150596 11697996
11.237198 10.813817 0.942626 11697996
10.841349 10.612070 3.699766 11697996
9.092451 9.657420 3.954913 11697996
10.752657 10.588744 2.168638 11697996
10.633601 10.544426 0.453614 11697996
9.197022 9.020022 1.645894 11697996
9.321406 9.951465 3.779289 11697996
8.880432 9.661662 1.851116 11697996
10.666719 8.946938 1.612317 11697996
10.657299 10.523776 2.319527 11697996
10.600041 9.819770 1.867219 11697996
10.902701 10.094343 4.005524 11697996
9.022260 9.475698 2.768568 11697996
10.449211 9.699471 3.163914 11697996
10.782620 9.008492 2.189605 11697996
9.107207 10.809184 0.109577 11697996
9.264031 11.038149 3.210190 11697996
9.899242 10.940236 0.797180 11697996
10.886555 10.771558 0.860941 11697996
9.220196 9.458892 1.049523 11697996
10.437726 9.710785 3.620588 11697996
10.878425 11.203328 0.756334 11697996
9.236345 11.119957 2.178181 11697996
9.603683 10.690307 1.796633 11697996
10.104420 9.900682 3.914302 11697996
9.349477 10.932696 2.697166 11697996
10.843713 10.501348 3.161559 11697996
10.828155 10.908866 3.102617 11697996
9.760296 10.511259 1.328401 11697996
10.807652 9.316476 1.152232 11697996
9.977492 9.335817 0.539043 11697996
9.030572 9.570406 1.051353 11697996
9.147566 9.173449 0.239868 11697996
9.280581 10.320374 3.862206 11697996
9.728476 8.926471 0.466099 11697996
9.187894 8.760053 2.314261 11697996
10.883749 9.184391 2.965448 11697996
8.889979 9.664375 3.861782 11697996
9.568719 10.123991 3.677462 11697996
11.060430 9.234264 0.927057 11697996
10.703774 9.466877 1.247877 11697996
9.832912 9.576921 1.577467 11697996
8.754141 11.153596 2.164059 11697996
11.139846 10.233790 2.368100 11697996
11.199708 9.586581 1.210718 11697996
11.239545 9.791868 0.706626 11697996
9.161979 9.802219 2.495809 11697996
9.138931 10.281124 3.224323 11697996
9.512662 9.393487 2.867361 11697996
8.816776 9.553706 3.764208 11697996
10.179342 10.861443 2.599880 11697996
10.600632 10.297967 3.808195 11697996
10.005673 10.113196 3.914155 11697996
8.830962 8.919348 1.702793 11697996
10.230462 8.928877 0.274485 11697996
9.131920 10.986146 0.779992 11697996
8.783318 8.927578 3.089225 11697996
9.907059 8.923170 3.156080 11697996
11.171609 10.954689 2.214661 11697996
9.260775 8.769899 0.905649 11697996
8.996396 9.088093 1.620431 11697996
9.318830 10.219105 1.369785 11697996
10.496739 8.760255 3.293183 11697996
10.756133 9.840115 3.683521 11697996
9.627563 9.709066 0.407291 11697996
9.350568 8.791290 3.316283 11697996
10.706081 9.571160 2.399955 11697996
10.161310 9.533091 4.003911 11697996
9.563484 9.799481 1.658151 11697996
9.799700 10.149672 3.056806 11697996
10.006033 9.394642 1.836890 11697996
10.702325 10.911933 1.411826 11697996
9.948515 8.832082 1.509067 11697996
9.224993 10.427284 1.915481 11697996
9.151180 11.062030 2.055794 11697996
9.969600 9.817914 3.662884 11697996
11.029825 10.060547 0.189452 11697996
9.343225 10.998578 1.408628 11697996
9.891618 10.202381 3.362991 11697996
11.231973 10.680248 0.245764 11697996
10.013396 9.623172 1.258979 11697996
10.919796 9.426211 2.338078 11697996
10.594306 8.784861 1.632713 11697996
8.908116 10.813012 2.366659 11697996
9.075285 9.461490 1.772092 11697996
9.230324 8.850943 3.740302 11697996
9.782909 9.057252 1.108652 11697996
9.618179 8.810269 3.073609 11697996
10.566644 8.813983 2.823994 11697996
11.204874 9.423773 0.280258 11697996
11.242115 9.892250 2.876724 11697996
10.166519 11.171492 0.648826 11697996
10.040315 10.818724 2.001706 11697996
9.789186 10.495457 1.099008 11697996
10.719048 9.823062 2.511035 11697996
10.724842 8.854815 1.740816 11697996
10.672153 9.192972 0.565638 11697996
10.428424 10.732658 0.662472 11697996
8.780281 9.276760 3.472362 11697996
9.925060 10.391151 1.007570 11697996
10.026584 10.817538 1.652662 11697996
8.869787 10.296585 3.858752 11697996
9.439368 10.033458 1.560667 11697996
10.844296 9.802042 1.609475 11697996
8.812788 8.904325 1.052316 11697996
9.405433 11.116141 1.679095 11697996
10.884261 9.481750 1.654443 11697996
8.829634 11.206712 2.973071 11697996
8.869759 10.088012 0.893657 11697996
10.606664 10.718460 0.851044 11697996
9.111526 8.809851 2.673566 11697996
10.054236 9.543916 2.611464 11697996
8.837170 10.103209 3.391615 11697996
10.582251 9.480073 2.532306 11697996
8.874837 9.846985 0.519783 11697996
9.595028 10.166646 3.935524 11697996
8.788321 9.913369 1.330428 11697996
9.216343 10.311487 3.110179 11697996
11.207220 11.044994 0.837352 11697996
9.799985 9.921745 0.370334 11697996
9.668343 9.875596 0.288251 11697996
11.036489 9.961777 1.335054 11697996
9.249146 11.203482 0.622445 11697996
11.032094 11.099422 2.987788 11697996
11.072179 10.688616 1.352607 11697996
10.476974 10.494301 0.267074 11697996
10.014818 11.190957 1.502217 11697996
10.518089 10.268348 3.840963 11697996
9.382350 10.508201 0.591538 11697996
10.605254 9.429082 3.098235 11697996
10.221129 10.705653 0.781457 11697996
8.808627 10.037797 1.630043 11697996
11.138983 9.702373 1.512619 11697996
8.937917 9.312985 3.429289 11697996
10.303555 8.828252 3.580937 11697996
10.449456 8.824652 3.947901 11697996
9.289008 9.116997 2.081394 11697996
10.425296 10.788846 0.622908 11697996
10.698770 9.718984 0.432118 11697996
10.644905 9.879804 1.863459 11697996
9.450987 9.818560 3.629317 11697996
8.917567 9.169103 2.862985 11697996
10.337672 9.202274 2.845469 11697996
10.052772 11.073385 3.088262 11697996
10.361670 10.560225 3.493859 11697996
10.118309 10.103021 0.881156 11697996
9.949331 9.625787 0.424365 11697996
9.497657 11.010550 1.472458 11697996
10.121557 8.898634 1.116489 11697996
10.090232 11.170694 2.660338 11697996
10.082842 9.372251 2.249166 11697996
9.028890 8.845556 0.218815 11697996
9.261491 9.257341 2.091411 11697996
9.266684 10.882364 0.828722 11697996
11.178843 9.674712 1.928105 11697996
10.511346 11.255377 1.976819 11697996
9.202126 11.065646 0.588021 11697996
8.767169 11.197462 0.066933 11697996
9.432321 10.139025 0.720338 11697996
10.613615 10.515268 2.653663 11697996
10.743725 10.365358 1.029051 11697996
9.597333 11.013597 1.512873 11697996
9.041220 8.991705 1.577370 11697996
9.719533 10.979658 1.281825 11697996
9.741529 9.093356 0.601977 11697996
9.255837 8.977592 2.022545 11697996
10.917163 10.383829 0.040997 11697996
10.613315 9.242908 1.797893 11697996
10.016100 9.948926 1.126232 11697996
10.298927 10.495567 3.125871 11697996
9.949670 10.985494 0.382404 11697996
9.110874 10.584576 3.435583 11697996
9.623708 11.220752 3.397924 11697996
9.009316 10.551264 0.455287 11697996
10.130018 8.893571 3.234298 11697996
10.793807 10.341725 0.786632 11697996
10.097369 8.841886 2.456359 11697996
11.255255 9.045109 0.487046 11697996
9.521989 9.225999 0.622442 11697996
11.219370 9.043927 3.274542 11697996
9.179323 9.729400 0.775069 11697996
9.324584 9.247099 3.967879 11697996
10.494675 9.260382 2.571489 11697996
9.846631 9.382902 1.020736 11697996
10.050977 11.234406 2.932085 11697996
11.083510 10.379380 0.296604 11697996
10.825164 9.271151 1.007008 11697996
10.593091 10.664395 3.169006 11697996
10.568974 10.916948 1.447727 11697996
9.973838 9.047899 0.806940 11697996
10.714113 9.739415 0.174286 11697996
9.040388 9.984159 0.479810 11697996
10.820379 9.650586 1.398409 11697996
10.638481 11.224561 3.953988 11697996
10.637543 9.613318 3.788406 11697996
11.147241 9.917378 2.978660 11697996
11.089811 9.993771 3.049870 11697996
8.811787 10.877536 2.775779 11697996
11.081831 9.849652 2.777528 11697996
9.278890 9.780392 3.433176 11697996
9.295366 8.994218 3.428957 11697996
9.871918 10.739291 2.528501 11697996
10.912659 9.237105 0.170491 11697996
10.692299 10.500678 1.286043 11697996
9.940997 10.710788 2.341717 11697996
9.111373 10.415731 1.750502 11697996
10.219337 9.302047 2.190177 11697996
11.063206 10.195041 0.212432 11697996
10.065898 11.173392 3.005707 11697996
10.626657 11.006950 3.817395 11697996
9.747041 8.797751 1.473937 11697996
9.585312 9.485852 1.388397 11697996
10.701535 10.725821 1.607424 11697996
9.597240 10.464659 2.758421 11697996
10.206727 11.247632 0.321228 11697996
9.614735 8.859784 3.289171 11697996
9.534766 10.284138 3.148679 11697996
10.310802 9.104071 3.328554 11697996
9.335362 10.335864 2.961943 11697996
9.562731 10.636928 1.734786 11697996
9.098691 10.802313 2.131235 11697996
10.792939 10.504723 0.938726 11697996
10.822134 10.923353 3.724553 11697996
10.708894 10.955989 1.695527 11697996
11.185904 9.286356 3.284372 11697996
9.858516 11.248469 1.750925 11697996
8.828861 8.766958 2.479737 11697996
9.170465 10.107779 3.108862 11697996
10.556596 10.083489 0.197590 11697996
8.857255 10.183829 3.388056 11697996
10.295148 9.531270 0.831583 11697996
10.250883 8.952750 1.395935 11697996
9.609159 8.922592 3.616230 11697996
9.768252 9.790717 1.558456 11697996
10.882984 9.948112 3.038168 11697996
10.690115 10.327892 3.280248 11697996
10.809294 10.481322 0.633578 11697996
10.750977 10.236473 3.848415 11697996
11.089630 9.493677 1.692019 11697996
9.519165 10.794963 2.624929 11697996
10.257220 8.785478 3.117938 11697996
11.155538 9.495985 2.667778 11697996
10.339868 10.067102 2.034417 11697996
10.361697 10.048879 0.989199 11697996
8.871945 11.008060 3.425020 11697996
10.642759 9.907851 1.755354 11697996
9.488551 9.997524 2.164765 11697996
10.118171 10.722171 3.251713 11697996
9.278914 10.470207 1.897706 11697996
9.235939 9.740378 2.744793 11697996
9.785569 9.129419 3.537527 11697996
9.591696 11.054311 1.993641 11697996
10.607779 8.888049 1.316677 11697996
8.892162 11.152471 0.022379 11697996
11.032274 10.364423 2.087797 11697996
8.886306 11.157900 0.058805 11697996
9.297309 11.117777 1.566469 11697996
10.171568 9.159145 1.449524 11697996
9.204251 10.587063 0.529072 11697996
10.808423 10.950521 3.757544 11697996
10.179237 9.791334 2.661350 11697996
10.963804 10.433142 2.322950 11697996
11.152400 9.902225 2.131844 11697996
10.006959 10.195354 2.217154 11697996
10.007476 10.214669 2.031516 11697996
8.897247 9.520489 0.948423 11697996
10.374239 11.008278 2.202032 11697996
10.984199 10.936928 1.643350 11697996
9.977009 8.858581 0.520730 11697996
9.320832 10.384775 3.298890 11697996
11.168413 9.208120 3.197729 11697996
11.128608 10.634808 2.359177 11697996
10.855673 11.183872 1.217209 11697996
10.734350 9.582355 2.737195 11697996
9.994091 10.860536 1.073518 11697996
11.052835 10.048122 1.257563 11697996
8.989194 10.064822 2.585605 11697996
10.102097 10.426081 0.451743 11697996
10.831057 9.904134 3.400245 11697996
9.844030 10.358126 3.071315 11697996
10.098742 11.159088 1.586344 11697996
9.579114 9.929665 1.500015 11697996
10.313210 10.203077 3.250917 11697996
10.911019 10.704704 3.174697 11697996
10.703293 10.686524 0.881580 11697996
10.715141 10.063646 1.580348 11697996
9.724000 10.689682 3.996572 11697996
10.849481 9.551700 1.416710 11697996
9.079405 10.128868 3.883200 11697996
9.124019 9.564424 0.243826 11697996
10.965193 10.934198 1.614207 11697996
10.141356 10.242247 2.366580 11697996
9.522523 10.952371 1.800485 11697996
10.164884 10.730565 0.179783 11697996
10.908004 8.899651 0.788765 11697996
9.096446 10.881446 0.680928 11697996
11.035112 10.984049 0.506498 11697996
10.075551 10.202892 3.182713 11697996
10.412995 9.980338 0.228990 11697996
10.241547 8.949129 1.560025 11697996
9.297650 8.926943 1.534390 11697996
8.961196 10.299055 3.075873 11697996
10.510689 9.368196 1.546828 11697996
9.101256 9.356452 3.730864 11697996
9.490385 9.188062 0.612720 11697996
10.314963 11.073539 1.204900 11697996
10.510197 9.142839 1.482271 11697996
11.159252 10.390970 1.884365 11697996
10.634651 8.970012 3.689505 11697996
10.921350 10.801009 0.791839 11697996
10.870738 9.172636 1.499964 11697996
9.582640 11.194431 1.836656 11697996
8.942556 10.197717 1.797266 11697996
11.256877 10.143585 0.218907 11697996
10.028290 10.977163 3.606539 11697996
10.622334 10.337244 0.239175 11697996
8.856231 10.546795 0.589803 11697996
8.977645 8.853106 1.476628 11697996
10.890011 9.463670 0.190849 11697996
10.408628 9.469081 3.703435 11697996
10.221023 10.417883 0.772182 11697996
10.412295 10.753845 0.171535 11697996
10.787794 9.180092 1.204418 11697996
10.968155 9.822538 3.736358 11697996
10.467498 9.547176 1.596471 11697996
8.863120 8.962824 0.551211 11697996
10.185903 10.275388 3.687630 11697996
9.256119 11.047657 0.665168 11697996
10.771164 8.835762 0.563340 11697996
9.002224 10.697865 2.541728 11697996
10.700485 9.479412 3.102055 11697996
9.566831 9.778218 0.870053 11697996
11.010978 11.194858 2.362532 11697996
9.587202 10.563610 2.883728 11697996
9.649882 11.133390 1.302074 11697996
9.812398 11.148332 2.748535 11697996
10.353762 10.311601 3.047293 11697996
10.407753 10.664411 3.522226 11697996
10.922664 10.683068 1.438102 11697996
9.089377 10.888840 2.670167 11697996
10.834009 9.633591 0.383005 11697996
10.958735 10.551656 3.124598 11697996
8.810143 9.128160 4.014064 11697996
9.502632 9.423879 2.482306 11697996
10.718559 10.233867 2.470964 11697996
8.825417 9.476036 0.652114 11697996
10.239563 9.259175 3.703883 11697996
10.117653 9.087224 2.554819 11697996
10.356646 11.033972 2.570197 11697996
9.092886 9.499624 1.940679 11697996
10.073551 9.366696 2.235152 11697996
9.220710 9.382642 0.673514 11697996
11.036621 9.575643 3.929354 11697996
10.283145 10.765887 1.858362 11697996
11.031160 10.007090 2.455390 11697996
10.270266 10.975846 1.695392 11697996
9.668584 9.751335 3.324123 11697996
10.570658 8.869531 1.985096 11697996
9.298666 10.725142 1.539429 11697996
9.365213 9.268750 2.086445 11697996
9.122350 9.059201 3.230983 11697996
9.374129 10.467512 2.008171 11697996
11.078538 9.066139 2.328907 11697996
11.142665 9.892064 2.431733 11697996
9.324138 11.200468 2.941197 11697996
9.620445 11.203847 1.209408 11697996
9.076973 9.528750 3.208770 11697996
11.169113 8.950310 1.388345 11697996
10.202476 9.994915 1.686564 11697996
10.088656 10.447992 2.632715 11697996
9.340277 9.163713 0.741206 11697996
9.967707 9.409561 0.375953 11697996
9.089241 8.937018 1.391430 11697996
8.839059 10.331487 2.401009 11697996
9.772031 8.968320 2.944703 11697996
10.140415 10.997969 0.829842 11697996
11.042793 9.239818 3.991975 11697996
10.781710 8.993177 1.234653 11697996
9.612317 9.942157 2.829412 11697996
10.092682 9.363568 2.827730 11697996
10.092235 11.141834 3.067257 11697996
11.020976 10.882915 3.191571 11697996
9.443685 10.911429 1.008901 11697996
9.547058 10.795943 1.074940 11697996
8.763947 9.336505 0.062064 11697996
10.500937 10.763360 2.021331 11697996
10.475618 10.673252 2.490761 11697996
10.200142 9.086916 2.948141 11697996
10.331758 9.629539 3.738509 11697996
9.179567 10.698469 3.727212 11697996
9.705284 10.844172 2.551208 11697996
10.965028 9.912424 0.430216 11697996
10.598645 10.828237 3.381953 11697996
10.774644 10.257057 2.095478 11697996
10.368251 10.399185 0.322155 11697996
11.016053 10.463080 2.650627 11697996
9.679010 9.665504 2.607151 11697996
11.152884 10.883494 1.299159 11697996
9.394997 9.483366 3.155906 11697996
10.914029 8.925173 3.568083 11697996
11.197305 9.817486 1.947594 11697996
10.455486 10.291905 2.667754 11697996
9.641459 9.098778 0.415700 11697996
11.231282 10.448782 0.259339 11697996
9.972430 9.251298 0.980193 11697996
10.400602 10.352958 2.387443 11697996
10.804385 8.797057 1.214009 11697996
9.960758 9.053532 0.554845 11697996
9.709361 11.182352 0.809662 11697996
10.160689 9.186830 1.202243 11697996
8.892721 9.489123 1.534659 11697996
9.702424 8.898312 1.714153 11697996
9.797593 9.858691 1.060563 11697996
10.118693 10.851206 3.401750 11697996
10.275335 8.943862 1.127972 11697996
9.076048 10.194304 1.292732 11697996
11.105721 8.873889 2.013400 11697996
11.061038 9.346483 2.197149 11697996
11.063168 9.186213 3.937442 11697996
8.892016 10.404078 2.269311 11697996
8.891641 10.415830 0.514809 11697996
9.065648 11.102531 3.763893 11697996
9.206085 9.674922 0.819979 11697996
9.229374 10.769852 1.404835 11697996
9.336297 10.762078 1.343709 11697996
10.985290 10.256570 1.973394 11697996
10.362435 10.525134 2.578417 11697996
8.843023 10.209229 3.299805 11697996
9.486534 10.207514 3.575576 11697996
9.077704 10.913686 3.191507 11697996
11.133341 10.280295 0.710195 11697996
9.440344 9.096965 2.452731 11697996
9.143284 10.066584 1.074983 11697996
11.078802 9.505844 2.034908 11697996
10.791321 9.509466 0.257029 11697996
9.816049 10.395301 1.835094 11697996
10.232359 10.112045 1.184069 11697996
8.771553 10.437186 3.114727 11697996
10.344067 9.225359 1.383730 11697996
9.743012 9.283759 0.023714 11697996
9.239887 9.941780 2.864829 11697996
10.556919 9.500160 0.849449 11697996
10.212883 10.192167 3.542046 11697996
8.929139 11.056438 1.863604 11697996
11.050751 9.209406 1.325403 11697996
9.204844 9.788278 2.954571 11697996
8.914090 9.068697 2.153271 11697996
9.416942 10.239329 1.055916 11697996
11.077742 9.660641 3.471505 11697996
9.616192 10.048411 1.951408 11697996
10.603544 11.198602 0.082050 11697996
9.676987 9.663832 1.376407 11697996
10.793887 8.910637 3.650411 11697996
9.579947 10.406831 0.287049 11697996
10.787090 10.003092 2.892621 11697996
9.113315 10.077008 3.803933 11697996
8.989493 10.783960 3.466038 11697996
10.715298 8.905489 1.548031 11697996
9.148376 10.571826 2.766878 11697996
9.952258 10.048756 3.995801 11697996
10.160795 10.918613 2.298079 11697996
9.885922 10.124084 0.302815 11697996
8.895311 8.937399 2.190519 11697996
10.238108 9.794349 3.866613 11697996
10.666332 11.188923 2.238918 11697996
9.280981 10.098095 3.171901 11697996
9.866483 9.950533 2.606322 11697996
8.935934 10.236795 0.195602 11697996
10.769842 10.482569 1.927351 11697996
10.129828 9.657134 3.365034 11697996
10.942412 10.160821 3.389440 11697996
8.957177 9.199782 3.916635 11697996
9.304832 10.821003 3.330775 11697996
10.301675 10.738273 1.003508 11697996
10.793774 9.883873 2.289169 11697996
10.507651 8.765721 3.499792 11697996
10.820401 8.908979 0.864861 11697996
9.380331 10.230920 2.564868 11697996
9.086411 10.841151 1.146397 11697996
10.343950 8.849422 3.268334 11697996
9.712313 10.801200 2.919903 11697996
9.890624 10.542785 1.166520 11697996
11.135112 10.994662 1.461213 11697996
9.598572 8.847356 3.889268 11697996
10.742233 9.844316 2.262121 11697996
8.795616 9.335296 1.192102 11697996
10.837229 11.089960 3.722385 11697996
10.674621 10.938876 2.525194 11697996
9.536707 9.740332 1.216438 11697996
10.181453 9.249529 2.017824 11697996
9.749907 9.996538 2.729226 11697996
10.007148 9.706489 0.838829 11697996
10.344209 11.193028 1.890982 11697996
10.677343 9.200240 0.177195 11697996
9.561527 10.724021 1.195675 11697996
11.145797 11.018710 2.575310 11697996
10.487688 9.751219 2.108186 11697996
8.983733 10.388377 3.889776 11697996
9.205709 10.608817 0.150385 11697996
10.279531 10.030942 3.647183 11697996
10.807223 10.592603 3.088664 11697996
9.566067 11.254820 3.645854 11697996
9.366566 9.209753 3.008321 11697996
10.020255 9.298982 1.220508 11697996
9.126379 8.960528 0.842123 11697996
10.387898 9.642247 3.121576 11697996
10.597860 11.089260 2.252016 11697996
10.167584 8.894906 0.534478 11697996
10.722350 10.076975 3.467365 11697996
9.111383 10.979817 2.169606 11697996
11.016500 10.122881 1.558153 11697996
10.665607 10.410458 0.599873 11697996
8.841532 10.826674 2.817144 11697996
8.819722 10.490317 0.262839 11697996
9.368885 10.166125 3.512514 11697996
9.063281 9.303244 2.122442 11697996
9.698463 9.763379 2.100097 11697996
10.358924 10.036280 1.903073 11697996
9.226724 9.360242 2.316429 11697996
9.492851 10.889753 3.381769 11697996
10.043801 10.009872 3.350743 11697996
10.660814 8.799425 0.855309 11697996
9.182362 11.248516 3.915054 11697996
9.429237 9.873830 0.969485 11697996
8.859336 11.192568 2.743702 11697996
10.143496 9.586330 3.428314 11697996
11.274599 10.352573 0.180352 11697996
9.301635 8.993634 2.722159 11697996
8.946546 9.314643 1.301910 11697996
9.018959 9.781644 1.605743 11697996
8.887184 9.678926 2.162305 11697996
11.084176 11.092894 3.619039 11697996
10.394410 9.876121 3.034514 11697996
8.753479 9.689413 3.474408 11697996
10.287906 9.590281 0.355908 11697996
10.457387 10.587153 1.917050 11697996
10.728108 9.616687 0.090676 11697996
11.140762 8.971249 3.973817 11697996
10.551929 10.453044 2.024049 11697996
10.238408 10.219273 0.742448 11697996
10.004341 9.162786 1.451543 11697996
11.111483 9.257010 2.215887 11697996
9.050034 11.162599 0.941317 11697996
9.040425 9.457056 3.328649 11697996
10.511977 9.962747 2.793100 11697996
