# .PCD v0.7 - Point Cloud Data file format
VERSION 0.7
FIELDS x y z rgb
SIZE 4 4 4 4
TYPE F F F U
COUNT 1 1 1 1
WIDTH 1292
HEIGHT 1
VIEWPOINT 0 0 0 1 0 0 0
POINTS 1292
DATA ascii
9.799514 9.893186 0.334878 11697996
9.650414 9.901593 0.278409 11697996
11.001857 9.957570 1.334056 11697996
9.257873 11.194794 0.647495 11697996
11.096666 11.071721 2.978148 11697996
11.095604 10.689397 1.303288 11697996
10.483601 10.542010 0.231381 11697996
10.030532 11.172956 1.482975 11697996
10.541494 10.242707 3.802514 11697996
9.409980 10.519840 0.593221 11697996
10.563904 9.409858 3.114782 11697996
10.256167 10.727718 0.772479 11697996
8.838744 10.024137 1.660925 11697996
11.119882 9.724225 1.522766 11697996
8.937902 9.299232 3.437460 11697996
10.305998 8.853267 3.618534 11697996
10.492919 8.830715 3.935529 11697996
9.286098 9.103835 2.116169 11697996
10.466016 10.816965 0.610132 11697996
10.674576 9.712556 0.438739 11697996
10.654365 9.884150 1.912665 11697996
9.439566 9.805691 3.632889 11697996
8.925638 9.159080 2.863404 11697996
10.325202 9.197931 2.856148 11697996
10.043746 11.057765 3.086321 11697996
10.350502 10.576354 3.479522 11697996
10.082407 10.046980 0.878905 11697996
9.952571 9.595201 0.422054 11697996
9.497911 10.990294 1.448611 11697996
10.108287 8.904206 1.147432 11697996
10.085429 11.186216 2.661915 11697996
10.080601 9.341648 2.267194 11697996
9.015222 8.847205 0.229808 11697996
9.284631 9.237841 2.067560 11697996
9.286462 10.904788 0.826259 11697996
11.170863 9.680972 1.924043 11697996
10.528258 11.252780 1.994618 11697996
9.166539 11.035521 0.578470 11697996
8.785888 11.257496 0.032323 11697996
9.406193 10.103414 0.763056 11697996
10.613604 10.512229 2.612873 11697996
10.767174 10.324920 1.045026 11697996
9.600483 10.987987 1.483657 11697996
9.045223 9.020739 1.539647 11697996
9.688407 10.994199 1.248586 11697996
9.748448 9.085429 0.603525 11697996
9.255165 8.968411 2.016536 11697996
10.946642 10.401482 0.050273 11697996
10.598599 9.267216 1.791156 11697996
10.022403 9.933626 1.116024 11697996
10.262868 10.491546 3.131102 11697996
9.938128 10.959531 0.347664 11697996
9.093667 10.573610 3.431822 11697996
9.640405 11.199508 3.371693 11697996
8.972099 10.548370 0.475235 11697996
10.138364 8.917437 3.260451 11697996
10.809917 10.325729 0.770055 11697996
10.099062 8.852231 2.447441 11697996
11.284739 9.076987 0.487461 11697996
9.515405 9.227790 0.624111 11697996
11.221919 8.993045 3.291882 11697996
9.176572 9.728509 0.778155 11697996
9.344261 9.246822 4.010263 11697996
10.487728 9.241912 2.560835 11697996
9.837499 9.405122 1.041025 11697996
10.045846 11.227238 2.908100 11697996
11.121412 10.390135 0.280563 11697996
10.799886 9.251578 1.006042 11697996
10.615396 10.673685 3.150242 11697996
10.575647 10.952058 1.430127 11697996
9.950558 9.036433 0.808964 11697996
10.729102 9.755664 0.201431 11697996
9.039357 9.946528 0.461469 11697996
10.814760 9.660653 1.397524 11697996
10.629331 11.205523 3.927545 11697996
10.638400 9.615410 3.773769 11697996
11.193291 9.920440 2.949603 11697996
11.080719 9.996069 3.085401 11697996
8.845609 10.884882 2.785921 11697996
11.072540 9.836517 2.753081 11697996
9.263127 9.771187 3.435141 11697996
9.308921 9.003663 3.447394 11697996
9.872430 10.735088 2.568455 11697996
10.904215 9.189885 0.177383 11697996
10.717573 10.502731 1.292281 11697996
9.889711 10.677716 2.367102 11697996
9.170414 10.422339 1.795907 11697996
10.183463 9.342252 2.200549 11697996
11.066941 10.190238 0.212120 11697996
10.047452 11.170485 2.993865 11697996
10.618751 11.009603 3.820088 11697996
9.759608 8.817962 1.543338 11697996
9.566061 9.437642 1.374356 11697996
10.694829 10.730011 1.614028 11697996
9.581388 10.483154 2.732859 11697996
10.229206 11.230161 0.306294 11697996
9.655067 8.852807 3.293981 11697996
9.525913 10.303416 3.173341 11697996
10.330753 9.108788 3.350604 11697996
9.399619 10.351931 2.981194 11697996
9.576948 10.646791 1.736739 11697996
9.102974 10.802487 2.145849 11697996
10.798453 10.519502 0.911963 11697996
10.821082 10.930795 3.701524 11697996
10.714334 10.955257 1.672144 11697996
11.206927 9.278658 3.330925 11697996
9.867282 11.230623 1.734477 11697996
8.850758 8.767538 2.465780 11697996
9.200501 10.089725 3.102873 11697996
10.583785 10.072323 0.226029 11697996
8.835126 10.194862 3.387568 11697996
10.301802 9.543298 0.818700 11697996
10.240854 8.987346 1.405735 11697996
9.626109 8.887111 3.605504 11697996
9.758572 9.824306 1.556950 11697996
10.866160 9.962124 3.058582 11697996
10.669220 10.311847 3.291237 11697996
10.804488 10.490179 0.657426 11697996
10.756968 10.232530 3.831924 11697996
11.074827 9.498223 1.664307 11697996
9.500903 10.790460 2.616703 11697996
10.237305 8.773775 3.116961 11697996
11.156984 9.489861 2.668894 11697996
10.283415 10.049444 2.085879 11697996
10.381623 10.043228 0.985647 11697996
8.883727 11.007915 3.457402 11697996
10.690576 9.916563 1.798834 11697996
9.485072 9.999389 2.153966 11697996
10.106152 10.698094 3.274311 11697996
9.274307 10.472193 1.870705 11697996
9.259512 9.739968 2.717116 11697996
9.804630 9.128316 3.553671 11697996
9.585578 11.067945 2.011454 11697996
10.639424 8.872587 1.299008 11697996
8.933526 11.127460 0.028546 11697996
11.017752 10.388152 2.067603 11697996
8.866440 11.158341 0.006298 11697996
9.283490 11.089872 1.608550 11697996
10.115048 9.187561 1.467836 11697996
9.216385 10.601726 0.540784 11697996
10.782047 10.934708 3.782534 11697996
10.221337 9.809633 2.681341 11697996
10.955476 10.466928 2.339521 11697996
11.128249 9.933904 2.096462 11697996
9.960630 10.208906 2.214116 11697996
10.002266 10.216692 2.042964 11697996
8.897893 9.524000 0.943045 11697996
10.392914 11.023120 2.183307 11697996
11.021733 10.945953 1.666363 11697996
9.976936 8.850823 0.510812 11697996
9.337087 10.401411 3.294401 11697996
11.183078 9.200216 3.174720 11697996
11.119540 10.600492 2.362241 11697996
10.862031 11.180665 1.215446 11697996
10.749958 9.581965 2.711410 11697996
9.992481 10.833398 1.080488 11697996
11.079185 10.064555 1.243054 11697996
8.977840 10.060585 2.576674 11697996
10.068543 10.399590 0.455819 11697996
10.837176 9.922605 3.421125 11697996
9.845595 10.346227 3.081952 11697996
10.114606 11.153826 1.567747 11697996
9.566813 9.914556 1.527034 11697996
10.301248 10.204319 3.232538 11697996
10.886168 10.663581 3.190251 11697996
10.726975 10.681466 0.880217 11697996
10.723343 10.070209 1.566268 11697996
9.727134 10.692167 4.014387 11697996
10.844613 9.556788 1.406242 11697996
9.083706 10.131007 3.885969 11697996
9.150745 9.556308 0.246225 11697996
10.976580 10.931971 1.622783 11697996
10.154695 10.275248 2.374050 11697996
9.577269 10.960519 1.785904 11697996
10.148138 10.710596 0.198563 11697996
10.877856 8.896089 0.748792 11697996
9.118131 10.886380 0.709168 11697996
11.037354 11.009471 0.514834 11697996
10.056673 10.176488 3.230419 11697996
10.399302 10.010156 0.177913 11697996
10.240662 8.928323 1.576336 11697996
9.291511 8.929915 1.474555 11697996
8.968869 10.327435 3.101658 11697996
10.489794 9.353025 1.539876 11697996
9.153079 9.358492 3.720725 11697996
9.490716 9.227819 0.588978 11697996
10.326832 11.073380 1.182224 11697996
10.478654 9.183024 1.512024 11697996
11.154218 10.352991 1.869526 11697996
10.633343 8.984589 3.678172 11697996
10.954427 10.836205 0.828322 11697996
10.850906 9.179519 1.483007 11697996
9.581860 11.160319 1.829578 11697996
8.946947 10.215192 1.830694 11697996
11.220120 10.148183 0.250470 11697996
10.012275 11.024321 3.613244 11697996
10.598135 10.339316 0.276962 11697996
8.853683 10.570960 0.599298 11697996
8.996551 8.870188 1.492427 11697996
10.912729 9.442036 0.180773 11697996
10.399774 9.496441 3.730318 11697996
10.216405 10.435347 0.748227 11697996
10.413188 10.761987 0.148160 11697996
10.804093 9.169092 1.207995 11697996
10.965610 9.827326 3.755756 11697996
10.466006 9.564490 1.620291 11697996
8.819277 8.968901 0.581873 11697996
10.185746 10.282701 3.691769 11697996
9.255961 11.028951 0.648220 11697996
10.779135 8.812554 0.541425 11697996
8.988231 10.700346 2.553120 11697996
10.704244 9.483799 3.116444 11697996
9.554159 9.775375 0.836749 11697996
11.003615 11.178872 2.364737 11697996
9.598471 10.527506 2.849815 11697996
9.664812 11.108915 1.299498 11697996
9.785602 11.133457 2.727659 11697996
10.337697 10.299453 3.010601 11697996
10.427138 10.651209 3.521560 11697996
10.903710 10.691588 1.452791 11697996
9.111183 10.882159 2.636156 11697996
10.842440 9.670572 0.375827 11697996
10.976736 10.546695 3.087257 11697996
8.798296 9.092771 4.000810 11697996
9.465256 9.438061 2.486912 11697996
10.744954 10.267047 2.456526 11697996
8.797627 9.458073 0.673220 11697996
10.259187 9.245914 3.752919 11697996
10.147459 9.098328 2.559409 11697996
10.358668 11.059225 2.594011 11697996
9.082754 9.497944 1.922693 11697996
10.067649 9.356446 2.229358 11697996
9.180024 9.399759 0.645552 11697996
11.030559 9.570023 3.954931 11697996
10.249858 10.726885 1.855841 11697996
11.013769 10.001800 2.433235 11697996
10.259707 10.946416 1.702616 11697996
9.677110 9.747421 3.331848 11697996
10.569750 8.906039 1.961962 11697996
9.293334 10.735909 1.517577 11697996
9.360526 9.253404 2.092456 11697996
9.131609 9.072504 3.240127 11697996
9.378792 10.507360 2.022452 11697996
11.116334 9.034474 2.325530 11697996
11.163102 9.888482 2.414946 11697996
9.333057 11.157779 2.927771 11697996
9.584641 11.226784 1.206928 11697996
9.080465 9.526050 3.189243 11697996
11.162540 8.930103 1.378975 11697996
10.198449 9.962861 1.693079 11697996
10.087353 10.477992 2.672196 11697996
9.344173 9.136795 0.716301 11697996
9.968014 9.421400 0.384255 11697996
9.087627 8.948299 1.377268 11697996
8.819904 10.327085 2.429593 11697996
9.754668 8.974387 2.975606 11697996
10.115869 10.973508 0.854277 11697996
11.051288 9.240262 4.016512 11697996
10.789587 9.016198 1.214456 11697996
9.649317 9.939822 2.850798 11697996
10.102262 9.368203 2.817374 11697996
10.101755 11.135093 3.070438 11697996
11.033594 10.841351 3.179890 11697996
9.424778 10.913487 0.999728 11697996
9.521462 10.774989 1.094930 11697996
8.778227 9.306560 0.054488 11697996
10.530824 10.789569 2.034022 11697996
10.450880 10.692589 2.448557 11697996
10.187979 9.113952 2.944544 11697996
10.302209 9.626250 3.731755 11697996
9.176094 10.732251 3.728429 11697996
9.702313 10.858683 2.581381 11697996
10.977896 9.904867 0.451257 11697996
10.625020 10.836602 3.367314 11697996
10.762297 10.272739 2.127109 11697996
10.369280 10.444484 0.324875 11697996
11.030767 10.436213 2.638298 11697996
9.671743 9.660364 2.605917 11697996
11.120549 10.950770 1.311192 11697996
9.402996 9.482986 3.115080 11697996
10.929891 8.925899 3.604498 11697996
11.203726 9.839164 1.974266 11697996
10.434635 10.305102 2.635643 11697996
9.657998 9.106730 0.444708 11697996
11.242188 10.420164 0.296848 11697996
9.965205 9.262003 0.996626 11697996
10.436541 10.368000 2.379205 11697996
10.823041 8.767047 1.193171 11697996
9.955425 9.062072 0.541762 11697996
9.709773 11.209836 0.802581 11697996
10.131865 9.191609 1.151979 11697996
8.878167 9.482957 1.569208 11697996
9.707100 8.908607 1.726695 11697996
9.819921 9.896551 1.073896 11697996
10.109853 10.820743 3.410827 11697996
10.301604 8.933749 1.101010 11697996
9.087380 10.200055 1.313485 11697996
11.105543 8.853973 2.038810 11697996
11.079199 9.301314 2.218938 11697996
11.072063 9.164947 3.967597 11697996
8.896272 10.407063 2.278368 11697996
8.878585 10.439936 0.516826 11697996
9.044074 11.091249 3.750804 11697996
9.193624 9.710402 0.815437 11697996
9.239244 10.780004 1.403916 11697996
9.323311 10.731455 1.332231 11697996
11.014722 10.237683 1.964856 11697996
10.377087 10.526289 2.542450 11697996
8.851372 10.234288 3.274214 11697996
9.503496 10.217603 3.565021 11697996
9.107649 10.936440 3.184817 11697996
11.153390 10.298512 0.709493 11697996
9.460029 9.062878 2.419092 11697996
9.128653 10.077278 1.071731 11697996
11.058405 9.497269 2.038755 11697996
10.789244 9.488864 0.257558 11697996
9.797301 10.392325 1.833623 11697996
10.257150 10.080947 1.226489 11697996
8.737724 10.404124 3.071054 11697996
10.325405 9.219604 1.404089 11697996
9.776112 9.302856 0.024611 11697996
9.240842 9.957214 2.836805 11697996
10.557549 9.570806 0.899489 11697996
10.181966 10.187813 3.554532 11697996
8.925997 11.074883 1.888774 11697996
11.021952 9.229910 1.316785 11697996
9.190343 9.757312 2.927073 11697996
8.903006 9.077946 2.149675 11697996
9.441627 10.250973 1.060384 11697996
11.081550 9.647787 3.519341 11697996
9.608462 10.082319 1.951974 11697996
10.596664 11.198164 0.062663 11697996
9.663201 9.635428 1.360172 11697996
10.762092 8.935632 3.667188 11697996
9.585320 10.429725 0.267078 11697996
10.781263 10.002296 2.882417 11697996
9.101866 10.070023 3.804096 11697996
8.999407 10.808230 3.466649 11697996
10.672943 8.903359 1.528475 11697996
9.179935 10.579792 2.741156 11697996
9.956411 10.018940 3.986913 11697996
10.135356 10.899689 2.311183 11697996
9.887214 10.141144 0.313856 11697996
8.897108 8.937545 2.171509 11697996
10.230493 9.809937 3.834240 11697996
10.636132 11.171505 2.220430 11697996
9.299647 10.110577 3.167502 11697996
9.851124 9.922968 2.652096 11697996
8.926206 10.247678 0.220973 11697996
10.787539 10.494684 1.903965 11697996
10.115832 9.670520 3.332966 11697996
10.963409 10.167477 3.388630 11697996
8.923504 9.217135 3.938825 11697996
9.301547 10.841814 3.318014 11697996
10.272902 10.745612 1.001931 11697996
10.799227 9.924109 2.256209 11697996
10.471704 8.747794 3.501936 11697996
10.831676 8.932658 0.886810 11697996
9.399496 10.264579 2.521299 11697996
9.121397 10.832257 1.119393 11697996
10.343058 8.831078 3.281862 11697996
9.678638 10.819220 2.917457 11697996
9.874126 10.547892 1.149296 11697996
11.119669 10.999277 1.457599 11697996
9.580482 8.834208 3.913486 11697996
10.743671 9.846729 2.274125 11697996
8.787360 9.320948 1.176424 11697996
10.819341 11.085043 3.767344 11697996
10.695903 10.912477 2.493537 11697996
9.532980 9.777991 1.204679 11697996
10.207869 9.235477 1.980195 11697996
9.787728 9.975945 2.737075 11697996
10.025025 9.715845 0.827565 11697996
10.338134 11.214659 1.898081 11697996
10.668349 9.159928 0.220803 11697996
9.515829 10.721198 1.169833 11697996
11.202201 11.010152 2.563763 11697996
10.520796 9.715677 2.094587 11697996
9.009836 10.399953 3.898705 11697996
9.198665 10.600002 0.159967 11697996
10.272858 10.030265 3.642593 11697996
10.768440 10.625577 3.071700 11697996
9.606897 11.213493 3.639933 11697996
9.414498 9.219731 2.977128 11697996
10.013851 9.288170 1.209679 11697996
9.147086 8.973948 0.822494 11697996
10.375648 9.656421 3.125518 11697996
10.582565 11.088209 2.283091 11697996
10.200107 8.914729 0.533197 11697996
10.707641 10.089854 3.473088 11697996
9.084471 10.975582 2.190394 11697996
11.020449 10.151109 1.562230 11697996
10.644015 10.424453 0.602178 11697996
8.849309 10.833800 2.863876 11697996
8.814425 10.469769 0.232701 11697996
9.379871 10.184596 3.545891 11697996
9.047848 9.327554 2.111310 11697996
9.625469 9.768925 2.065022 11697996
10.349027 10.035897 1.893273 11697996
9.229901 9.355353 2.308431 11697996
9.492433 10.845997 3.392300 11697996
10.035277 9.989554 3.355331 11697996
10.667597 8.805103 0.852368 11697996
9.209301 11.239308 3.887666 11697996
9.402144 9.882818 0.981538 11697996
8.870650 11.214934 2.700139 11697996
10.149030 9.611365 3.434965 11697996
11.218786 10.318653 0.184365 11697996
9.294719 8.996365 2.721768 11697996
8.939014 9.314832 1.305666 11697996
9.028762 9.793691 1.618163 11697996
8.891184 9.702916 2.163710 11697996
11.089810 11.086548 3.625413 11697996
10.421271 9.871752 3.015566 11697996
8.762262 9.728123 3.506811 11697996
10.279494 9.589782 0.345685 11697996
10.445834 10.586530 1.875851 11697996
10.733281 9.649969 0.083845 11697996
11.163890 8.941290 3.970534 11697996
10.562339 10.461040 2.056648 11697996
10.220009 10.231622 0.752231 11697996
10.000185 9.162473 1.475488 11697996
11.138660 9.280826 2.201038 11697996
9.048317 11.187781 0.928326 11697996
8.995311 9.467613 3.335888 11697996
10.497833 9.932945 2.751397 11697996
8.771169 11.221310 1.155050 11697996
10.563582 9.772429 3.063852 11697996
9.103799 10.668735 3.384133 11697996
9.118860 10.165796 4.029574 11697996
10.972907 10.243989 1.946838 11697996
10.916975 9.681524 1.044893 11697996
9.353271 8.940588 3.889163 11697996
8.771036 9.834863 2.462080 11697996
10.240726 10.432475 1.890880 11697996
11.082445 10.917497 3.541837 11697996
8.857449 9.457040 3.877012 11697996
9.898605 9.115487 3.461015 11697996
9.982428 9.656760 2.135245 11697996
8.913082 9.985742 2.417662 11697996
9.649925 9.948435 3.704801 11697996
9.927222 10.920547 2.662899 11697996
10.905551 11.083379 0.837827 11697996
9.340830 9.088531 0.052904 11697996
9.683710 10.879197 0.145385 11697996
10.187452 10.328380 3.536112 11697996
10.975705 9.073539 0.967935 11697996
9.312123 11.030658 1.752672 11697996
10.163873 9.222920 2.212807 11697996
8.781400 10.024047 0.736721 11697996
9.727426 9.875228 3.939778 11697996
9.945572 11.191180 2.381548 11697996
9.381838 10.929358 2.961550 11697996
10.660588 9.611575 2.214414 11697996
10.899736 9.067614 2.754733 11697996
10.896866 10.898305 1.782090 11697996
11.236925 9.895970 2.226453 11697996
9.663889 9.323088 2.494133 11697996
9.311143 8.842825 2.941834 11697996
11.035443 8.973469 2.701436 11697996
9.854399 8.828372 0.599327 11697996
9.816798 9.059593 3.563173 11697996
10.966578 9.755561 0.864622 11697996
11.148838 9.062330 3.692901 11697996
10.453561 9.159990 2.286085 11697996
10.754959 10.423035 1.408558 11697996
9.372563 10.559961 0.144082 11697996
9.394670 10.681550 2.746956 11697996
9.514127 9.318073 3.929524 11697996
9.052096 10.949621 2.220219 11697996
9.761070 9.887460 0.515824 11697996
10.560729 10.146794 1.781016 11697996
11.177398 11.040685 0.318217 11697996
8.916863 10.453953 2.827964 11697996
10.379218 10.081147 1.556732 11697996
10.618952 10.317290 0.774803 11697996
10.578797 9.660013 3.562211 11697996
11.059420 8.835481 0.315756 11697996
11.039666 11.203366 0.013510 11697996
10.760537 9.756666 3.545446 11697996
9.675471 10.800639 3.333932 11697996
9.516824 9.444201 2.211612 11697996
10.507456 9.583577 1.569945 11697996
11.027705 9.448756 1.950764 11697996
10.418297 9.989511 0.542914 11697996
9.793699 11.155962 2.398185 11697996
11.114964 8.884083 2.328524 11697996
10.951967 9.637773 2.558686 11697996
9.737399 10.902316 2.661384 11697996
9.155034 10.337445 0.872261 11697996
9.294620 8.830988 2.191190 11697996
11.084451 9.877076 3.038606 11697996
9.426185 10.886209 1.281770 11697996
10.274175 9.280985 1.488355 11697996
9.618757 10.440831 1.972927 11697996
9.713552 9.154817 2.237723 11697996
9.221177 9.144280 0.648047 11697996
10.526993 11.128451 3.442721 11697996
9.884973 9.797014 2.135023 11697996
10.164094 9.128271 3.284496 11697996
10.429268 10.109540 1.503766 11697996
9.252069 10.882991 1.186737 11697996
9.652494 10.272569 3.956911 11697996
9.785855 8.959408 3.527333 11697996
8.955911 9.517726 0.272954 11697996
10.616557 10.421185 0.098773 11697996
9.315555 10.462654 1.876425 11697996
10.536625 8.948565 2.435448 11697996
10.485494 10.322085 0.621578 11697996
9.940245 10.078675 3.637733 11697996
9.760538 9.733910 0.621883 11697996
11.216553 10.502146 2.820544 11697996
9.657419 10.620773 1.934764 11697996
9.157825 10.850506 3.778276 11697996
9.277488 11.036031 1.263255 11697996
11.098757 11.094290 3.822854 11697996
10.413504 10.200308 2.413226 11697996
9.851572 10.097266 3.643877 11697996
9.124870 9.097954 1.765924 11697996
9.576550 9.954931 3.264678 11697996
10.960264 9.264729 0.164196 11697996
11.091647 9.196386 0.664157 11697996
9.784993 11.086061 2.585552 11697996
11.007306 9.325335 1.445201 11697996
9.284903 9.900849 2.554171 11697996
11.211787 11.125885 0.860938 11697996
11.207917 10.575521 1.818126 11697996
10.342957 8.830236 3.736998 11697996
9.286303 9.732681 3.135868 11697996
10.324465 9.014090 0.859267 11697996
9.589282 9.444946 0.053245 11697996
10.063278 8.903281 3.121871 11697996
10.792424 10.401164 3.025113 11697996
8.763668 9.093320 3.483799 11697996
10.009207 9.579364 1.105491 11697996
10.324081 9.442450 2.344850 11697996
11.122983 9.602880 3.440268 11697996
9.847444 11.179540 3.256540 11697996
11.003224 10.545290 2.652856 11697996
10.697216 10.365604 0.629569 11697996
9.029037 9.084582 2.282470 11697996
10.192270 9.489617 3.786413 11697996
10.827287 10.706468 0.705079 11697996
11.268145 8.781418 0.942907 11697996
9.270896 9.566627 3.783860 11697996
11.201868 10.228957 1.600204 11697996
10.932617 9.386108 1.680232 11697996
11.005183 10.171620 2.408950 11697996
8.877534 10.801012 1.266638 11697996
9.603575 9.827337 0.353316 11697996
10.286233 8.970197 3.243322 11697996
9.549909 8.829743 1.298550 11697996
11.007576 9.131862 1.157544 11697996
10.331887 8.815053 0.444266 11697996
9.914050 9.667313 2.790243 11697996
10.842175 9.785527 3.950794 11697996
9.047153 9.286944 3.368141 11697996
10.061604 10.865993 0.765865 11697996
10.132093 8.806751 3.068333 11697996
10.879793 9.296273 3.637501 11697996
9.493548 9.741903 3.403649 11697996
9.501628 8.977024 3.453534 11697996
10.140222 9.206304 1.311793 11697996
10.552114 9.061157 1.752254 11697996
9.850128 10.905953 3.614449 11697996
11.102602 9.671624 3.523913 11697996
9.776160 10.926542 3.282819 11697996
10.057980 9.498907 0.504553 11697996
9.196163 9.299820 2.862306 11697996
10.455547 8.979769 3.112342 11697996
9.855120 9.578167 0.425093 11697996
8.787508 10.867567 3.312025 11697996
10.337321 9.635878 0.707533 11697996
10.507791 10.897592 1.693687 11697996
9.730622 10.720537 1.935767 11697996
9.277678 10.187265 2.082587 11697996
10.534074 10.666773 3.663002 11697996
10.094538 9.895000 3.132027 11697996
9.929733 9.648956 1.609971 11697996
9.350832 9.871408 3.446574 11697996
9.914856 11.148674 3.820241 11697996
8.974052 11.185316 0.986548 11697996
10.564503 10.090848 0.120554 11697996
10.534865 10.338394 1.759889 11697996
10.067544 9.095171 0.811023 11697996
9.442144 9.552876 2.586588 11697996
11.107357 10.980688 1.025194 11697996
10.614567 11.126053 1.070904 11697996
9.618911 10.432789 0.998898 11697996
8.859713 11.162225 1.627163 11697996
10.180842 10.057778 2.956840 11697996
8.965791 9.244562 2.008010 11697996
11.009277 9.018049 0.638457 11697996
9.806536 8.787242 0.759302 11697996
9.182923 10.434276 1.647261 11697996
10.858507 9.258852 0.549859 11697996
9.833645 9.595232 2.780894 11697996
9.766245 10.207705 0.264353 11697996
11.005465 10.453665 0.399653 11697996
9.493424 10.115657 1.509460 11697996
8.779593 11.104107 2.488303 11697996
10.303507 9.488202 0.528484 11697996
10.655605 8.868488 0.200848 11697996
11.231005 9.430871 2.627141 11697996
9.496523 10.732486 1.210865 11697996
10.221272 9.022083 1.025046 11697996
10.717606 10.835891 1.693018 11697996
9.504215 10.004509 2.371454 11697996
10.379703 9.123161 0.481269 11697996
10.623412 9.068345 2.481543 11697996
10.750976 10.139940 1.190406 11697996
9.355738 9.195719 1.762674 11697996
9.863990 10.256715 2.043319 11697996
9.158572 9.066788 1.667861 11697996
9.602431 9.006421 2.458946 11697996
9.479591 11.221704 1.612519 11697996
11.175989 9.615541 1.524460 11697996
9.662749 8.846395 0.377276 11697996
10.328864 10.656039 2.655573 11697996
10.998407 8.757734 2.023206 11697996
9.539173 9.054567 0.077912 11697996
9.998223 10.332953 2.663108 11697996
9.450759 9.644891 1.592507 11697996
9.409575 10.708244 2.858463 11697996
9.955488 9.784522 1.020431 11697996
9.156828 10.245322 2.853284 11697996
9.423557 10.658980 0.811443 11697996
10.076523 9.742503 3.947496 11697996
9.086579 10.586300 2.260581 11697996
8.809987 8.929749 1.166358 11697996
10.614878 9.175263 1.343098 11697996
10.068675 9.713058 2.248828 11697996
11.125874 10.357235 0.225275 11697996
11.092324 10.305092 3.528506 11697996
9.076059 10.196925 1.797737 11697996
9.896300 10.850938 3.226195 11697996
10.699389 10.694994 1.188250 11697996
11.183232 10.109522 1.957015 11697996
10.916105 11.223270 1.329764 11697996
10.719471 11.092260 3.790985 11697996
9.872447 10.228193 1.956390 11697996
11.218166 10.392877 0.458763 11697996
10.526012 10.034223 2.073619 11697996
10.115768 9.789897 3.680258 11697996
9.393729 10.705247 2.063962 11697996
9.609703 10.305651 2.695041 11697996
9.820378 9.627513 0.952486 11697996
9.107107 8.877891 3.351317 11697996
9.478057 8.959199 0.074570 11697996
10.756339 10.009139 2.268487 11697996
9.518579 9.175458 3.803270 11697996
9.940753 9.883636 2.142686 11697996
9.388499 10.549985 0.424562 11697996
9.673695 10.206934 2.069531 11697996
9.370721 11.106655 3.851254 11697996
9.915491 9.968543 2.232650 11697996
8.966689 10.260572 0.948182 11697996
9.611139 9.617632 2.321696 11697996
11.137718 10.450530 1.209107 11697996
10.905752 10.441936 1.610764 11697996
9.409541 9.382834 0.062414 11697996
9.927538 10.023481 1.242652 11697996
11.194623 9.866802 1.108906 11697996
9.754146 9.318970 0.005362 11697996
9.011664 9.511502 1.809893 11697996
10.861304 9.464776 0.647474 11697996
9.663346 10.019291 1.420810 11697996
9.672356 10.820762 0.257229 11697996
11.235457 10.296415 3.980403 11697996
8.781960 9.738135 2.600632 11697996
10.007126 10.801627 3.160775 11697996
10.100734 10.016909 2.289316 11697996
11.142254 9.852767 2.132336 11697996
9.805484 10.161459 3.510969 11697996
8.951756 9.197595 2.399843 11697996
9.674546 10.424614 2.825626 11697996
10.533775 9.859889 3.814124 11697996
10.577230 9.579044 2.831011 11697996
9.019216 9.508038 2.931455 11697996
10.845119 11.240147 2.803349 11697996
11.219592 10.681489 0.456665 11697996
11.266287 8.740298 1.779142 11697996
9.830219 9.974053 2.497961 11697996
10.464577 8.910965 3.623283 11697996
10.649722 9.623304 1.665100 11697996
10.307391 8.913023 1.254605 11697996
9.720714 10.452395 3.810599 11697996
10.588646 10.444166 1.291353 11697996
10.139486 10.309864 3.657136 11697996
10.174842 9.206268 0.615768 11697996
9.831632 9.067210 1.012941 11697996
10.604617 10.662543 1.746412 11697996
9.916042 10.174428 0.475910 11697996
10.108029 10.370358 3.700102 11697996
10.226993 9.625565 1.564103 11697996
11.055955 9.466879 3.309911 11697996
9.792328 8.781192 3.504845 11697996
9.386147 9.810815 1.309524 11697996
8.914971 8.940084 3.447696 11697996
10.502924 10.518682 1.286430 11697996
10.247021 10.126549 0.168133 11697996
8.999676 10.432993 2.966923 11697996
10.692424 8.828921 1.089355 11697996
8.987415 9.026080 3.296076 11697996
9.748526 11.086411 2.901639 11697996
9.759861 10.917317 0.221421 11697996
11.033895 9.470483 2.027889 11697996
10.522844 10.105857 3.043707 11697996
9.232128 10.627994 2.787143 11697996
11.148116 10.925834 0.178877 11697996
10.096250 9.188002 1.872147 11697996
10.593596 10.253056 2.262343 11697996
11.205325 9.833877 3.105174 11697996
9.014243 10.062174 2.476373 11697996
10.925496 9.101664 1.231408 11697996
11.131927 10.813188 0.162405 11697996
10.440258 10.965757 3.271435 11697996
10.684779 10.836938 3.019468 11697996
9.482708 9.308886 1.078509 11697996
8.879617 9.888344 2.716149 11697996
10.020548 10.583354 3.682156 11697996
10.290664 10.430638 0.978705 11697996
10.306659 9.401955 2.801440 11697996
11.133245 10.995384 2.731522 11697996
9.559233 8.838778 1.097218 11697996
9.460095 9.583752 1.495208 11697996
10.157778 11.141399 2.571798 11697996
9.102797 9.242825 1.725972 11697996
9.385968 8.931705 2.921675 11697996
9.675810 9.739882 2.024639 11697996
10.707574 11.084062 3.685850 11697996
11.116572 10.393811 3.786056 11697996
10.942512 9.198420 0.035384 11697996
11.146298 10.423798 3.168523 11697996
8.993697 9.029368 1.204274 11697996
8.934870 10.278950 3.070501 11697996
8.998019 9.500795 1.013911 11697996
9.334666 9.577945 2.650062 11697996
10.047721 9.158496 3.131696 11697996
8.756715 8.933936 0.442390 11697996
10.151062 10.352864 1.284141 11697996
8.804650 10.253716 0.921539 11697996
9.502700 10.147589 0.404883 11697996
9.595304 9.884130 1.790110 11697996
9.312970 9.130364 1.370564 11697996
9.984412 9.017764 0.947409 11697996
9.361132 9.550891 0.372755 11697996
9.285159 9.588617 0.292357 11697996
9.553603 10.361423 1.917947 11697996
9.075233 9.837476 3.737066 11697996
9.484371 10.004526 0.529589 11697996
9.773807 10.369607 0.663559 11697996
10.788828 11.152277 1.669466 11697996
11.007591 10.234765 0.726763 11697996
9.344819 9.095777 2.442658 11697996
10.030757 9.426003 1.648448 11697996
9.509840 10.068146 2.807084 11697996
10.082491 10.529340 2.638150 11697996
10.946469 9.718883 2.187816 11697996
10.874188 9.572962 0.717052 11697996
9.478928 11.228176 3.643246 11697996
11.209071 10.312255 0.533011 11697996
10.954875 10.513857 3.553539 11697996
11.023912 10.110858 2.369540 11697996
9.428336 8.792867 1.770691 11697996
10.408605 11.079297 0.488995 11697996
9.703412 9.001029 2.041692 11697996
9.647940 9.580555 2.020290 11697996
10.309218 9.604319 1.250396 11697996
9.975799 10.535584 1.347412 11697996
10.387719 9.680729 3.544497 11697996
11.203276 8.900392 0.823905 11697996
10.181805 9.174491 2.872530 11697996
9.512063 9.267150 2.130399 11697996
8.755012 9.365656 0.390478 11697996
9.716911 9.516025 0.675902 11697996
9.043550 10.133165 1.907276 11697996
11.076216 10.275911 1.543077 11697996
9.394794 10.103972 0.686721 11697996
10.105181 8.783685 0.042288 11697996
9.993995 10.464352 3.026459 11697996
9.166626 9.249271 2.552866 11697996
9.326849 9.324986 0.487717 11697996
10.770779 11.175494 3.962100 11697996
9.192400 10.297467 1.518254 11697996
9.898960 9.498604 3.577616 11697996
8.779305 9.407055 2.239807 11697996
10.333861 9.654495 2.769573 11697996
9.750600 11.242238 3.808788 11697996
10.345242 10.611245 2.999506 11697996
10.601299 10.956382 3.959832 11697996
11.229066 9.092634 2.757265 11697996
9.852778 9.396971 2.441336 11697996
10.304945 10.709796 3.266018 11697996
9.498132 10.201789 3.484197 11697996
9.264382 9.940127 0.115684 11697996
10.263110 10.803029 1.671843 11697996
10.733085 10.261816 2.022123 11697996
10.939236 10.608917 1.058796 11697996
10.139933 8.859203 1.856362 11697996
9.979094 10.347416 1.252488 11697996
11.124720 9.623292 1.927910 11697996
10.496850 9.477283 3.643438 11697996
9.971057 10.071797 0.923297 11697996
10.845729 10.940799 1.229697 11697996
10.252584 9.814672 2.566486 11697996
9.725552 9.173940 3.352592 11697996
9.723371 10.918693 2.215205 11697996
9.458037 10.373255 0.859031 11697996
10.859939 10.614933 3.410825 11697996
9.270875 9.588822 2.325472 11697996
9.034942 10.790438 0.002593 11697996
9.404227 10.923642 1.940062 11697996
9.896782 8.833439 3.061898 11697996
8.831124 9.827816 2.011002 11697996
8.978641 10.643190 0.337245 11697996
8.807657 9.305476 1.226145 11697996
10.904499 9.372333 1.046614 11697996
10.904522 10.446751 3.042990 11697996
9.079192 10.886699 3.788521 11697996
10.924763 9.497010 2.991004 11697996
10.903028 8.735747 0.322208 11697996
9.006936 10.345280 1.059039 11697996
10.429455 8.845182 1.939536 11697996
9.372824 9.293550 0.077500 11697996
9.587806 9.925853 1.269316 11697996
10.730584 8.909019 1.104182 11697996
9.094725 10.566448 0.973386 11697996
10.560694 10.171792 0.442298 11697996
11.021067 9.314151 1.872437 11697996
9.064007 9.865672 1.973105 11697996
10.125620 11.092504 2.786230 11697996
8.845254 9.182321 0.635082 11697996
9.512676 10.860313 3.747480 11697996
9.260056 9.630215 2.255048 11697996
9.299932 10.440016 0.183666 11697996
10.707459 9.890446 2.495493 11697996
9.533984 8.826044 3.744822 11697996
10.930086 10.003287 1.479026 11697996
9.068614 10.397262 1.691155 11697996
9.345082 9.370733 2.047245 11697996
10.254472 8.820220 3.909059 11697996
10.061834 9.188710 3.260161 11697996
10.732368 10.070786 3.226359 11697996
11.233755 10.615273 3.822876 11697996
9.290036 9.294910 2.140346 11697996
9.520310 10.941597 3.261145 11697996
10.079743 9.350609 0.450036 11697996
9.499054 10.432565 2.375018 11697996
10.972473 8.896134 1.143859 11697996
9.671993 10.374711 1.539449 11697996
10.522391 10.418295 1.551077 11697996
9.879124 9.068845 2.532854 11697996
9.321813 10.527227 2.076028 11697996
9.212030 10.034560 0.681460 11697996
9.653779 10.442374 3.784448 11697996
10.281741 9.822384 3.617406 11697996
9.990773 9.301660 2.012947 11697996
10.632340 9.839427 0.424816 11697996
11.251538 10.564014 3.173395 11697996
10.710280 9.636685 3.245535 11697996
10.252548 10.350390 0.754976 11697996
9.632191 10.338683 2.659158 11697996
10.999861 11.144583 3.952412 11697996
11.100951 11.200301 1.989340 11697996
9.194730 9.036254 0.239914 11697996
9.770057 9.774920 3.596083 11697996
9.312248 11.092201 1.608988 11697996
8.915830 10.597151 0.443394 11697996
11.190030 11.017326 2.698333 11697996
8.894234 10.665688 1.597386 11697996
10.666107 9.428930 1.036772 11697996
10.855026 9.539835 3.174667 11697996
10.164724 10.225094 0.931254 11697996
9.066068 9.663553 2.364511 11697996
11.096849 9.125205 0.548030 11697996
9.381457 8.852675 2.176077 11697996
10.897134 10.883877 2.334138 11697996
10.461104 10.732540 3.753266 11697996
9.486248 10.936228 0.972735 11697996
9.263909 10.264536 3.529994 11697996
10.345882 9.493372 2.914651 11697996
10.591437 10.459674 3.636314 11697996
8.876823 11.140541 1.196614 11697996
9.539600 10.205818 1.119761 11697996
9.636056 9.992591 3.164741 11697996
10.697127 10.378483 3.248472 11697996
10.144628 9.567861 0.185172 11697996
9.047458 8.898598 0.047772 11697996
9.503085 10.243505 1.425895 11697996
10.627041 9.557384 3.534321 11697996
9.092476 11.185793 0.560799 11697996
9.555161 11.119734 0.477685 11697996
10.717129 8.840815 1.563262 11697996
10.428761 10.816564 2.138855 11697996
11.234092 10.927314 3.085710 11697996
11.141451 8.905213 2.577162 11697996
9.866693 10.781531 3.917055 11697996
9.453723 10.419787 3.932943 11697996
9.112515 9.187938 3.172651 11697996
9.148894 10.567965 3.416154 11697996
10.968942 11.041365 2.836792 11697996
9.602448 10.468663 2.086292 11697996
9.364703 10.010355 3.732401 11697996
10.937545 9.710660 3.796354 11697996
9.632686 9.056178 0.421089 11697996
9.074871 9.193663 0.536197 11697996
9.495570 9.044635 1.338843 11697996
9.721008 10.320252 3.272594 11697996
10.852875 9.338619 0.744455 11697996
9.024309 10.169348 1.971260 11697996
9.497773 10.565939 1.123181 11697996
10.109818 9.262194 2.764652 11697996
9.464266 10.189533 -0.016618 11697996
9.388241 9.180248 0.243815 11697996
10.836246 9.885548 1.492223 11697996
9.854542 10.751753 0.165607 11697996
9.005356 9.704311 0.884459 11697996
10.189125 9.452807 2.059445 11697996
10.889806 9.245645 1.059227 11697996
8.912810 10.230273 1.840868 11697996
8.841247 10.999686 3.614877 11697996
10.582253 9.113937 2.352424 11697996
9.286047 10.911660 1.798660 11697996
10.592170 9.917607 0.538652 11697996
9.460327 9.139158 3.751026 11697996
10.311708 10.258872 0.043106 11697996
10.718131 9.015545 3.700739 11697996
9.121927 11.120177 3.982615 11697996
10.238091 9.270116 1.959602 11697996
8.803217 8.996308 3.668644 11697996
10.303271 9.255889 2.650541 11697996
9.758238 9.970304 3.937360 11697996
8.761051 9.817432 1.482884 11697996
9.258943 10.473236 2.138538 11697996
9.663516 10.703798 2.774382 11697996
9.267478 9.869843 2.147468 11697996
8.773371 10.272104 3.220286 11697996
9.305130 10.977732 0.103398 11697996
8.813984 9.450358 2.463559 11697996
10.854986 9.795938 1.523134 11697996
10.247017 9.815584 1.757422 11697996
10.429008 10.063353 2.342058 11697996
10.171878 9.190104 2.930917 11697996
10.123398 10.318729 3.506261 11697996
9.132258 10.112677 0.998007 11697996
9.372162 8.855833 2.581095 11697996
11.245519 11.134624 1.221855 11697996
9.113013 10.187032 2.620181 11697996
9.646622 9.737720 2.748225 11697996
9.372604 9.789612 1.713460 11697996
9.369785 10.832348 3.594977 11697996
10.702672 8.853657 2.810971 11697996
10.141360 9.316373 1.583593 11697996
10.922565 10.711125 3.838356 11697996
9.128534 9.455045 3.345728 11697996
10.080912 9.645730 0.869972 11697996
9.236265 10.958803 0.424412 11697996
9.010151 10.997740 1.932568 11697996
10.944666 10.830564 1.352393 11697996
9.889397 9.249347 3.184972 11697996
10.369249 9.807685 1.389756 11697996
10.308503 9.880472 3.920130 11697996
9.455315 9.088855 3.587035 11697996
9.744911 10.456923 3.210133 11697996
9.000564 9.810827 2.817716 11697996
10.334250 10.995604 0.420717 11697996
10.125421 10.978587 2.997723 11697996
8.994649 9.490479 0.262029 11697996
8.775994 10.154159 0.985217 11697996
9.669250 10.645082 0.579261 11697996
10.363529 10.168003 3.271001 11697996
9.139930 10.256130 3.695430 11697996
11.199333 10.312813 2.498888 11697996
10.931304 10.017944 2.821869 11697996
10.179405 10.009620 0.097659 11697996
10.536417 9.469425 1.665705 11697996
9.090412 9.120629 0.497431 11697996
8.894152 10.901165 0.523399 11697996
9.065595 10.217686 2.242767 11697996
9.790530 10.647076 2.025472 11697996
10.941095 9.397675 3.403578 11697996
8.994292 10.748835 2.022171 11697996
8.829362 10.117090 2.782515 11697996
9.764967 10.092319 0.613038 11697996
10.754028 10.704185 0.484441 11697996
9.373234 10.085651 3.230473 11697996
8.781105 8.974218 1.694463 11697996
9.624413 9.739964 1.424442 11697996
9.597427 11.115275 2.485714 11697996
11.043198 9.859046 2.836278 11697996
9.451122 9.417968 2.582672 11697996
9.313288 9.603694 1.683628 11697996
10.551095 11.210194 0.388148 11697996
9.244919 8.905622 3.415874 11697996
10.569083 9.804806 2.325782 11697996
9.993828 10.654910 1.557361 11697996
9.788239 11.127357 2.145654 11697996
10.588315 11.023083 2.295119 11697996
9.781070 11.086266 3.429056 11697996
10.135622 8.952298 0.092599 11697996
9.797897 10.466099 1.618666 11697996
8.829184 9.788667 2.779461 11697996
10.141445 9.884455 2.380339 11697996
10.956524 9.916225 1.855410 11697996
10.105956 10.693976 1.092204 11697996
9.250498 9.016220 3.223701 11697996
9.610488 9.647290 0.801638 11697996
9.826744 10.148728 1.006851 11697996
10.051370 9.914324 2.434492 11697996
11.219002 10.534311 3.313337 11697996
9.616597 9.954374 1.900999 11697996
10.677591 8.824719 0.206484 11697996
11.165773 9.351392 0.000632 11697996
11.136713 9.342357 0.834149 11697996
9.755317 10.267439 1.539480 11697996
10.357571 8.953770 0.666751 11697996
11.124563 8.859579 2.786762 11697996
11.228884 9.424889 3.254936 11697996
11.089489 9.213610 2.087171 11697996
11.177238 10.756628 3.932468 11697996
10.530066 9.729174 2.580722 11697996
10.103599 10.172061 0.338981 11697996
10.803551 10.447765 1.378429 11697996
9.492086 8.797552 1.563348 11697996
9.333682 9.927156 3.431366 11697996
10.722402 10.505831 2.079029 11697996
10.871911 8.829109 2.311200 11697996
9.042598 8.858253 3.386357 11697996
10.232496 10.764754 0.420438 11697996
11.118473 10.959569 3.471502 11697996
10.663460 10.456133 3.022964 11697996
9.362447 10.014371 3.415754 11697996
10.404702 11.091178 0.779811 11697996
10.081621 9.359410 0.858185 11697996
10.566764 10.351027 1.708293 11697996
10.009482 10.161212 3.401988 11697996
9.611908 10.010608 2.703089 11697996
10.513375 9.148651 1.177832 11697996
9.972588 9.588804 1.768851 11697996
10.760444 10.240743 1.747689 11697996
10.689507 11.053883 0.932216 11697996
11.090893 9.833706 2.078510 11697996
10.477686 10.154951 1.505502 11697996
11.054529 9.310057 3.885226 11697996
9.194338 9.706728 2.593599 11697996
10.495934 10.304472 2.297049 11697996
9.568165 10.792393 1.736565 11697996
10.534855 9.489204 3.929244 11697996
10.301672 10.343731 1.582165 11697996
9.279093 9.765845 0.312092 11697996
9.051565 10.658692 2.499016 11697996
11.055858 10.984668 2.999047 11697996
9.300137 9.536231 0.109166 11697996
9.368222 10.523137 2.596548 11697996
9.267052 10.076156 -0.004663 11697996
10.364626 9.605445 0.269036 11697996
9.916985 11.013428 1.118009 11697996
10.113135 9.889956 0.995005 11697996
9.973017 9.871835 1.810515 11697996
8.956877 9.021399 0.488145 11697996
10.200028 10.367652 3.624785 11697996
10.826076 10.474329 1.548033 11697996
9.299384 10.568438 3.041946 11697996
8.970302 9.291599 3.921980 11697996
9.285423 9.356751 3.744568 11697996
10.478964 10.326823 0.123112 11697996
11.202454 11.053642 2.780956 11697996
10.158946 10.437008 3.993077 11697996
9.008779 11.043673 2.413075 11697996
9.964063 10.565312 1.088766 11697996
10.730740 10.395508 1.003352 11697996
10.286556 9.870662 1.935809 11697996
9.255616 9.846646 3.117091 11697996
10.859412 9.998026 1.288437 11697996
11.219431 8.837341 0.154875 11697996
9.282573 9.572378 1.921303 11697996
9.435809 10.268735 3.944132 11697996
10.615357 10.940954 2.764609 11697996
9.770397 9.411050 2.251496 11697996
11.174854 10.734506 1.640186 11697996
9.092237 10.778109 0.262970 11697996
9.642897 9.698174 0.139238 11697996
9.736184 9.043954 2.264559 11697996
9.825961 11.060112 3.571687 11697996
10.656976 9.151168 3.458382 11697996
9.458433 10.168324 1.886368 11697996
9.665076 9.848904 3.433019 11697996
10.214795 9.597104 3.185708 11697996
10.885865 8.822557 0.604498 11697996
10.133960 9.793236 1.617064 11697996
9.463190 9.003113 3.384984 11697996
10.099784 10.828798 2.268764 11697996
10.129468 9.911517 3.369135 11697996
9.803957 9.073061 3.048179 11697996
11.160665 9.509782 1.207139 11697996
9.207857 9.634323 2.725556 11697996
9.126816 10.066011 1.828581 11697996
11.056561 10.300159 3.424898 11697996
9.054456 9.572087 0.194013 11697996
10.610314 9.785316 1.379466 11697996
10.958110 10.131324 0.069136 11697996
10.402660 10.177686 2.316556 11697996
10.434096 10.586866 2.573142 11697996
10.931231 9.818950 3.770128 11697996
9.425278 10.754932 3.102130 11697996
8.787333 9.798664 3.709416 11697996
10.429076 9.062925 0.415573 11697996
8.850715 9.604959 0.132293 11697996
10.952421 9.905922 1.925200 11697996
10.410545 10.339911 1.408709 11697996
9.027115 9.183232 1.529633 11697996
11.020573 8.964695 1.417655 11697996
9.171961 10.455078 1.180756 11697996
9.580211 11.040518 0.748404 11697996
10.653110 10.968648 2.859237 11697996
11.127788 10.774446 0.141372 11697996
9.134237 8.879640 0.242894 11697996
9.895357 9.988142 3.827131 11697996
10.469316 9.534942 2.700177 11697996
11.038165 10.852228 2.942653 11697996
9.988286 10.787608 0.092304 11697996
10.324140 9.063175 0.269780 11697996
10.411370 10.941633 0.968782 11697996
8.747207 9.463726 0.789683 11697996
9.306798 11.055383 1.249353 11697996
10.731629 8.963436 1.533424 11697996
9.974686 10.627483 0.421338 11697996
10.704090 9.822624 1.733821 11697996
10.264608 10.079280 3.904752 11697996
10.601805 9.389619 3.059959 11697996
10.131580 11.147915 0.262334 11697996
9.018443 9.894407 1.720634 11697996
9.584710 10.114459 3.798803 11697996
9.743008 10.811313 1.260264 11697996
11.018832 11.013638 0.421660 11697996
10.251496 9.238805 2.165351 11697996
8.767154 9.114967 1.840082 11697996
8.785053 9.209149 1.237930 11697996
8.869063 9.558618 2.073080 11697996
9.360827 10.816219 1.797311 11697996
9.009214 10.298864 2.088726 11697996
8.968510 10.645795 1.984966 11697996
9.164109 10.557469 0.348108 11697996
10.109908 11.159983 2.677990 11697996
9.297292 10.171372 3.522213 11697996
11.115821 10.576359 2.682311 11697996
10.724237 9.778626 0.677272 11697996
9.631331 8.998244 2.064944 11697996
10.374278 10.295931 3.022048 11697996
10.206931 9.189003 1.893962 11697996
11.232373 9.853488 2.005327 11697996
11.054872 9.220378 2.192672 11697996
9.965416 11.059155 1.728562 11697996
11.209038 9.512401 1.504848 11697996
9.994966 9.166655 1.387758 11697996
10.654432 10.578778 3.144139 11697996
11.105081 11.179793 3.728796 11697996
9.917371 9.183993 3.643417 11697996
11.209253 11.154582 0.593988 11697996
9.180132 9.256766 3.870021 11697996
10.823320 10.262605 2.587671 11697996
10.132332 10.188725 0.349787 11697996
9.843880 10.249264 0.569677 11697996
10.386902 8.735807 0.296961 11697996
10.453317 9.624907 2.672134 11697996
9.464843 9.177740 2.346109 11697996
8.751684 10.490108 3.935486 11697996
10.880466 10.103301 2.866944 11697996
10.568562 11.039519 3.485280 11697996
9.119182 9.697858 3.609793 11697996
8.806085 9.476817 0.884329 11697996
9.291639 10.828467 2.016483 11697996
10.154325 9.559089 2.961765 11697996
9.664068 9.847895 0.648732 11697996
11.064012 9.828157 2.119759 11697996
10.072228 10.290485 2.301570 11697996
10.764706 11.139552 1.851793 11697996
10.181575 9.651418 3.221377 11697996
8.800130 9.204807 0.251907 11697996
10.769269 9.814331 3.108885 11697996
11.171278 8.819200 0.997618 11697996
9.728995 10.482920 2.692362 11697996
10.919893 10.539545 1.828542 11697996
9.823332 10.801666 3.948227 11697996
10.672545 10.406319 0.126507 11697996
11.057215 9.008193 1.017004 11697996
10.205853 9.209380 0.997597 11697996
10.225087 11.143580 2.437790 11697996
9.507316 11.026613 0.736585 11697996
9.554291 10.617967 0.740529 11697996
9.046734 8.960643 1.462581 11697996
10.773844 9.789470 2.768209 11697996
10.447461 10.011806 2.189922 11697996
10.570715 8.861944 2.470854 11697996
9.019471 11.167280 1.074910 11697996
9.584130 10.191512 3.544174 11697996
9.657465 10.946943 2.897392 11697996
10.578259 9.183536 0.968018 11697996
8.828223 9.130866 1.162843 11697996
11.115552 10.713908 1.701245 11697996
8.931112 9.632891 3.314106 11697996
10.675243 9.136667 2.250089 11697996
10.689577 9.861359 3.858909 11697996
8.882386 9.431520 1.887941 11697996
9.978191 9.293210 1.348159 11697996
10.600438 9.899337 0.755145 11697996
9.559028 10.766925 3.148074 11697996
9.245031 9.569022 3.043252 11697996
10.169722 9.454450 2.881027 11697996
11.223694 9.856215 0.520247 11697996
10.851623 9.489076 0.483429 11697996
10.002342 11.169831 0.771856 11697996
9.613442 9.375665 0.548583 11697996
9.479776 9.588049 3.601234 11697996
9.755824 9.367995 3.475785 11697996
9.856223 9.986814 3.151258 11697996
9.225696 9.744498 2.392564 11697996
9.581941 9.345750 1.826862 11697996
8.797605 10.009479 0.771349 11697996
10.837554 10.531525 0.088833 11697996
8.871549 10.716880 0.374298 11697996
11.087031 11.199654 3.659132 11697996
10.406284 9.270702 1.156646 11697996
10.367090 8.848179 3.457015 11697996
11.140426 11.250808 3.818969 11697996
10.982188 9.815232 1.169057 11697996
11.059080 9.325223 2.887518 11697996
10.025108 10.896599 3.827938 11697996
9.993653 9.941295 2.976242 11697996
10.647691 11.008405 1.466728 11697996
9.912370 10.918456 0.920907 11697996
9.793227 9.637585 2.273462 11697996
10.732336 9.331744 3.278242 11697996
9.457849 9.689914 0.255824 11697996
10.515943 9.115530 2.407152 11697996
8.840507 9.333277 1.307037 11697996
10.524149 9.522176 3.680447 11697996
11.097995 9.089628 1.256807 11697996
10.295290 8.792575 1.699069 11697996
10.905505 10.739175 2.730834 11697996
9.601470 8.985207 1.283630 11697996
8.803442 9.678178 0.390299 11697996
8.832651 9.092129 3.166777 11697996
10.548220 10.712363 2.050849 11697996
10.441065 9.860137 1.401513 11697996
10.389186 8.972386 3.738655 11697996
10.369053 10.703918 2.361269 11697996
11.036762 8.814402 0.146549 11697996
9.015226 9.484989 2.720152 11697996
10.501930 9.739036 2.949541 11697996
10.773716 10.234578 3.087586 11697996
10.399978 9.013970 1.384753 11697996
10.134550 9.657261 2.010456 11697996
9.511905 11.034408 1.919205 11697996
9.746987 9.498694 1.384684 11697996
9.288643 10.506293 3.819216 11697996
10.905774 9.684011 0.677634 11697996
9.788173 10.576382 2.597172 11697996
8.858472 9.814240 1.604561 11697996
10.238437 10.277636 3.741072 11697996
8.771695 9.773457 1.643515 11697996
9.383462 10.167296 1.793883 11697996
9.454463 9.544456 0.065381 11697996
9.901394 10.158496 1.859182 11697996
9.456602 8.756698 2.157733 11697996
9.402946 10.141177 0.427779 11697996
9.335753 8.787456 3.938154 11697996
8.946457 10.378291 2.342411 11697996
9.613849 10.063795 1.638137 11697996
9.261364 9.894203 0.899144 11697996
10.770274 10.819249 1.401654 11697996
11.177277 9.886738 3.195591 11697996
10.569862 10.209249 1.278666 11697996
8.947206 10.584520 3.721734 11697996
10.554659 10.240870 2.740799 11697996
9.659383 9.305888 3.515789 11697996
10.970332 11.125623 0.948835 11697996
10.403152 10.662911 2.610761 11697996
10.193056 10.685504 1.223496 11697996
10.502061 9.471019 2.190543 11697996
9.887370 9.347698 0.060531 11697996
9.612743 10.674294 0.613174 11697996
10.371765 9.287057 0.284018 11697996
8.998266 10.773070 0.468220 11697996
10.401027 10.938714 2.022260 11697996
10.081670 9.057428 2.675928 11697996
10.201803 9.229411 3.776836 11697996
10.865285 9.823457 2.876185 11697996
10.346690 11.164493 1.069160 11697996
10.950263 9.088258 0.497544 11697996
11.124653 10.044917 1.421515 11697996
