# .PCD v0.7 - Point Cloud Data file format
VERSION 0.7
FIELDS x y z rgb
SIZE 4 4 4 4
TYPE F F F U
COUNT 1 1 1 1
WIDTH 1280
HEIGHT 1
VIEWPOINT 0 0 0 1 0 0 0
POINTS 1280
DATA ascii
8.956999 9.302877 1.956974 11697996
11.001154 9.020268 0.639042 11697996
9.809646 8.760430 0.791410 11697996
9.159095 10.424635 1.673601 11697996
10.842549 9.272707 0.548370 11697996
9.898070 9.596918 2.815221 11697996
9.750321 10.228486 0.232624 11697996
11.004065 10.458600 0.403505 11697996
9.515873 10.127848 1.530134 11697996
8.760777 11.084395 2.482228 11697996
10.314986 9.471159 0.559754 11697996
10.673010 8.865601 0.190077 11697996
11.218143 9.388483 2.615462 11697996
9.502584 10.714368 1.231246 11697996
10.244461 9.013519 1.026056 11697996
10.714293 10.853148 1.700813 11697996
9.511865 9.984135 2.362821 11697996
10.356481 9.147079 0.497524 11697996
10.645312 9.042495 2.460106 11697996
10.724660 10.161392 1.197355 11697996
9.359159 9.201949 1.747271 11697996
9.826357 10.276586 2.021919 11697996
9.144371 9.051862 1.658867 11697996
9.618049 8.985639 2.496166 11697996
9.492220 11.220612 1.615042 11697996
11.201249 9.635690 1.554859 11697996
9.653367 8.849988 0.418605 11697996
10.323569 10.652516 2.668568 11697996
11.024500 8.745499 2.021814 11697996
9.572854 9.065240 0.101100 11697996
10.004527 10.331465 2.656414 11697996
9.436944 9.620086 1.591723 11697996
9.372713 10.691732 2.876124 11697996
9.925149 9.750737 1.021187 11697996
9.149539 10.255336 2.869160 11697996
9.428438 10.660141 0.792412 11697996
10.071831 9.770063 3.924076 11697996
9.073914 10.590953 2.214564 11697996
8.820683 8.927863 1.149977 11697996
10.609553 9.193358 1.354571 11697996
10.069552 9.705182 2.225887 11697996
11.122852 10.354388 0.249300 11697996
11.082241 10.296813 3.509985 11697996
9.094388 10.175852 1.834514 11697996
9.895042 10.825717 3.261501 11697996
10.706116 10.702950 1.181946 11697996
11.176185 10.128396 1.956889 11697996
10.921911 11.198995 1.320651 11697996
10.708594 11.076896 3.774672 11697996
9.899803 10.246067 1.965746 11697996
11.265843 10.382549 0.490699 11697996
10.535261 10.042349 2.076453 11697996
10.100403 9.795033 3.647713 11697996
9.403718 10.712564 2.023860 11697996
9.593080 10.314799 2.725227 11697996
9.809372 9.633058 0.951860 11697996
9.111993 8.872750 3.343910 11697996
9.514622 8.971046 0.012378 11697996
10.734484 10.027943 2.286683 11697996
9.508125 9.153028 3.798817 11697996
9.989037 9.898120 2.131338 11697996
9.370013 10.521736 0.399153 11697996
9.689210 10.229199 2.074593 11697996
9.362233 11.146426 3.854839 11697996
9.926609 9.951619 2.239817 11697996
8.993604 10.277769 0.925173 11697996
9.598747 9.612296 2.326913 11697996
11.116507 10.479405 1.183035 11697996
10.869154 10.416195 1.582067 11697996
9.402470 9.387538 0.082254 11697996
9.915913 10.056275 1.235626 11697996
11.158121 9.855048 1.118910 11697996
9.762310 9.308907 0.004327 11697996
8.993628 9.549708 1.820903 11697996
10.895120 9.452565 0.599210 11697996
9.657594 10.023842 1.462599 11697996
9.702976 10.827145 0.261998 11697996
11.232948 10.278954 4.003959 11697996
8.734822 9.697795 2.631759 11697996
9.991470 10.792892 3.152527 11697996
10.065420 9.994079 2.278962 11697996
11.148210 9.859320 2.132706 11697996
9.804939 10.186803 3.506814 11697996
8.925214 9.211456 2.373375 11697996
9.692586 10.388882 2.847523 11697996
10.528999 9.855567 3.770900 11697996
10.568682 9.582725 2.847879 11697996
8.998650 9.514062 2.910800 11697996
10.837909 11.218310 2.817039 11697996
11.214346 10.712990 0.462817 11697996
11.239528 8.773953 1.748257 11697996
9.822259 9.945429 2.495843 11697996
10.444765 8.917200 3.638633 11697996
10.701880 9.623190 1.689537 11697996
10.297463 8.905842 1.262477 11697996
9.711830 10.462392 3.785954 11697996
10.611859 10.446076 1.332538 11697996
10.147521 10.300825 3.645718 11697996
10.172907 9.247371 0.612794 11697996
9.839268 9.100595 1.031839 11697996
10.587136 10.660150 1.763106 11697996
9.966561 10.165467 0.456596 11697996
10.077704 10.406553 3.727467 11697996
10.196858 9.627166 1.553531 11697996
11.085071 9.463316 3.296658 11697996
9.748693 8.787499 3.514405 11697996
9.386214 9.796315 1.266135 11697996
8.923345 8.962508 3.448789 11697996
10.488737 10.507432 1.273582 11697996
10.229189 10.099349 0.195602 11697996
9.023508 10.454680 2.984450 11697996
10.694303 8.821232 1.100967 11697996
9.004304 9.042295 3.302058 11697996
9.749432 11.130709 2.911407 11697996
9.794818 10.931273 0.195753 11697996
11.066479 9.493438 2.029462 11697996
10.517939 10.134672 3.042235 11697996
9.240241 10.598330 2.786271 11697996
11.159954 10.935451 0.171262 11697996
10.104321 9.191637 1.894684 11697996
10.643739 10.280818 2.258911 11697996
11.180925 9.849025 3.116999 11697996
9.026200 10.076511 2.504634 11697996
10.947722 9.089806 1.217440 11697996
11.152188 10.793292 0.157838 11697996
10.364744 10.971966 3.283033 11697996
10.686354 10.848430 3.045299 11697996
9.472480 9.315141 1.079731 11697996
8.880327 9.894014 2.721157 11697996
9.992107 10.563196 3.640199 11697996
10.289241 10.455576 0.955474 11697996
10.263699 9.394756 2.794476 11697996
11.160921 10.991455 2.725757 11697996
9.581478 8.832224 1.104199 11697996
9.467891 9.566059 1.497513 11697996
10.152298 11.117184 2.597595 11697996
9.125448 9.224905 1.730755 11697996
9.382822 8.945199 2.904986 11697996
9.666184 9.731052 2.032641 11697996
10.689616 11.066824 3.686664 11697996
11.137639 10.392028 3.791134 11697996
10.940038 9.190834 0.014813 11697996
11.121306 10.422206 3.187206 11697996
8.983102 9.028561 1.220941 11697996
8.906123 10.260406 3.086318 11697996
8.999209 9.495731 0.972131 11697996
9.300303 9.553782 2.652938 11697996
10.056942 9.138002 3.158295 11697996
8.793737 8.969319 0.462557 11697996
10.133322 10.291867 1.258486 11697996
8.833195 10.264225 0.850382 11697996
9.459921 10.126840 0.402705 11697996
9.614209 9.892303 1.778609 11697996
9.302828 9.165841 1.346623 11697996
9.979908 9.024136 0.956277 11697996
9.370902 9.575454 0.386498 11697996
9.263149 9.605736 0.264671 11697996
9.529086 10.343104 1.883123 11697996
9.036587 9.844813 3.750284 11697996
9.494523 10.007253 0.553581 11697996
9.794139 10.376927 0.673533 11697996
10.788560 11.199808 1.659562 11697996
11.011915 10.253883 0.763805 11697996
9.330686 9.085745 2.498003 11697996
10.037495 9.449044 1.662820 11697996
9.516904 10.069365 2.797800 11697996
10.067536 10.529458 2.625147 11697996
10.944066 9.688129 2.199178 11697996
10.826698 9.517626 0.699608 11697996
9.476354 11.250213 3.649984 11697996
11.204743 10.292031 0.534400 11697996
10.956748 10.489377 3.535668 11697996
10.985435 10.115876 2.382535 11697996
9.423117 8.841132 1.751882 11697996
10.427133 11.063239 0.499060 11697996
9.671216 9.004850 2.006835 11697996
9.649088 9.550024 2.033668 11697996
10.299924 9.623841 1.245233 11697996
9.995489 10.532506 1.354668 11697996
10.356385 9.651011 3.542047 11697996
11.234304 8.882754 0.844913 11697996
10.133175 9.156013 2.840108 11697996
9.523627 9.256250 2.128317 11697996
8.741179 9.364548 0.373832 11697996
9.696900 9.463990 0.665346 11697996
9.014017 10.131632 1.901765 11697996
11.071839 10.271015 1.544335 11697996
9.398473 10.101773 0.677375 11697996
10.109550 8.781160 0.021016 11697996
9.978483 10.484670 3.030558 11697996
9.126857 9.255050 2.553309 11697996
9.340119 9.312051 0.479677 11697996
10.779928 11.172992 3.974104 11697996
9.201270 10.288060 1.522725 11697996
9.908295 9.510216 3.536625 11697996
8.796981 9.409650 2.220453 11697996
10.340389 9.698709 2.795018 11697996
9.753770 11.199768 3.831118 11697996
10.359815 10.581364 3.055879 11697996
10.587183 10.949109 3.989034 11697996
11.182039 9.080295 2.780771 11697996
9.846010 9.362941 2.473248 11697996
10.310353 10.725357 3.245346 11697996
9.519764 10.180128 3.506331 11697996
9.260686 9.932337 0.111446 11697996
10.245013 10.819616 1.687606 11697996
10.754872 10.263364 2.020647 11697996
10.923624 10.607464 1.057884 11697996
10.124179 8.851240 1.856698 11697996
10.018262 10.307831 1.239529 11697996
11.153794 9.640775 1.912208 11697996
10.475350 9.479095 3.650203 11697996
9.956327 10.100936 0.904134 11697996
10.849921 10.971600 1.235173 11697996
10.234881 9.781353 2.554973 11697996
9.723821 9.181592 3.357517 11697996
9.712880 10.901804 2.218529 11697996
9.448482 10.405239 0.866885 11697996
10.902044 10.637666 3.456494 11697996
9.242771 9.612495 2.364653 11697996
9.018821 10.754220 0.012634 11697996
9.384660 10.924161 1.939541 11697996
9.900422 8.849274 3.051610 11697996
8.827742 9.771292 2.049637 11697996
8.974186 10.644718 0.348228 11697996
8.800785 9.291688 1.212387 11697996
10.895880 9.353087 1.067379 11697996
10.897003 10.439179 3.039782 11697996
9.073980 10.886455 3.792298 11697996
10.921606 9.499997 2.981135 11697996
10.878186 8.745701 0.333925 11697996
9.009028 10.361468 1.029128 11697996
10.416385 8.854259 1.949930 11697996
9.353203 9.301122 0.084694 11697996
9.603286 9.937876 1.231659 11697996
10.723478 8.947541 1.089091 11697996
9.096652 10.544374 0.976187 11697996
10.590712 10.183586 0.409498 11697996
11.036365 9.323400 1.879461 11697996
9.081299 9.868471 1.998117 11697996
10.122842 11.119486 2.764899 11697996
8.850042 9.203204 0.634268 11697996
9.513146 10.830131 3.740125 11697996
9.272959 9.620311 2.228512 11697996
9.274174 10.453797 0.168139 11697996
10.685322 9.842991 2.492649 11697996
9.545537 8.851693 3.768828 11697996
10.899839 10.037545 1.476482 11697996
9.079743 10.362374 1.665942 11697996
9.303304 9.370522 2.058815 11697996
10.238362 8.823941 3.909082 11697996
10.052633 9.186964 3.268338 11697996
10.710333 10.062322 3.183021 11697996
11.262511 10.637257 3.803697 11697996
9.297536 9.280291 2.112521 11697996
9.508682 10.971464 3.234578 11697996
10.069712 9.326733 0.447422 11697996
9.521412 10.435656 2.383759 11697996
10.960297 8.894441 1.137134 11697996
9.645793 10.359405 1.556091 11697996
10.517416 10.418219 1.545168 11697996
9.881205 9.062318 2.525371 11697996
9.314923 10.513281 2.072702 11697996
9.164534 10.054954 0.681620 11697996
9.647149 10.464959 3.790176 11697996
10.343122 9.826959 3.599142 11697996
9.998288 9.313668 2.023671 11697996
10.608981 9.827888 0.426684 11697996
11.242116 10.555836 3.183491 11697996
10.710564 9.604324 3.258522 11697996
10.235579 10.361290 0.741035 11697996
9.603401 10.366780 2.646337 11697996
10.990210 11.129134 3.954359 11697996
11.120612 11.200400 2.029394 11697996
9.222776 9.040215 0.215660 11697996
9.775396 9.799353 3.568222 11697996
9.278161 11.086035 1.592958 11697996
8.901226 10.580229 0.421447 11697996
11.175000 10.990037 2.711217 11697996
8.874237 10.664868 1.588316 11697996
10.658100 9.430591 1.048055 11697996
10.828116 9.595929 3.134888 11697996
10.143677 10.221356 0.933507 11697996
9.110048 9.675435 2.360554 11697996
11.063156 9.130101 0.551528 11697996
9.364470 8.816826 2.200953 11697996
10.903621 10.860334 2.320061 11697996
10.437970 10.724176 3.743632 11697996
9.460712 10.949304 0.959990 11697996
9.294249 10.218102 3.489676 11697996
10.333683 9.449305 2.903698 11697996
10.620327 10.440218 3.611352 11697996
8.834969 11.152661 1.211906 11697996
9.529751 10.209789 1.116136 11697996
9.601647 10.029052 3.162668 11697996
10.713610 10.330466 3.204697 11697996
10.144913 9.557704 0.204703 11697996
9.064038 8.927916 0.050051 11697996
9.515648 10.250226 1.437270 11697996
10.643250 9.578362 3.535083 11697996
9.089767 11.177559 0.571268 11697996
9.574621 11.133712 0.478254 11697996
10.683234 8.849284 1.558433 11697996
10.408675 10.819522 2.150265 11697996
11.226603 10.924814 3.044360 11697996
11.142116 8.911673 2.587997 11697996
9.900877 10.770297 3.924311 11697996
9.451795 10.389720 3.935855 11697996
9.101040 9.210899 3.156677 11697996
9.116124 10.578609 3.444894 11697996
10.935968 11.069491 2.846893 11697996
9.572263 10.457775 2.068631 11697996
9.385000 10.014881 3.736139 11697996
10.920374 9.748347 3.769934 11697996
9.604070 9.050743 0.410693 11697996
9.107305 9.175771 0.587550 11697996
9.487803 9.051038 1.363211 11697996
9.738501 10.352747 3.236577 11697996
10.858052 9.290117 0.744125 11697996
9.076774 10.164896 1.982642 11697996
9.481789 10.528968 1.090431 11697996
10.072916 9.220793 2.744020 11697996
9.482369 10.217685 -0.028530 11697996
9.360785 9.187593 0.231492 11697996
10.815733 9.851127 1.489900 11697996
9.838762 10.776223 0.180953 11697996
9.015306 9.671543 0.895262 11697996
10.193943 9.440541 2.040714 11697996
10.900677 9.241958 1.065258 11697996
8.861879 10.265883 1.836499 11697996
8.814283 11.014143 3.586332 11697996
10.576006 9.118849 2.360493 11697996
9.329866 10.926591 1.813282 11697996
10.583694 9.938063 0.532982 11697996
9.444337 9.129448 3.725573 11697996
10.327308 10.272480 0.024127 11697996
10.709269 9.016200 3.707032 11697996
9.113971 11.080229 3.989723 11697996
10.266235 9.304437 1.969919 11697996
8.797368 9.002909 3.656575 11697996
10.335589 9.225183 2.645977 11697996
9.759703 9.967442 3.915269 11697996
8.763941 9.823905 1.479077 11697996
9.223890 10.450627 2.140038 11697996
9.669320 10.681326 2.781569 11697996
9.279737 9.863008 2.157530 11697996
8.767054 10.264195 3.213946 11697996
9.270504 10.981006 0.114926 11697996
8.840483 9.462559 2.494786 11697996
10.862235 9.796081 1.506638 11697996
10.285913 9.807379 1.775777 11697996
10.454829 10.035707 2.333565 11697996
10.153398 9.190178 2.927433 11697996
10.102188 10.325522 3.511201 11697996
9.154995 10.102320 1.009147 11697996
9.376381 8.847337 2.602003 11697996
11.225576 11.127736 1.198511 11697996
9.094503 10.166570 2.611022 11697996
9.645400 9.695920 2.749473 11697996
9.384885 9.742245 1.705165 11697996
9.376359 10.842717 3.583785 11697996
10.697279 8.830351 2.778085 11697996
10.174188 9.350197 1.580999 11697996
10.922699 10.739233 3.784949 11697996
9.064414 9.460251 3.335680 11697996
10.079712 9.642908 0.866396 11697996
9.238906 10.957084 0.464044 11697996
9.049989 11.001060 1.963428 11697996
10.933732 10.812747 1.332281 11697996
9.887732 9.249050 3.196583 11697996
10.381284 9.834105 1.319068 11697996
10.264696 9.864950 3.905959 11697996
9.440372 9.078195 3.564981 11697996
9.764986 10.461826 3.216790 11697996
8.998015 9.800483 2.770001 11697996
10.360106 10.964876 0.415326 11697996
10.104986 10.938835 3.015119 11697996
9.003630 9.496222 0.274276 11697996
8.755835 10.159471 0.966364 11697996
9.660332 10.628547 0.597733 11697996
10.367274 10.149439 3.257290 11697996
9.116353 10.264627 3.677198 11697996
11.209541 10.307103 2.508630 11697996
10.921672 10.029341 2.850963 11697996
10.186744 9.984841 0.103424 11697996
10.512675 9.436637 1.649054 11697996
9.089814 9.121553 0.501312 11697996
8.881413 10.887007 0.494258 11697996
9.066150 10.245502 2.240502 11697996
9.788558 10.628460 2.035875 11697996
10.899560 9.396969 3.371324 11697996
9.014569 10.737762 2.049959 11697996
8.853240 10.128779 2.769955 11697996
9.724158 10.107804 0.626524 11697996
10.742324 10.709264 0.479862 11697996
9.339345 10.076645 3.213584 11697996
8.760382 8.945189 1.682996 11697996
9.619972 9.732635 1.442835 11697996
9.584476 11.156488 2.493299 11697996
11.048845 9.869658 2.813201 11697996
9.442842 9.413340 2.579299 11697996
9.348145 9.598228 1.677887 11697996
10.550811 11.181060 0.409789 11697996
9.239885 8.918115 3.402047 11697996
10.577754 9.799693 2.312868 11697996
10.004045 10.671265 1.588693 11697996
9.828247 11.169823 2.141652 11697996
10.630429 11.010174 2.310353 11697996
9.750430 11.111864 3.437030 11697996
10.119362 8.940859 0.082460 11697996
9.780547 10.465673 1.658048 11697996
8.829639 9.748541 2.765475 11697996
10.156443 9.914712 2.366422 11697996
10.989215 9.901132 1.841825 11697996
10.134794 10.657968 1.088695 11697996
9.271180 9.026584 3.183719 11697996
9.645775 9.622998 0.826274 11697996
9.791525 10.153147 0.977614 11697996
10.050240 9.910598 2.421892 11697996
11.215679 10.496475 3.349379 11697996
9.642497 9.979327 1.916411 11697996
10.679811 8.832254 0.195859 11697996
11.166147 9.349587 0.006357 11697996
11.113910 9.340681 0.837499 11697996
9.742399 10.281129 1.591236 11697996
10.385343 8.933473 0.691513 11697996
11.111030 8.861492 2.790477 11697996
11.187152 9.417536 3.299111 11697996
11.098579 9.190337 2.079791 11697996
11.172226 10.731318 3.927047 11697996
10.556797 9.711997 2.569767 11697996
10.092330 10.178575 0.333740 11697996
10.814171 10.494140 1.366200 11697996
9.480175 8.824172 1.538691 11697996
9.319770 9.976206 3.400247 11697996
10.712718 10.511427 2.080274 11697996
10.906505 8.835543 2.276908 11697996
9.024844 8.862828 3.398136 11697996
10.213069 10.753416 0.400612 11697996
11.114409 10.932803 3.491975 11697996
10.659007 10.436910 3.044058 11697996
9.327843 10.021312 3.416699 11697996
10.433867 11.077466 0.746163 11697996
10.058703 9.355262 0.870122 11697996
10.569242 10.396570 1.705964 11697996
10.026522 10.164259 3.387371 11697996
9.632642 10.026929 2.774552 11697996
10.515124 9.178067 1.206785 11697996
9.947380 9.567058 1.772189 11697996
10.789254 10.238589 1.775423 11697996
10.689054 11.044496 0.923132 11697996
11.087324 9.857474 2.105425 11697996
10.470987 10.168472 1.548898 11697996
11.026441 9.284369 3.873649 11697996
9.192114 9.704042 2.555631 11697996
10.514062 10.338088 2.299262 11697996
9.566808 10.818896 1.724341 11697996
10.536535 9.516251 3.966869 11697996
10.299507 10.323690 1.579374 11697996
9.278506 9.773774 0.311127 11697996
9.015478 10.667329 2.499936 11697996
11.069305 10.984934 2.968543 11697996
9.273386 9.512875 0.102403 11697996
9.408985 10.523542 2.610416 11697996
9.269109 10.074749 0.008369 11697996
10.393950 9.657817 0.312934 11697996
9.899372 11.043523 1.106347 11697996
10.056769 9.870157 1.000197 11697996
9.981277 9.899586 1.767391 11697996
8.957026 9.036243 0.501159 11697996
10.191492 10.348889 3.606297 11697996
10.804695 10.460356 1.512780 11697996
9.301497 10.565303 3.035117 11697996
8.981027 9.327357 3.935967 11697996
9.296709 9.354883 3.774295 11697996
10.491814 10.331225 0.134184 11697996
11.183833 11.047247 2.795350 11697996
10.154615 10.454681 3.970793 11697996
9.026983 11.046078 2.447588 11697996
9.996816 10.594914 1.063409 11697996
10.709252 10.395593 0.954901 11697996
10.283436 9.902586 1.902736 11697996
9.247571 9.851336 3.138447 11697996
10.862155 9.950631 1.302752 11697996
11.214847 8.815396 0.147186 11697996
9.296369 9.584309 1.869121 11697996
9.419284 10.252188 3.895028 11697996
10.617730 10.943341 2.726148 11697996
9.761430 9.425942 2.231601 11697996
11.179250 10.715589 1.665984 11697996
9.081828 10.781449 0.277020 11697996
9.652867 9.683874 0.155504 11697996
9.722799 9.028306 2.274567 11697996
9.833416 11.076495 3.556192 11697996
10.615410 9.169688 3.480205 11697996
9.426126 10.146347 1.867465 11697996
9.645550 9.839491 3.423297 11697996
10.221048 9.613175 3.178267 11697996
10.881615 8.791219 0.619943 11697996
10.210464 9.800410 1.641470 11697996
9.444015 9.003190 3.363018 11697996
10.121354 10.832901 2.278956 11697996
10.151980 9.874907 3.409355 11697996
9.805534 9.089560 3.015692 11697996
11.151963 9.556506 1.224158 11697996
9.193204 9.601544 2.748655 11697996
9.105774 10.044643 1.865459 11697996
11.023183 10.281031 3.416127 11697996
9.024675 9.606465 0.209040 11697996
10.644219 9.791379 1.388860 11697996
11.010277 10.124340 0.073288 11697996
10.404942 10.180777 2.284058 11697996
10.400994 10.559809 2.610052 11697996
10.960134 9.793713 3.762194 11697996
9.407566 10.746808 3.118720 11697996
8.799447 9.795226 3.705715 11697996
10.403687 9.087625 0.444223 11697996
8.867820 9.591407 0.116746 11697996
10.916817 9.896423 1.915496 11697996
10.398326 10.306102 1.383286 11697996
9.006093 9.190203 1.520091 11697996
11.022769 8.956174 1.401053 11697996
9.227468 10.480664 1.229692 11697996
9.521897 11.080615 0.764291 11697996
10.638605 10.961027 2.853101 11697996
11.122358 10.751748 0.137479 11697996
9.114432 8.884911 0.245432 11697996
9.906765 10.002917 3.842862 11697996
10.439859 9.536530 2.698595 11697996
11.048417 10.828252 2.949474 11697996
10.013827 10.808928 0.094202 11697996
10.293075 9.045419 0.273711 11697996
10.402648 10.939796 0.995435 11697996
8.770805 9.437877 0.784449 11697996
9.365421 11.071157 1.233636 11697996
10.743240 9.012568 1.528048 11697996
10.016623 10.657881 0.399230 11697996
10.698218 9.823505 1.756079 11697996
10.238703 10.063935 3.900281 11697996
10.631874 9.459669 3.085744 11697996
10.131480 11.137292 0.292542 11697996
9.012843 9.846117 1.710973 11697996
9.567132 10.118633 3.802738 11697996
9.746766 10.806783 1.249302 11697996
11.049614 10.991424 0.468217 11697996
10.282762 9.181418 2.155610 11697996
8.752988 9.123822 1.840987 11697996
8.758343 9.211272 1.227551 11697996
8.857553 9.539466 2.094586 11697996
9.348876 10.836807 1.805273 11697996
9.041862 10.274685 2.096632 11697996
8.973812 10.673788 1.989119 11697996
9.169559 10.534186 0.312436 11697996
10.095845 11.177196 2.690571 11697996
9.299146 10.168971 3.527156 11697996
11.082160 10.575185 2.620191 11697996
10.723568 9.788376 0.668506 11697996
9.621067 8.976291 2.034373 11697996
10.340639 10.305086 3.013172 11697996
10.208240 9.183340 1.932727 11697996
11.229465 9.845322 1.977676 11697996
11.067430 9.208915 2.234808 11697996
9.980859 11.045383 1.749864 11697996
11.185273 9.528996 1.496788 11697996
9.994833 9.149696 1.387606 11697996
10.698223 10.544689 3.107808 11697996
11.104039 11.197756 3.759945 11697996
9.928966 9.185165 3.636512 11697996
11.173983 11.168605 0.598974 11697996
9.158590 9.238833 3.887072 11697996
10.822323 10.262498 2.602519 11697996
10.149428 10.213980 0.310999 11697996
9.790333 10.240377 0.587097 11697996
10.351240 8.733038 0.304254 11697996
10.463648 9.624031 2.657194 11697996
9.442330 9.159531 2.364886 11697996
8.774951 10.510034 3.933611 11697996
10.861233 10.080973 2.872172 11697996
10.570219 11.024305 3.469092 11697996
9.123677 9.742484 3.641647 11697996
8.794112 9.488463 0.853794 11697996
9.308553 10.825885 2.066200 11697996
10.171735 9.514317 2.915605 11697996
9.651264 9.840888 0.657975 11697996
11.071549 9.808892 2.095910 11697996
10.077275 10.315853 2.292295 11697996
10.759818 11.125411 1.852671 11697996
10.202065 9.673323 3.228111 11697996
8.795444 9.192187 0.247959 11697996
10.784842 9.776527 3.128554 11697996
11.188166 8.827103 0.990456 11697996
9.734930 10.480055 2.715418 11697996
10.932420 10.542723 1.866367 11697996
9.806618 10.797576 3.941468 11697996
10.644870 10.404116 0.135751 11697996
11.027730 8.995527 1.029851 11697996
10.203760 9.190247 0.997680 11697996
10.199275 11.145191 2.423858 11697996
9.522753 10.978999 0.780329 11697996
9.582748 10.621120 0.766055 11697996
9.028209 8.971629 1.468553 11697996
10.749107 9.815963 2.761777 11697996
10.430513 10.001533 2.190033 11697996
10.553742 8.869517 2.514199 11697996
9.029263 11.164678 1.095556 11697996
9.608567 10.161322 3.557279 11697996
9.631806 10.922553 2.909444 11697996
10.582768 9.138313 0.962730 11697996
8.849415 9.151372 1.188664 11697996
11.096851 10.708348 1.721750 11697996
8.948205 9.630468 3.344194 11697996
10.667591 9.102229 2.219626 11697996
10.673107 9.865360 3.860397 11697996
8.871487 9.427433 1.914191 11697996
9.996458 9.296065 1.358142 11697996
10.559487 9.944912 0.759939 11697996
9.535379 10.799560 3.165975 11697996
9.201416 9.562649 3.032810 11697996
10.167599 9.435363 2.901966 11697996
11.216882 9.866909 0.512664 11697996
10.856012 9.461384 0.506743 11697996
9.986906 11.173081 0.800999 11697996
9.608009 9.364676 0.571400 11697996
9.494196 9.589276 3.634993 11697996
9.741764 9.356398 3.481832 11697996
9.850928 9.964513 3.160762 11697996
9.250172 9.742265 2.399111 11697996
9.573121 9.343166 1.796976 11697996
8.789926 9.992334 0.767539 11697996
10.829187 10.537497 0.064668 11697996
8.888753 10.721362 0.374451 11697996
11.081871 11.194416 3.661125 11697996
10.415909 9.262688 1.171392 11697996
10.368478 8.844207 3.446673 11697996
11.177299 11.231007 3.818596 11697996
10.992697 9.780076 1.162944 11697996
11.028057 9.366785 2.862772 11697996
10.063251 10.901969 3.834814 11697996
9.991580 9.944262 2.957885 11697996
10.661474 11.041966 1.463476 11697996
9.928818 10.927272 0.926428 11697996
9.807884 9.617366 2.280570 11697996
10.747006 9.311248 3.282163 11697996
9.474419 9.687860 0.241880 11697996
10.516706 9.120711 2.429060 11697996
8.859701 9.329008 1.300904 11697996
10.537711 9.529694 3.679142 11697996
11.110755 9.107225 1.255500 11697996
10.325462 8.820936 1.681825 11697996
10.912652 10.728943 2.724955 11697996
9.585798 9.016069 1.293735 11697996
8.789089 9.669282 0.386758 11697996
8.828532 9.073824 3.135832 11697996
10.568606 10.710133 2.063780 11697996
10.421126 9.832168 1.385151 11697996
10.403025 8.968309 3.753658 11697996
10.370053 10.725762 2.347103 11697996
11.001771 8.801460 0.201186 11697996
9.015473 9.499046 2.718803 11697996
10.496182 9.744402 2.951452 11697996
10.780666 10.282686 3.105124 11697996
10.418417 8.997736 1.402833 11697996
10.127373 9.666890 2.056593 11697996
9.502891 11.043412 1.919579 11697996
9.749649 9.529400 1.379839 11697996
9.291492 10.500744 3.854619 11697996
10.883148 9.653542 0.704659 11697996
9.789649 10.550416 2.610127 11697996
8.836933 9.844528 1.604398 11697996
10.264826 10.300431 3.746966 11697996
8.747037 9.774567 1.671945 11697996
9.424144 10.168010 1.792925 11697996
9.448816 9.555191 0.074097 11697996
9.897629 10.183012 1.854626 11697996
9.451180 8.767223 2.132636 11697996
9.461796 10.120203 0.456858 11697996
9.318807 8.782929 3.949923 11697996
8.925227 10.370042 2.388501 11697996
9.627748 10.067621 1.650885 11697996
9.264903 9.877702 0.909911 11697996
10.790280 10.845798 1.392933 11697996
11.138822 9.908641 3.171279 11697996
10.534551 10.220845 1.307363 11697996
8.955235 10.600399 3.736673 11697996
10.552960 10.218528 2.752570 11697996
9.725334 9.251582 3.540403 11697996
10.966940 11.147980 0.949185 11697996
10.399277 10.677300 2.622954 11697996
10.194017 10.649948 1.210797 11697996
10.480470 9.485914 2.182158 11697996
9.891217 9.344731 0.070317 11697996
9.625833 10.703974 0.590771 11697996
10.337632 9.284447 0.273860 11697996
9.015013 10.762562 0.476440 11697996
10.395034 10.929910 1.994242 11697996
10.034600 9.059902 2.644458 11697996
10.184662 9.219528 3.786827 11697996
10.809684 9.826350 2.854871 11697996
10.331437 11.177636 1.075324 11697996
10.967978 9.064460 0.521291 11697996
11.152128 10.034548 1.430903 11697996
9.391339 10.198985 3.551729 11697996
9.029654 8.818758 1.264019 11697996
10.337377 10.540654 1.367288 11697996
8.921414 8.920946 3.264076 11697996
10.263410 9.174601 3.903940 11697996
9.087325 10.322485 2.620389 11697996
9.260276 9.811641 0.664722 11697996
9.853905 11.087711 3.359105 11697996
9.012908 10.288074 3.265608 11697996
8.763762 11.235426 2.900199 11697996
9.366797 10.309411 3.555549 11697996
11.161809 11.210699 0.509297 11697996
8.933562 9.314648 0.635451 11697996
10.257692 9.004457 3.641984 11697996
10.441611 11.096443 0.560048 11697996
8.761276 9.858356 3.639256 11697996
10.127777 10.385846 3.546165 11697996
9.597621 10.256835 1.097846 11697996
9.690041 8.804425 3.153251 11697996
10.015959 9.499618 3.118721 11697996
10.543518 9.817077 2.849391 11697996
9.335056 8.996200 1.057472 11697996
10.805847 11.072211 1.619409 11697996
9.945313 9.311543 3.115645 11697996
10.325639 9.418786 1.325773 11697996
10.383358 10.920260 3.353368 11697996
8.842633 9.655890 1.918811 11697996
9.267766 10.807999 3.042787 11697996
9.393331 10.793923 1.311251 11697996
9.333201 9.882134 2.360137 11697996
11.098730 9.031902 0.160073 11697996
10.111684 9.003243 1.874430 11697996
10.688128 9.887522 1.085601 11697996
10.343995 10.176751 0.604490 11697996
10.970925 9.674339 3.090509 11697996
8.888146 10.621864 1.592458 11697996
10.230480 9.639479 3.023701 11697996
9.025806 10.491971 3.420941 11697996
10.244453 10.479032 -0.004429 11697996
9.061392 10.354594 2.120537 11697996
9.814788 10.497109 1.628433 11697996
10.088545 9.861526 1.500858 11697996
10.816883 9.890662 1.288707 11697996
9.474244 8.975735 1.818807 11697996
10.600971 9.233450 2.146654 11697996
11.183887 10.332170 3.114480 11697996
11.219322 9.372169 3.462408 11697996
9.943261 9.032320 1.576454 11697996
10.946954 9.796906 1.155075 11697996
11.251360 10.059176 0.423847 11697996
9.859858 8.765777 2.268364 11697996
10.035357 9.499756 2.346628 11697996
9.996596 10.747055 1.733072 11697996
9.905951 9.979460 2.849061 11697996
9.966067 10.651871 3.815385 11697996
10.723155 9.332545 2.494546 11697996
9.464960 8.910482 0.244300 11697996
9.338557 8.871259 0.493682 11697996
9.099602 10.635384 3.238828 11697996
8.925830 9.575002 3.344474 11697996
10.136033 10.988997 0.067377 11697996
8.755589 10.513647 3.799767 11697996
10.312622 8.830179 3.535252 11697996
9.271274 10.574894 1.798812 11697996
9.452273 10.902266 1.896718 11697996
8.920373 9.897361 0.220627 11697996
10.412111 9.474060 2.730787 11697996
10.491879 9.623381 3.297334 11697996
10.282191 9.775960 0.850048 11697996
9.271026 10.135747 0.270384 11697996
8.810262 10.327380 0.923337 11697996
10.467649 11.230648 3.585500 11697996
9.030801 8.910900 2.879874 11697996
9.555717 10.380080 3.714246 11697996
8.769179 10.038842 2.457637 11697996
10.782700 10.586276 3.422564 11697996
10.998642 11.232233 3.624539 11697996
10.498342 8.853672 0.954418 11697996
8.954743 10.288754 0.047598 11697996
9.074439 9.433367 0.720419 11697996
9.250994 8.941172 0.308456 11697996
9.621641 9.193106 0.226275 11697996
10.884410 10.317003 1.697790 11697996
9.836587 10.241523 3.632356 11697996
9.126858 9.817423 1.809206 11697996
9.915125 9.474302 1.275045 11697996
9.412278 9.175792 1.499312 11697996
10.158196 10.500134 3.067037 11697996
10.112427 9.933417 0.744399 11697996
11.043597 9.136586 1.703339 11697996
8.779735 10.486816 0.267888 11697996
10.460560 11.114344 2.060455 11697996
9.879119 9.514299 1.727789 11697996
11.222442 10.170124 0.768331 11697996
9.829671 9.165788 1.816277 11697996
9.761474 9.667938 2.898004 11697996
10.701720 9.474908 2.991219 11697996
10.532328 8.759022 2.892256 11697996
10.591537 10.574426 2.364413 11697996
9.363865 9.833732 3.189579 11697996
10.388518 10.697569 2.620518 11697996
10.373270 10.546661 2.496952 11697996
8.750940 8.870710 0.478373 11697996
10.174607 9.015268 2.610503 11697996
9.911000 10.292826 2.028099 11697996
9.833038 11.182393 2.473859 11697996
8.776573 9.439590 -0.009604 11697996
10.634502 9.475893 0.369453 11697996
-9.801630 -10.500386 0.675314 6730418
-10.260839 -10.942589 1.085081 6730418
-10.553459 -9.847509 2.188861 6730418
-10.425724 -9.395336 0.360452 6730418
-9.667823 -9.573204 1.831129 6730418
-9.933429 -9.383858 2.438773 6730418
-9.995629 -10.271416 2.956990 6730418
-9.644357 -9.352104 0.193495 6730418
-9.553373 -9.690911 2.380875 6730418
-9.416352 -10.320052 0.291885 6730418
-10.744051 -9.741745 1.207173 6730418
-9.428040 -10.367294 1.973301 6730418
-9.639853 -10.824106 2.888554 6730418
-10.221044 -10.127977 1.427437 6730418
-9.471791 -10.132726 0.750369 6730418
-9.306139 -10.577628 1.773207 6730418
-10.446699 -9.785682 0.176188 6730418
-9.320429 -10.707866 1.815179 6730418
-9.554983 -10.795847 1.309167 6730418
-9.892925 -10.467740 1.619270 6730418
-9.393168 -10.528975 1.780596 6730418
-9.789947 -9.226437 1.206282 6730418
-9.832753 -8.993818 2.119600 6730418
-9.745654 -10.779883 0.109641 6730418
-10.302079 -10.082538 0.320358 6730418
-10.131843 -9.694207 0.848598 6730418
-10.270523 -10.514365 0.447690 6730418
-9.928912 -9.589785 0.892573 6730418
-10.369078 -10.471234 0.946010 6730418
-9.600114 -10.420225 2.086990 6730418
-10.197871 -10.624063 2.006285 6730418
-9.470675 -9.324759 2.849264 6730418
-9.986176 -10.905970 1.225603 6730418
-10.828012 -9.449505 1.753847 6730418
-9.592459 -9.380153 2.128474 6730418
-10.480806 -9.828363 0.333624 6730418
-9.882718 -9.790457 1.209922 6730418
-9.559429 -10.537857 1.024970 6730418
-9.788044 -10.760160 1.926122 6730418
-9.387628 -9.461114 1.098261 6730418
-9.134926 -10.315092 0.479243 6730418
-9.934665 -10.744720 0.201706 6730418
-10.010481 -9.177617 2.573773 6730418
-9.523195 -10.194313 2.729399 6730418
-9.861705 -9.438431 2.512950 6730418
-10.352810 -9.835399 1.877221 6730418
-9.838753 -10.362976 0.855983 6730418
-9.402854 -9.410338 1.216369 6730418
-10.538020 -10.480395 1.833382 6730418
-9.465701 -9.419241 2.369628 6730418
-10.772962 -10.291585 2.745459 6730418
-9.292873 -9.868739 2.708991 6730418
-10.620138 -10.018149 1.959211 6730418
-9.884436 -10.152708 1.162946 6730418
-10.391327 -10.507297 2.556941 6730418
-9.905671 -10.449983 0.731655 6730418
-9.823563 -9.806755 1.401129 6730418
-9.514543 -10.238830 2.569376 6730418
-9.763825 -9.320873 1.781286 6730418
-9.759860 -10.541934 2.885154 6730418
-10.276284 -10.230871 1.278580 6730418
-9.124268 -9.755549 1.242764 6730418
-9.382317 -9.987037 2.152533 6730418
-10.222955 -9.097626 2.143097 6730418
-9.329044 -9.699729 2.757741 6730418
-10.217498 -9.319119 1.058184 6730418
-9.692367 -9.620675 1.176480 6730418
-10.055337 -9.090231 1.181718 6730418
-9.775823 -9.926585 0.938399 6730418
-10.598599 -10.622593 0.660569 6730418
-9.189433 -10.556832 0.763348 6730418
-10.050224 -10.871562 1.809767 6730418
-9.973969 -9.569107 2.872734 6730418
-9.676155 -10.118815 0.364741 6730418
-9.982522 -10.043006 1.500573 6730418
-9.521004 -9.367721 1.900617 6730418
-9.161717 -9.577145 1.163448 6730418
-10.060868 -9.157984 0.091595 6730418
-9.598415 -9.920212 0.743435 6730418
-9.802923 -9.894533 2.324902 6730418
-9.359145 -10.731995 1.966543 6730418
-10.487861 -9.442396 1.171957 6730418
-10.366941 -9.650032 2.667741 6730418
-9.140229 -9.921531 2.795361 6730418
-9.409687 -10.351615 0.123099 6730418
-10.245490 -9.452789 1.619223 6730418
-10.772593 -9.829366 1.450525 6730418
-10.174702 -9.820307 2.230754 6730418
-10.518973 -9.432098 1.208126 6730418
-10.001817 -9.394980 0.580864 6730418
-10.852763 -10.209876 2.658050 6730418
-9.945208 -9.717136 2.312995 6730418
-10.802351 -9.876880 1.496714 6730418
-10.724993 -9.719136 0.856379 6730418
-9.693475 -10.528747 2.726978 6730418
-10.690083 -10.617283 1.430513 6730418
-10.074657 -10.332626 1.585112 6730418
-9.750462 -10.954723 0.360861 6730418
-10.015100 -10.382171 1.123664 6730418
-9.416701 -10.288086 1.107828 6730418
-9.636587 -10.231560 2.198024 6730418
-9.044834 -9.831277 0.349625 6730418
-10.646880 -10.133707 0.471571 6730418
-9.534809 -10.529406 1.559531 6730418
-9.803053 -10.349633 1.966196 6730418
-9.968993 -10.231869 2.850699 6730418
-10.004474 -10.252949 2.401028 6730418
-9.474647 -9.589256 0.744217 6730418
-9.450587 -9.904450 2.650874 6730418
-9.729946 -10.501753 2.108942 6730418
-9.453454 -10.237470 0.575849 6730418
-9.032987 -10.282148 1.054974 6730418
-9.746597 -9.059949 0.951421 6730418
-9.224330 -10.444304 2.463338 6730418
-9.718966 -9.759860 2.727217 6730418
-9.104325 -10.282222 0.119289 6730418
-9.613668 -10.400664 1.000203 6730418
-10.396148 -10.475834 2.339216 6730418
-9.659314 -9.121070 1.868102 6730418
-9.270787 -10.121379 1.572780 6730418
-9.125648 -9.603004 1.747527 6730418
-9.324125 -9.544163 2.255098 6730418
-10.350986 -10.666553 0.618539 6730418
-9.267606 -10.363403 1.011100 6730418
-9.237812 -9.447145 0.328653 6730418
-9.296849 -10.023484 1.379055 6730418
-9.153321 -10.216551 1.826177 6730418
-10.361167 -9.298879 0.736184 6730418
-10.911030 -10.126880 2.230938 6730418
-9.903696 -9.408391 2.637176 6730418
-10.830980 -9.543719 1.621737 6730418
-9.235699 -10.188108 2.007258 6730418
-9.513412 -10.829488 2.821709 6730418
-9.422514 -10.426399 2.789556 6730418
-10.508203 -10.379424 2.126460 6730418
-9.977527 -10.561833 1.555637 6730418
-9.555640 -9.159064 2.712829 6730418
-9.980132 -10.500707 2.571583 6730418
-10.902858 -10.277616 1.740979 6730418
-10.295012 -9.498665 1.490826 6730418
-9.635336 -10.656183 2.414373 6730418
-9.417706 -9.938394 1.819081 6730418
-9.880467 -10.236239 0.067392 6730418
-10.627423 -10.367785 0.254720 6730418
-9.230030 -9.987722 0.029112 6730418
-10.779223 -10.314749 0.299895 6730418
-9.457901 -9.759038 1.850278 6730418
-10.532060 -9.843870 0.896812 6730418
-9.458795 -10.028440 1.481194 6730418
-9.910827 -10.320514 0.964049 6730418
-9.807092 -10.974797 0.037762 6730418
-10.010572 -9.590723 2.255885 6730418
-9.727950 -10.078362 2.012998 6730418
-9.171236 -10.456712 2.733940 6730418
-10.186150 -9.976438 2.023781 6730418
-10.403200 -9.967388 2.513994 6730418
-9.689975 -10.145302 2.564048 6730418
-10.143652 -9.994490 2.503791 6730418
-9.216181 -10.381174 1.155747 6730418
-10.321193 -10.708606 2.779389 6730418
-10.037914 -9.611184 2.838989 6730418
-9.295294 -10.646461 0.763596 6730418
-10.214373 -9.459223 1.228020 6730418
-10.025537 -9.233478 1.038253 6730418
-10.320124 -9.208284 2.716866 6730418
-9.394803 -10.552049 0.686717 6730418
-10.797771 -10.012637 0.945810 6730418
-9.932286 -10.634371 0.081080 6730418
-9.279716 -9.923045 1.829328 6730418
-9.396049 -9.234111 1.560552 6730418
-10.860750 -9.553621 0.606660 6730418
-9.484039 -9.873199 1.135691 6730418
-10.152594 -9.979126 1.358299 6730418
-10.114477 -9.891370 1.585159 6730418
-10.253691 -10.134995 2.147890 6730418
-9.626833 -9.397048 1.102334 6730418
-10.412037 -9.735777 0.879723 6730418
-10.309994 -9.411019 1.684263 6730418
-10.413616 -10.515318 2.960112 6730418
-10.243850 -10.966947 2.886783 6730418
-9.975411 -10.830812 2.300419 6730418
-9.943216 -9.570497 1.208153 6730418
-9.853535 -9.890887 2.532605 6730418
-9.538205 -9.381875 1.174818 6730418
-10.514091 -10.258787 1.007517 6730418
-9.823038 -9.942455 1.116352 6730418
-9.835351 -10.305501 2.086611 6730418
-9.655294 -9.594725 2.307172 6730418
-9.602968 -10.628279 2.294376 6730418
-9.789689 -9.158354 2.010384 6730418
-10.437348 -10.376386 0.611613 6730418
-10.023061 -10.984105 1.966668 6730418
-9.249544 -10.095684 0.117164 6730418
-10.448853 -9.501390 2.958200 6730418
-9.230236 -9.454099 2.274054 6730418
-10.127039 -9.197405 0.131046 6730418
-9.854832 -9.165027 2.239019 6730418
-9.083475 -9.823272 1.471258 6730418
-10.234755 -10.521948 0.425137 6730418
-9.698078 -9.102587 1.457128 6730418
-9.196778 -9.710206 1.650445 6730418
-9.238180 -9.550987 0.833326 6730418
-9.452033 -10.116936 0.652042 6730418
-9.455408 -10.388228 2.584083 6730418
-10.808518 -10.004601 0.449830 6730418
-10.712169 -9.823558 1.916705 6730418
-9.046908 -9.681490 0.662698 6730418
-9.763742 -9.695134 1.543288 6730418
-10.321560 -10.455677 1.502118 6730418
-9.220181 -9.465137 1.065105 6730418
-10.232546 -9.199959 2.298290 6730418
-10.792823 -9.645415 0.959078 6730418
-9.248560 -9.663705 0.443791 6730418
-9.665032 -9.770020 2.984537 6730418
-10.775033 -10.208727 2.375695 6730418
-9.268168 -9.827859 0.082326 6730418
-10.041534 -9.187736 2.170456 6730418
-9.726712 -10.261714 2.744886 6730418
-10.235799 -10.828239 1.864169 6730418
-9.498404 -10.103577 1.059795 6730418
-10.212397 -10.261378 1.163051 6730418
-10.164445 -9.772565 2.526086 6730418
-10.882455 -9.921552 1.798301 6730418
-9.220962 -9.600687 1.946144 6730418
-9.235697 -9.488680 2.017464 6730418
-9.887226 -10.236844 2.670901 6730418
-10.826293 -10.517746 2.483587 6730418
-9.330667 -10.369405 1.742095 6730418
-10.408280 -9.694212 1.235044 6730418
-10.193461 -10.149563 2.931702 6730418
-9.583899 -9.301792 1.752707 6730418
-9.442607 -10.809606 1.418373 6730418
-9.776032 -10.385040 0.616218 6730418
-9.554232 -10.308037 1.384219 6730418
-9.354091 -10.090490 1.205725 6730418
-9.310670 -9.253548 0.300081 6730418
-10.210224 -10.680482 0.955648 6730418
-10.497416 -10.499901 1.478075 6730418
-10.448521 -10.531474 2.452137 6730418
-10.577234 -9.954658 0.871975 6730418
-9.588765 -10.904952 1.934331 6730418
-9.206375 -10.483133 1.844697 6730418
-10.469753 -9.758718 2.706722 6730418
-10.366515 -10.212743 0.488525 6730418
-9.775527 -10.691814 2.634348 6730418
-10.898193 -10.021712 2.565913 6730418
-9.520260 -9.152090 0.826188 6730418
-10.032465 -10.337777 0.649385 6730418
-10.262928 -9.872616 0.402722 6730418
-9.953252 -9.868203 0.709973 6730418
-9.381568 -10.580162 0.704138 6730418
-10.730967 -10.143165 2.585579 6730418
-9.441031 -9.253226 2.957535 6730418
-9.964160 -9.420323 2.271486 6730418
-10.864264 -9.474557 2.563190 6730418
-10.020145 -10.462204 2.528154 6730418
-10.546848 -10.467988 2.373779 6730418
-9.526234 -9.838778 2.254905 6730418
-10.798909 -10.433052 0.636533 6730418
-10.579460 -9.231975 0.269610 6730418
-9.715967 -9.230413 1.767793 6730418
-9.253260 -9.987859 1.016139 6730418
-10.127225 -10.383404 2.361099 6730418
-10.832923 -10.176998 1.671832 6730418
-9.951072 -9.457098 1.338543 6730418
-9.220731 -10.159259 1.242808 6730418
-9.763781 -10.545711 0.312636 6730418
-10.104117 -10.286974 1.590017 6730418
-10.812038 -10.022980 1.504094 6730418
-10.012757 -10.624290 0.144016 6730418
-10.705798 -9.777243 2.580544 6730418
-9.128167 -10.121162 2.655748 6730418
-9.849767 -10.309046 2.653911 6730418
-10.934639 -10.194986 2.579335 6730418
-10.503002 -9.176430 0.901792 6730418
-10.050676 -9.497283 2.378772 6730418
-9.462370 -10.501108 0.824286 6730418
-10.593633 -9.173597 2.216036 6730418
-10.075230 -10.203300 1.166577 6730418
-9.472454 -9.149513 2.037934 6730418
-9.356527 -9.649492 2.146701 6730418
-10.005667 -9.892216 2.358908 6730418
-10.286112 -9.256107 0.010487 6730418
-10.106468 -9.537315 1.580337 6730418
-10.697077 -10.571891 1.065098 6730418
-10.639655 -9.861912 1.947395 6730418
-9.113649 -9.934964 1.889016 6730418
-9.391184 -9.792854 1.231106 6730418
-9.814579 -9.191556 1.332245 6730418
-9.856032 -9.205854 0.049714 6730418
-9.049277 -9.971863 0.051918 6730418
-9.388984 -10.718852 0.542616 6730418
-10.605049 -9.861529 0.448921 6730418
-10.505812 -10.172091 2.528914 6730418
-9.648623 -10.273791 1.074611 6730418
-9.483207 -9.480302 0.602596 6730418
-9.468895 -10.790816 1.624401 6730418
-10.003046 -9.541512 0.248598 6730418
-10.685826 -9.997979 1.245095 6730418
-9.783882 -10.630500 0.610724 6730418
-9.217678 -9.550550 0.779642 6730418
-9.611085 -9.427905 2.196730 6730418
-9.833535 -10.888126 0.182883 6730418
-10.144363 -9.246199 2.406321 6730418
-10.414249 -9.489000 1.035957 6730418
-10.699386 -10.307919 1.964082 6730418
-10.895065 -10.396380 2.231975 6730418
-10.282756 -10.573245 1.097176 6730418
-10.086530 -10.730548 1.037347 6730418
-9.716599 -9.758678 1.473746 6730418
-10.614306 -10.300118 1.224231 6730418
-10.599828 -10.754342 2.169828 6730418
-10.886683 -10.182994 2.561040 6730418
-10.740676 -10.481739 2.170527 6730418
-10.116819 -9.374187 1.216437 6730418
-9.481675 -10.327844 0.544498 6730418
-10.156710 -10.692011 0.703689 6730418
-9.371314 -10.728806 0.107955 6730418
-9.524777 -9.453959 1.551244 6730418
-10.519244 -9.354146 1.591050 6730418
-10.522758 -10.555211 2.082961 6730418
-10.114332 -9.646902 2.003527 6730418
-10.787551 -9.607844 0.655545 6730418
-10.513888 -9.977348 2.853754 6730418
-10.884934 -9.890491 2.930256 6730418
-9.738034 -9.794210 1.140265 6730418
-10.939691 -9.690933 0.199522 6730418
-9.883394 -9.797208 2.565994 6730418
-9.480745 -9.257031 2.639067 6730418
-9.259632 -9.369512 0.307342 6730418
-9.890318 -9.685184 2.416659 6730418
-10.362707 -9.664145 0.348384 6730418
-10.792667 -9.964801 0.597157 6730418
-9.965937 -9.146918 1.659125 6730418
-9.770439 -9.069818 2.248796 6730418
-10.485923 -9.220839 1.224146 6730418
-10.122366 -10.049813 1.972108 6730418
-9.566270 -10.078924 0.174421 6730418
-9.366558 -9.216207 2.631520 6730418
-10.380770 -10.105207 1.021897 6730418
-10.244288 -10.224454 1.109991 6730418
-10.669845 -10.274491 0.557855 6730418
-10.469692 -10.201723 2.182934 6730418
-9.891098 -9.441373 2.258803 6730418
-9.294020 -9.394378 0.705348 6730418
-9.985436 -10.171412 1.465758 6730418
-10.395161 -9.645761 1.743655 6730418
-10.491999 -10.137915 2.453987 6730418
-9.782704 -10.344962 2.358886 6730418
-9.611327 -9.554178 2.969138 6730418
-10.697886 -9.992681 2.765596 6730418
-9.495852 -10.310125 2.333142 6730418
-9.978291 -10.064456 2.613478 6730418
-10.310699 -10.577978 1.188010 6730418
-10.054957 -9.962377 1.250153 6730418
-10.318419 -9.166569 1.289460 6730418
-9.598914 -10.185693 0.620864 6730418
-9.836721 -10.624804 0.162073 6730418
-9.802000 -10.256233 0.837730 6730418
-10.708125 -10.655490 2.891366 6730418
-9.610594 -9.385033 0.727315 6730418
-10.964300 -10.320170 1.354830 6730418
-10.330268 -9.926394 2.225408 6730418
-9.715585 -9.519776 0.919754 6730418
-9.797124 -9.177655 2.391328 6730418
-9.621240 -9.627303 1.391797 6730418
-9.211884 -9.652207 2.474051 6730418
-10.099211 -9.375201 2.633555 6730418
-10.524148 -9.723526 2.846625 6730418
-9.608427 -10.388717 2.178957 6730418
-9.489484 -10.745036 1.895373 6730418
-10.330091 -9.051209 1.838619 6730418
-10.301848 -10.325549 1.691992 6730418
-9.493040 -9.350574 1.195089 6730418
-9.911245 -10.243667 2.175088 6730418
-10.166522 -9.737302 1.830045 6730418
-10.849545 -10.290242 0.848869 6730418
-10.701360 -9.736398 0.648037 6730418
-9.329362 -9.339015 1.771568 6730418
-9.064250 -9.990097 0.075623 6730418
-10.712406 -9.484860 0.259957 6730418
-10.138151 -9.581158 1.729932 6730418
-10.448268 -9.537964 1.250187 6730418
-10.732036 -9.476341 1.140610 6730418
-10.321235 -10.073955 2.083448 6730418
-10.008988 -9.422815 2.755069 6730418
-10.802579 -9.543619 1.758468 6730418
-10.596573 -10.023328 1.118985 6730418
-10.915667 -9.755398 0.523969 6730418
-10.057307 -10.120261 0.953070 6730418
-9.408409 -9.641290 2.063725 6730418
-10.048589 -9.515789 2.741633 6730418
-10.656912 -9.411390 0.494153 6730418
-10.064178 -9.403439 0.871165 6730418
-10.733907 -10.239196 2.022311 6730418
-10.464388 -9.921754 0.657911 6730418
-9.376527 -10.492949 1.173901 6730418
-9.670565 -10.647978 1.751496 6730418
-9.951737 -10.339622 2.991867 6730418
-10.708161 -10.592179 0.365822 6730418
-10.096720 -10.075686 1.026782 6730418
-10.396115 -9.110419 0.780731 6730418
-10.110209 -10.476709 0.314339 6730418
-10.454050 -10.161610 1.739567 6730418
-9.262180 -9.381186 0.079957 6730418
-10.342271 -10.000096 0.738301 6730418
-10.442465 -9.525159 2.566803 6730418
-9.242196 -10.020756 2.879421 6730418
-10.529305 -9.810992 2.163473 6730418
-9.828285 -10.105177 0.959932 6730418
-10.338914 -10.524927 0.243307 6730418
-10.884462 -9.966602 1.635440 6730418
-9.217189 -9.857512 2.318421 6730418
-9.749754 -9.130225 0.241936 6730418
-10.574986 -10.012522 2.383848 6730418
-10.089854 -10.732677 1.953316 6730418
-10.881442 -9.737034 -0.004152 6730418
-10.655868 -9.904814 0.830903 6730418
-10.227011 -10.352916 2.550550 6730418
-10.400095 -10.628380 1.216118 6730418
-10.658794 -9.363553 2.616531 6730418
-9.196745 -10.598994 0.526078 6730418
-9.894656 -9.640873 2.508531 6730418
-9.163813 -9.911699 2.383962 6730418
-10.219581 -10.336699 1.037354 6730418
-9.346493 -9.845075 1.059016 6730418
-10.335459 -10.747032 2.786498 6730418
-9.663240 -10.229112 0.754677 6730418
-10.563273 -9.796344 2.084384 6730418
-9.983308 -10.962304 2.261848 6730418
-9.841645 -9.718554 2.190770 6730418
-10.198224 -9.226553 1.065314 6730418
-10.189313 -10.429763 1.635867 6730418
-9.613231 -9.920488 0.549341 6730418
-10.192079 -10.140344 2.335750 6730418
-9.299440 -10.685221 1.164390 6730418
-9.205296 -10.223859 0.591319 6730418
-9.570396 -9.886891 1.041064 6730418
-9.835115 -9.611557 2.578821 6730418
-10.465629 -9.768862 0.615442 6730418
-10.188148 -9.875366 0.490126 6730418
-10.436288 -10.660610 2.988866 6730418
-9.492027 -9.740833 2.485316 6730418
-9.109645 -10.269583 2.833163 6730418
-9.879730 -10.706625 0.825484 6730418
-9.894070 -10.755039 2.983402 6730418
-10.331257 -10.217407 1.017155 6730418
-10.485825 -10.411504 1.242803 6730418
-10.475773 -10.393243 1.800457 6730418
-10.529801 -10.777096 2.471695 6730418
-10.126156 -9.623956 2.189797 6730418
-10.005440 -9.594719 0.596037 6730418
-10.796683 -10.478496 1.168569 6730418
-9.047520 -10.110695 1.437546 6730418
-10.350450 -10.894005 0.041476 6730418
-9.789710 -9.532893 2.723823 6730418
-10.361648 -10.492332 2.432845 6730418
-9.885066 -10.716655 2.116181 6730418
-9.215694 -9.827376 0.934947 6730418
-9.347489 -10.761942 2.850819 6730418
-10.587755 -10.537827 0.095330 6730418
-9.943996 -9.894783 0.874135 6730418
-10.103522 -9.716896 2.027163 6730418
-9.756285 -9.878059 0.479190 6730418
-9.115634 -10.345073 0.536515 6730418
-9.837166 -10.331798 1.336850 6730418
-10.674807 -10.102898 1.354163 6730418
-9.002786 -9.868726 2.102544 6730418
-10.437979 -10.525142 0.705290 6730418
-10.116932 -9.762093 2.894187 6730418
-9.138237 -10.460471 0.079117 6730418
