# .PCD v0.7 - Point Cloud Data file format
VERSION 0.7
FIELDS x y z rgb
SIZE 4 4 4 4
TYPE F F F U
COUNT 1 1 1 1
WIDTH 1292
HEIGHT 1
VIEWPOINT 0 0 0 1 0 0 0
POINTS 1292
DATA ascii
9.362878 11.126437 2.762193 11697996
10.342091 10.159329 2.571687 11697996
9.536345 9.530661 2.049981 11697996
8.881020 9.977089 1.978693 11697996
9.130429 10.763467 0.881716 11697996
8.810148 10.818070 1.717258 11697996
9.786628 9.988605 2.033853 11697996
10.281256 8.957401 1.700381 11697996
9.510640 9.896488 0.549767 11697996
9.295055 9.643134 0.694447 11697996
8.775524 10.261150 3.133592 11697996
10.467613 10.265902 3.648191 11697996
10.764939 10.787571 0.029447 11697996
10.255567 10.080969 0.471859 11697996
11.031395 9.860956 1.893396 11697996
9.816751 9.263743 2.232580 11697996
10.079826 9.045961 0.079454 11697996
9.706702 10.056507 0.968422 11697996
10.555874 10.069681 1.604247 11697996
9.235915 11.108870 2.425837 11697996
9.711959 10.091291 0.747281 11697996
9.892427 10.880667 0.158434 11697996
10.378801 10.510351 2.074826 11697996
9.159020 9.993590 0.503345 11697996
8.845860 10.990770 0.860677 11697996
11.086422 9.365829 0.793208 11697996
10.156371 9.233187 2.583286 11697996
10.952440 10.824378 0.503642 11697996
10.458205 10.985997 2.135974 11697996
8.999609 10.307002 3.546236 11697996
9.425787 9.606829 0.163091 11697996
11.103496 9.017775 2.995833 11697996
11.112053 8.977577 3.895894 11697996
8.881166 10.519970 0.418092 11697996
8.903122 9.477865 0.754679 11697996
10.280343 11.162385 2.995789 11697996
8.785436 10.211674 0.875516 11697996
8.772532 8.811927 3.780402 11697996
11.235606 10.560885 2.119002 11697996
10.385620 9.011858 3.200023 11697996
9.368170 9.194155 0.535317 11697996
10.933073 9.730237 3.354108 11697996
10.627097 10.420104 0.434047 11697996
9.789786 8.935707 3.765715 11697996
9.322023 9.433219 2.397724 11697996
9.107905 9.248102 3.894213 11697996
9.798652 9.753863 2.010371 11697996
10.457383 10.535113 0.016939 11697996
9.576113 10.874617 1.252339 11697996
10.362242 10.435608 2.600248 11697996
10.988015 10.940860 0.603969 11697996
9.252397 9.482525 1.068800 11697996
9.565099 9.303821 2.838590 11697996
9.658420 10.348255 1.390523 11697996
10.086820 10.896838 3.197095 11697996
11.173678 9.809614 0.053836 11697996
9.482016 9.548391 0.971168 11697996
8.927057 10.680614 1.233494 11697996
9.121683 9.101903 3.648577 11697996
10.842111 9.816910 2.429914 11697996
11.185246 8.930914 3.992766 11697996
9.971099 10.866618 1.858795 11697996
8.919549 9.006896 1.009835 11697996
9.682972 10.202002 1.045725 11697996
10.268828 9.564342 1.561984 11697996
10.839781 10.383410 1.344326 11697996
10.246356 9.339284 3.952353 11697996
10.098301 9.579183 3.286342 11697996
9.019828 10.381322 0.925649 11697996
9.842594 9.203122 3.732539 11697996
11.161107 8.972952 2.110600 11697996
10.790728 10.792895 0.404909 11697996
9.197518 10.309284 0.908803 11697996
9.383002 11.113698 3.176620 11697996
9.797877 9.008142 0.157543 11697996
10.015076 9.621590 0.419686 11697996
8.863995 10.012174 2.488405 11697996
9.987366 11.101857 0.876127 11697996
10.441898 9.958573 0.079581 11697996
10.292355 9.646073 3.017157 11697996
10.058501 9.226169 3.367534 11697996
10.324124 9.818867 3.801991 11697996
9.298764 11.141632 1.627410 11697996
9.068840 10.540615 1.406380 11697996
8.866020 9.944851 2.255161 11697996
9.828629 10.215110 2.376961 11697996
10.843025 10.577871 1.381609 11697996
10.954963 9.917918 3.729701 11697996
10.281473 10.033900 2.670426 11697996
8.883666 9.625600 1.978829 11697996
10.935853 10.759940 1.435753 11697996
10.831709 8.846565 3.034432 11697996
9.047235 10.256661 3.225732 11697996
10.796706 8.939305 1.577590 11697996
9.223892 10.930899 0.487844 11697996
10.780505 9.948243 0.037110 11697996
10.711147 10.317346 3.562238 11697996
10.883623 10.981325 2.300149 11697996
10.035430 9.537304 3.343284 11697996
10.986541 10.279770 0.242844 11697996
8.875353 9.302769 2.638929 11697996
9.409578 8.827472 2.999732 11697996
9.411297 10.137713 1.916755 11697996
10.773338 10.812979 3.222781 11697996
8.971935 8.940525 0.457668 11697996
10.845786 10.690720 3.106655 11697996
9.930573 10.080162 3.264103 11697996
11.180944 10.648776 2.871587 11697996
11.045662 10.051169 1.978779 11697996
9.201608 10.012932 2.829251 11697996
10.599943 10.784570 3.216123 11697996
9.389860 10.740990 1.762037 11697996
11.198759 9.438209 3.536204 11697996
10.961325 9.595954 0.984919 11697996
8.917291 11.013345 0.438172 11697996
8.808410 10.903036 0.126646 11697996
10.203935 10.019090 1.349283 11697996
10.608850 10.261198 1.473041 11697996
8.961525 9.999204 3.798711 11697996
10.446101 10.572254 1.820967 11697996
9.615162 11.166800 2.681614 11697996
10.937878 9.674333 3.127741 11697996
8.843966 10.905676 3.954466 11697996
10.851956 10.416918 1.866245 11697996
10.711944 9.716630 1.124760 11697996
9.791744 9.414936 0.377272 11697996
10.087745 10.051652 2.728005 11697996
9.777478 11.169383 0.773679 11697996
8.985456 10.012032 3.987658 11697996
10.465823 9.829328 3.119915 11697996
9.371697 9.751022 0.707177 11697996
8.949350 11.142095 3.050032 11697996
9.238445 9.025175 3.725139 11697996
11.108063 9.032921 2.117473 11697996
11.256060 10.806592 0.930862 11697996
10.839064 10.590895 3.680219 11697996
9.065451 9.652116 3.946663 11697996
10.777034 10.580063 2.205312 11697996
10.632725 10.535563 0.443665 11697996
9.188508 9.046464 1.641296 11697996
9.328645 9.933407 3.774220 11697996
8.874611 9.654587 1.846044 11697996
10.654852 8.971521 1.595766 11697996
10.712385 10.525999 2.322727 11697996
10.609107 9.801264 1.851981 11697996
10.907710 10.116669 3.978200 11697996
9.040637 9.478889 2.757186 11697996
10.458436 9.688447 3.165513 11697996
10.762756 8.988994 2.162637 11697996
9.063789 10.795026 0.129223 11697996
9.250254 11.074020 3.198715 11697996
9.932446 10.905587 0.786815 11697996
10.878433 10.754130 0.855964 11697996
9.218629 9.470263 1.052506 11697996
10.429010 9.678697 3.622752 11697996
10.843415 11.214938 0.766607 11697996
9.213492 11.138454 2.158327 11697996
9.629971 10.650953 1.820983 11697996
10.097791 9.882280 3.915541 11697996
9.395100 10.946155 2.716043 11697996
10.842224 10.504360 3.173373 11697996
10.816865 10.891072 3.098612 11697996
9.713650 10.536602 1.322251 11697996
10.798095 9.323885 1.107611 11697996
9.996864 9.343987 0.552161 11697996
9.025772 9.544234 1.080159 11697996
9.177098 9.180726 0.233758 11697996
9.286550 10.314894 3.869881 11697996
9.707049 8.914827 0.447269 11697996
9.214083 8.751957 2.308495 11697996
10.883992 9.179153 2.979543 11697996
8.918607 9.667258 3.895655 11697996
9.571266 10.166950 3.679377 11697996
11.046978 9.263000 0.919642 11697996
10.755576 9.460754 1.229851 11697996
9.856628 9.578596 1.601236 11697996
8.783585 11.148217 2.169449 11697996
11.149387 10.270665 2.369038 11697996
11.201386 9.571104 1.201376 11697996
11.208799 9.787628 0.718544 11697996
9.141124 9.789237 2.541136 11697996
9.125369 10.292564 3.229877 11697996
9.509135 9.410722 2.881564 11697996
8.813834 9.552228 3.743083 11697996
10.167171 10.838516 2.606890 11697996
10.613920 10.311440 3.810016 11697996
10.012443 10.108619 3.908864 11697996
8.824363 8.897715 1.706873 11697996
10.230474 8.958659 0.259598 11697996
9.131114 10.982783 0.800916 11697996
8.775370 8.885695 3.095501 11697996
9.898404 8.929851 3.170485 11697996
11.138434 10.940651 2.212208 11697996
9.252628 8.778996 0.906978 11697996
8.967908 9.083010 1.606445 11697996
9.325101 10.233985 1.372650 11697996
10.498498 8.794341 3.273226 11697996
10.763300 9.807593 3.718642 11697996
9.601305 9.709917 0.399335 11697996
9.370819 8.831056 3.325232 11697996
10.698558 9.524367 2.408327 11697996
10.163382 9.519046 3.975188 11697996
9.604260 9.823981 1.685167 11697996
9.800323 10.126050 3.036295 11697996
10.014480 9.407699 1.848771 11697996
10.714106 10.896094 1.416283 11697996
9.948647 8.825994 1.482778 11697996
9.203103 10.406473 1.917958 11697996
9.149286 11.058030 2.070281 11697996
9.979760 9.808912 3.670303 11697996
11.002147 10.131912 0.175137 11697996
9.358176 10.985737 1.390995 11697996
9.854493 10.176435 3.414791 11697996
11.259640 10.654480 0.228169 11697996
10.024844 9.590773 1.284681 11697996
10.890132 9.395277 2.367971 11697996
10.592197 8.764602 1.610190 11697996
8.906124 10.806986 2.363461 11697996
9.061971 9.454751 1.744375 11697996
9.213243 8.852029 3.767281 11697996
9.790356 9.091931 1.106342 11697996
9.590110 8.836851 3.037880 11697996
10.592983 8.796597 2.800396 11697996
11.185604 9.459831 0.292832 11697996
11.229878 9.856849 2.877834 11697996
10.169912 11.199592 0.644574 11697996
10.022796 10.787228 2.000186 11697996
9.806404 10.513376 1.099169 11697996
10.706813 9.861067 2.494126 11697996
10.737183 8.836625 1.768175 11697996
10.696624 9.200688 0.580497 11697996
10.417399 10.744441 0.665318 11697996
8.756974 9.237980 3.449638 11697996
9.918748 10.378409 1.011492 11697996
10.019478 10.833720 1.671681 11697996
8.851862 10.289347 3.863707 11697996
9.436473 10.029048 1.579441 11697996
10.828044 9.841483 1.620251 11697996
8.817286 8.895610 1.074800 11697996
9.407945 11.084013 1.692160 11697996
10.871595 9.494047 1.635690 11697996
8.804054 11.205732 2.932760 11697996
8.875693 10.096336 0.887370 11697996
10.614518 10.740221 0.827840 11697996
9.104450 8.829191 2.662853 11697996
10.038556 9.543087 2.620061 11697996
8.816902 10.064997 3.374351 11697996
10.593500 9.491558 2.515992 11697996
8.911726 9.838577 0.526083 11697996
9.550961 10.160359 3.972343 11697996
8.791343 9.930244 1.335809 11697996
9.209501 10.345160 3.115592 11697996
11.233090 11.027753 0.851890 11697996
9.773685 9.905021 0.365887 11697996
9.636509 9.884620 0.263891 11697996
11.004866 9.929283 1.332508 11697996
9.242960 11.158674 0.645560 11697996
11.078892 11.112638 2.991663 11697996
11.095281 10.654712 1.325326 11697996
10.474321 10.513148 0.235983 11697996
10.040427 11.196179 1.491290 11697996
10.528874 10.235043 3.800940 11697996
9.389102 10.516666 0.586419 11697996
10.589358 9.423396 3.133530 11697996
10.252491 10.702741 0.787127 11697996
8.818302 10.055909 1.656865 11697996
11.154098 9.732920 1.510162 11697996
8.948314 9.297436 3.461079 11697996
10.311167 8.826379 3.558093 11697996
10.465975 8.816911 3.971045 11697996
9.281412 9.094535 2.095931 11697996
10.468130 10.813585 0.617679 11697996
10.693699 9.722354 0.437140 11697996
10.657960 9.877865 1.931879 11697996
9.405288 9.797845 3.628481 11697996
8.889622 9.154647 2.867838 11697996
10.300816 9.188278 2.865064 11697996
10.058021 11.078933 3.085235 11697996
10.367197 10.543947 3.481731 11697996
10.093554 10.087254 0.845377 11697996
9.954806 9.557595 0.413958 11697996
9.483037 11.027312 1.478367 11697996
10.102918 8.893090 1.134176 11697996
10.082272 11.198663 2.636112 11697996
10.094024 9.352576 2.242203 11697996
9.029126 8.838545 0.219747 11697996
9.291883 9.253428 2.058455 11697996
9.305487 10.879538 0.835024 11697996
11.192144 9.686676 1.947459 11697996
10.523219 11.227757 2.009857 11697996
9.178188 11.053335 0.594815 11697996
8.800228 11.217716 0.075422 11697996
9.397339 10.120462 0.730934 11697996
10.609494 10.550973 2.605462 11697996
10.781600 10.358868 1.020112 11697996
9.568717 11.023585 1.501409 11697996
9.049397 9.003344 1.565180 11697996
9.718480 10.980176 1.318854 11697996
9.766719 9.083675 0.590220 11697996
9.254024 8.970031 2.062840 11697996
10.957662 10.389628 0.040532 11697996
10.592489 9.251204 1.812098 11697996
10.016900 9.943731 1.146422 11697996
10.246823 10.486638 3.140498 11697996
9.959846 10.951203 0.357051 11697996
9.117925 10.542058 3.427783 11697996
9.633082 11.189494 3.389825 11697996
8.993226 10.537685 0.478570 11697996
10.132823 8.878694 3.238442 11697996
10.780412 10.299764 0.758300 11697996
10.096098 8.852730 2.478784 11697996
11.265025 9.063296 0.452188 11697996
9.522201 9.211199 0.659963 11697996
11.233594 9.018536 3.300952 11697996
9.167034 9.760475 0.778123 11697996
9.355557 9.247105 3.977183 11697996
10.474887 9.225079 2.577881 11697996
9.834622 9.386764 1.026955 11697996
10.031492 11.220737 2.956010 11697996
11.081255 10.354602 0.301025 11697996
10.833298 9.272790 0.990851 11697996
10.593429 10.644046 3.153372 11697996
10.557026 10.917214 1.447793 11697996
9.931559 9.085545 0.784524 11697996
10.720642 9.752778 0.179374 11697996
9.050210 9.951215 0.465702 11697996
10.817483 9.620668 1.410060 11697996
10.639585 11.238442 3.936588 11697996
10.630980 9.642733 3.765091 11697996
11.165746 9.919515 2.936833 11697996
11.075089 9.989328 3.068426 11697996
8.841283 10.884965 2.791150 11697996
11.054286 9.881917 2.792092 11697996
9.265125 9.776726 3.429003 11697996
9.296178 8.963192 3.452621 11697996
9.882752 10.735716 2.533495 11697996
10.903791 9.218636 0.185202 11697996
10.725013 10.510583 1.263767 11697996
9.920779 10.678031 2.338414 11697996
9.124086 10.412854 1.774429 11697996
10.213396 9.306844 2.225434 11697996
11.029860 10.201676 0.208150 11697996
10.059255 11.169379 2.960527 11697996
10.643473 11.001002 3.869382 11697996
9.743712 8.792553 1.534805 11697996
9.582280 9.469530 1.392320 11697996
10.675481 10.719933 1.627203 11697996
9.565979 10.468369 2.712036 11697996
10.208605 11.247462 0.292770 11697996
9.616742 8.842272 3.292941 11697996
9.533865 10.294359 3.153749 11697996
10.340802 9.108795 3.339015 11697996
9.396587 10.332336 2.970908 11697996
9.627942 10.668247 1.706477 11697996
9.105596 10.821462 2.143102 11697996
10.789016 10.494042 0.926772 11697996
10.816968 10.926805 3.724581 11697996
10.697522 10.950102 1.686668 11697996
11.218010 9.268591 3.326803 11697996
9.856169 11.212461 1.734593 11697996
8.844595 8.781511 2.466122 11697996
9.136078 10.116250 3.136509 11697996
10.557711 10.063727 0.204243 11697996
8.842577 10.211152 3.404325 11697996
10.276250 9.534094 0.829781 11697996
10.241116 9.009616 1.434187 11697996
9.601307 8.923869 3.597032 11697996
9.747443 9.825120 1.589946 11697996
10.864965 9.973167 3.026696 11697996
10.688771 10.333457 3.292204 11697996
10.797562 10.479645 0.689596 11697996
10.753599 10.235477 3.851199 11697996
11.089389 9.519026 1.691842 11697996
9.507198 10.811870 2.604514 11697996
10.220169 8.758619 3.126249 11697996
11.157622 9.479797 2.716668 11697996
10.342167 10.064081 2.045230 11697996
10.349487 10.052456 0.962700 11697996
8.901498 10.963795 3.436090 11697996
10.645038 9.919430 1.739290 11697996
9.486420 9.998061 2.172854 11697996
10.119071 10.714851 3.246919 11697996
9.269110 10.490757 1.871692 11697996
9.238076 9.728017 2.765810 11697996
9.771564 9.147215 3.562228 11697996
9.611943 11.043392 2.014126 11697996
10.589935 8.895329 1.290536 11697996
8.924798 11.130257 0.025416 11697996
11.026040 10.378455 2.089649 11697996
8.895653 11.188375 0.033063 11697996
9.264606 11.119654 1.578325 11697996
10.143040 9.162133 1.450933 11697996
9.178993 10.597772 0.525806 11697996
10.814566 10.962454 3.766086 11697996
10.170082 9.818975 2.650696 11697996
10.972116 10.444342 2.347453 11697996
11.176299 9.929201 2.100476 11697996
10.004279 10.192288 2.195789 11697996
10.017941 10.219460 2.057313 11697996
8.898512 9.513412 0.932669 11697996
10.386223 11.019714 2.190886 11697996
11.022928 10.928942 1.679936 11697996
9.959615 8.854211 0.516302 11697996
9.320737 10.389281 3.305819 11697996
11.195420 9.203951 3.192505 11697996
11.098466 10.628997 2.368168 11697996
10.848587 11.163522 1.193238 11697996
10.724757 9.569322 2.740239 11697996
9.994708 10.824575 1.092487 11697996
11.054320 10.015616 1.272879 11697996
9.005484 10.073461 2.590119 11697996
10.089740 10.404114 0.472333 11697996
10.819642 9.920896 3.387365 11697996
9.858490 10.367669 3.097737 11697996
10.100256 11.170806 1.584165 11697996
9.575753 9.909394 1.497436 11697996
10.279824 10.231162 3.255495 11697996
10.921161 10.665746 3.181134 11697996
10.727631 10.666212 0.874926 11697996
10.731453 10.076791 1.553504 11697996
9.720922 10.702744 3.989847 11697996
10.837413 9.563283 1.397157 11697996
9.095645 10.149178 3.897247 11697996
9.135575 9.556338 0.251624 11697996
10.949957 10.894058 1.619680 11697996
10.124274 10.270020 2.379643 11697996
9.562575 10.966162 1.805999 11697996
10.132230 10.711759 0.209744 11697996
10.858397 8.856834 0.787700 11697996
9.116632 10.867683 0.693425 11697996
11.000695 10.991958 0.516648 11697996
10.072354 10.183487 3.173193 11697996
10.394609 9.999034 0.212841 11697996
10.240344 8.945546 1.587131 11697996
9.293955 8.909080 1.495890 11697996
8.960633 10.327582 3.109553 11697996
10.510316 9.356429 1.521653 11697996
9.134150 9.327405 3.703850 11697996
9.496202 9.215053 0.601877 11697996
10.318985 11.042204 1.204271 11697996
10.506339 9.128861 1.453998 11697996
11.106658 10.361947 1.885422 11697996
10.635646 8.983982 3.656999 11697996
10.938954 10.812640 0.798604 11697996
10.847461 9.180541 1.491949 11697996
9.583637 11.179670 1.848832 11697996
8.963432 10.242453 1.800673 11697996
11.232758 10.133165 0.240127 11697996
10.015030 10.987377 3.627910 11697996
10.616241 10.332886 0.256236 11697996
8.860781 10.567694 0.583748 11697996
8.987208 8.863672 1.463224 11697996
10.871554 9.471898 0.161649 11697996
10.393385 9.472852 3.723808 11697996
10.223395 10.465229 0.741030 11697996
10.410104 10.742122 0.147362 11697996
10.779803 9.169580 1.208575 11697996
10.962686 9.808359 3.729824 11697996
10.429492 9.565715 1.575120 11697996
8.816074 8.971461 0.558232 11697996
10.157977 10.263515 3.681720 11697996
9.234408 11.024373 0.682028 11697996
10.783145 8.809645 0.568436 11697996
8.973923 10.684104 2.527614 11697996
10.718619 9.482111 3.113184 11697996
9.520939 9.763557 0.848473 11697996
10.984419 11.159484 2.362568 11697996
9.586235 10.542302 2.837309 11697996
9.680491 11.123942 1.303425 11697996
9.789844 11.141765 2.719377 11697996
10.321499 10.303805 2.999532 11697996
10.446502 10.656565 3.516424 11697996
10.940588 10.693357 1.455858 11697996
9.124286 10.883644 2.662768 11697996
10.854245 9.643864 0.381883 11697996
11.007288 10.564905 3.106076 11697996
8.792185 9.092916 3.984410 11697996
9.466869 9.455136 2.523595 11697996
10.747593 10.217381 2.472300 11697996
8.797071 9.501279 0.695763 11697996
10.264195 9.242550 3.723210 11697996
10.153911 9.121675 2.590082 11697996
10.368235 11.046928 2.561294 11697996
9.089701 9.501789 1.893391 11697996
10.039908 9.384600 2.224310 11697996
9.169477 9.385650 0.691211 11697996
11.015349 9.588268 3.953704 11697996
10.279593 10.735548 1.857614 11697996
10.987372 10.003966 2.389860 11697996
10.264771 10.948946 1.715745 11697996
9.674427 9.775953 3.306159 11697996
10.571386 8.908481 1.935715 11697996
9.240877 10.712130 1.530234 11697996
9.365196 9.236550 2.070248 11697996
9.120413 9.069489 3.248399 11697996
9.379117 10.494851 2.035769 11697996
11.089569 9.044368 2.317725 11697996
11.124534 9.885074 2.467117 11697996
9.317230 11.182545 2.926152 11697996
9.615313 11.183530 1.228921 11697996
9.065922 9.533169 3.200119 11697996
11.176165 8.971674 1.368331 11697996
10.230233 9.963934 1.702792 11697996
10.082742 10.480727 2.645171 11697996
9.362796 9.136747 0.725994 11697996
9.975327 9.425465 0.376818 11697996
9.056339 8.924616 1.401048 11697996
8.806920 10.326660 2.405262 11697996
9.776561 8.943747 2.932597 11697996
10.120084 10.964690 0.843148 11697996
11.064490 9.249370 3.982429 11697996
10.767434 8.985179 1.266306 11697996
9.640574 9.923110 2.837873 11697996
10.086256 9.367934 2.804358 11697996
10.062663 11.144909 3.059857 11697996
11.035716 10.869724 3.188494 11697996
9.410897 10.946389 1.006238 11697996
9.544703 10.770828 1.101792 11697996
8.734557 9.326341 0.102626 11697996
10.520431 10.803501 2.040204 11697996
10.464828 10.685689 2.448956 11697996
10.180991 9.077643 2.936531 11697996
10.359065 9.603321 3.749189 11697996
9.177052 10.730780 3.708058 11697996
9.694448 10.871001 2.550838 11697996
10.961610 9.888398 0.465064 11697996
10.607907 10.840757 3.371594 11697996
10.776136 10.291196 2.114398 11697996
10.373223 10.423640 0.350615 11697996
10.972416 10.442343 2.650341 11697996
9.689888 9.657000 2.598654 11697996
11.151623 10.933450 1.309608 11697996
9.399112 9.464331 3.147768 11697996
10.891932 8.940202 3.580447 11697996
11.199795 9.817017 1.986322 11697996
10.452278 10.300112 2.613881 11697996
9.658072 9.126410 0.436251 11697996
11.220921 10.430031 0.265811 11697996
9.967767 9.295196 0.979019 11697996
10.373862 10.359931 2.391920 11697996
10.799791 8.792060 1.210971 11697996
9.957933 9.084790 0.530815 11697996
9.698535 11.201117 0.821912 11697996
10.147061 9.156477 1.170849 11697996
8.873884 9.532175 1.571184 11697996
9.726713 8.911406 1.708668 11697996
9.829750 9.865542 1.058289 11697996
10.105922 10.847505 3.388119 11697996
10.297343 8.958143 1.127603 11697996
9.051028 10.192721 1.323348 11697996
11.123147 8.860863 2.019005 11697996
11.073023 9.333722 2.185199 11697996
11.076207 9.184541 3.943058 11697996
8.879014 10.388434 2.279334 11697996
8.880281 10.428986 0.518998 11697996
9.062672 11.107927 3.750472 11697996
9.185981 9.676684 0.810538 11697996
9.212667 10.787965 1.372489 11697996
9.336190 10.736564 1.330904 11697996
10.988400 10.230038 1.978566 11697996
10.392412 10.502609 2.547288 11697996
8.865971 10.263865 3.279040 11697996
9.500946 10.232949 3.599883 11697996
9.074639 10.908660 3.164320 11697996
11.134538 10.278616 0.737908 11697996
9.413772 9.089505 2.451165 11697996
9.123469 10.036460 1.054649 11697996
11.107581 9.464847 2.028759 11697996
10.800507 9.511116 0.283323 11697996
9.773449 10.389496 1.855058 11697996
10.220029 10.102661 1.165867 11697996
8.752915 10.448000 3.095263 11697996
10.326611 9.239836 1.369427 11697996
9.772165 9.271527 0.019909 11697996
9.277743 9.969423 2.854494 11697996
10.567632 9.548590 0.874230 11697996
10.180747 10.171540 3.541728 11697996
8.906969 11.074703 1.880238 11697996
11.032146 9.218019 1.345835 11697996
9.220403 9.788085 2.959624 11697996
8.901698 9.088854 2.171673 11697996
9.416992 10.256969 1.044362 11697996
11.062033 9.627544 3.509619 11697996
9.631742 10.068069 1.931974 11697996
10.606435 11.197559 0.080609 11697996
9.695540 9.630085 1.376074 11697996
10.789251 8.933657 3.649482 11697996
9.609444 10.427310 0.305378 11697996
10.761239 10.011803 2.907783 11697996
9.093011 10.040063 3.791147 11697996
9.025292 10.806497 3.480991 11697996
10.686549 8.925998 1.528589 11697996
9.131864 10.575167 2.775449 11697996
9.939767 10.034226 3.958421 11697996
10.158332 10.914773 2.308574 11697996
9.860924 10.117213 0.359383 11697996
8.854655 8.924283 2.161448 11697996
10.247935 9.778761 3.845954 11697996
10.638538 11.171455 2.216517 11697996
9.288188 10.107296 3.194924 11697996
9.868811 9.944679 2.633161 11697996
8.887031 10.253053 0.202398 11697996
10.791621 10.504097 1.931795 11697996
10.130029 9.684227 3.371114 11697996
10.953290 10.185094 3.356595 11697996
8.957876 9.208400 3.957600 11697996
9.318481 10.858980 3.326781 11697996
10.293818 10.714213 0.971863 11697996
10.805034 9.895303 2.279118 11697996
10.497530 8.750016 3.519787 11697996
10.819862 8.920633 0.875269 11697996
9.378107 10.237685 2.561114 11697996
9.108518 10.825891 1.143099 11697996
10.352145 8.821352 3.305814 11697996
9.685479 10.819997 2.926465 11697996
9.883772 10.540934 1.167969 11697996
11.116344 10.948788 1.463427 11697996
9.569709 8.819967 3.882571 11697996
10.735604 9.865496 2.280505 11697996
8.780224 9.339436 1.171219 11697996
10.834736 11.111324 3.735425 11697996
10.693876 10.955399 2.520088 11697996
9.533549 9.764327 1.204210 11697996
10.198491 9.273594 1.989685 11697996
9.789863 9.996900 2.717359 11697996
10.007052 9.718172 0.835615 11697996
10.322877 11.213679 1.903155 11697996
10.655982 9.180058 0.206898 11697996
9.471785 10.679070 1.197930 11697996
11.185431 11.035229 2.575886 11697996
10.533298 9.701300 2.093385 11697996
8.996070 10.378436 3.891295 11697996
9.210850 10.614274 0.179700 11697996
10.298344 10.029305 3.632333 11697996
10.767705 10.606464 3.115698 11697996
9.597281 11.234359 3.665144 11697996
9.372023 9.252484 2.997542 11697996
9.998592 9.303442 1.226274 11697996
9.155093 8.948569 0.867189 11697996
10.416166 9.624002 3.097440 11697996
10.588777 11.085121 2.253886 11697996
10.160228 8.915959 0.531351 11697996
10.690353 10.069546 3.469578 11697996
9.060844 10.970917 2.178782 11697996
11.001633 10.105006 1.567422 11697996
10.649888 10.388628 0.630347 11697996
8.828973 10.837083 2.874329 11697996
8.808784 10.469812 0.277471 11697996
9.376580 10.163514 3.525953 11697996
9.046025 9.279531 2.118294 11697996
9.657256 9.751581 2.110703 11697996
10.358813 10.016285 1.882015 11697996
9.249227 9.343873 2.299875 11697996
9.456661 10.888962 3.345891 11697996
10.056727 9.986528 3.365876 11697996
10.668028 8.801286 0.829114 11697996
9.201898 11.203853 3.897673 11697996
9.432785 9.877791 0.959352 11697996
8.873530 11.163590 2.692581 11697996
10.125954 9.606956 3.438315 11697996
11.257401 10.321551 0.204264 11697996
9.329010 9.016218 2.737137 11697996
8.967870 9.304984 1.288291 11697996
9.018089 9.757779 1.638205 11697996
8.902898 9.721612 2.172412 11697996
11.071736 11.080965 3.609287 11697996
10.385217 9.835454 2.980877 11697996
8.763535 9.733083 3.510769 11697996
10.270424 9.612529 0.347174 11697996
10.448661 10.597952 1.869476 11697996
10.760447 9.620301 0.090991 11697996
11.180944 8.937467 3.967126 11697996
10.548335 10.474164 2.020850 11697996
10.213378 10.206330 0.729838 11697996
10.002672 9.121464 1.464028 11697996
11.137346 9.293140 2.197328 11697996
9.047895 11.180902 0.931814 11697996
9.043313 9.478595 3.349569 11697996
10.517949 9.957848 2.760267 11697996
8.767715 11.172480 1.160534 11697996
10.549623 9.808806 3.057384 11697996
9.140793 10.684114 3.416518 11697996
9.120149 10.148427 3.988421 11697996
10.948275 10.278505 1.933285 11697996
10.915200 9.682745 1.033287 11697996
9.391648 8.962334 3.889606 11697996
8.752731 9.843950 2.452856 11697996
10.242386 10.441937 1.899414 11697996
11.081772 10.893194 3.539670 11697996
8.855918 9.464674 3.858522 11697996
9.910302 9.106311 3.431218 11697996
9.968993 9.620645 2.132548 11697996
8.919878 9.994451 2.439149 11697996
9.669124 9.895150 3.715315 11697996
9.893698 10.893059 2.657534 11697996
10.939396 11.098199 0.854416 11697996
9.302058 9.058797 0.095353 11697996
9.683776 10.868657 0.121955 11697996
10.184314 10.332272 3.546606 11697996
10.928381 9.047907 0.943714 11697996
9.321832 11.035196 1.777639 11697996
10.158209 9.222149 2.176192 11697996
8.786302 10.014580 0.769942 11697996
9.736063 9.898783 3.947481 11697996
9.962278 11.194921 2.373926 11697996
9.365479 10.896160 2.969401 11697996
10.670269 9.614914 2.239308 11697996
10.927842 9.082397 2.783088 11697996
10.898149 10.834401 1.798820 11697996
11.233480 9.883471 2.241106 11697996
9.663404 9.326690 2.496735 11697996
9.338609 8.828993 2.946115 11697996
11.022533 9.000738 2.667347 11697996
9.866589 8.809938 0.587469 11697996
9.827807 9.028634 3.541853 11697996
10.971127 9.817873 0.894639 11697996
11.130398 9.035160 3.660245 11697996
10.461814 9.164809 2.268430 11697996
10.735092 10.421754 1.383094 11697996
9.353500 10.595475 0.156924 11697996
9.369637 10.693546 2.744748 11697996
9.563431 9.304883 3.936586 11697996
9.056225 10.926624 2.180803 11697996
9.732729 9.928223 0.551090 11697996
10.508874 10.116707 1.803899 11697996
11.209731 11.048285 0.278278 11697996
8.937743 10.456696 2.799580 11697996
10.402051 10.066745 1.504761 11697996
10.601102 10.339530 0.782632 11697996
10.553090 9.656312 3.566828 11697996
11.068447 8.864897 0.325119 11697996
11.008080 11.231925 0.023903 11697996
10.728170 9.748118 3.563613 11697996
9.635940 10.806488 3.380391 11697996
9.546306 9.424600 2.228793 11697996
10.515676 9.572963 1.566172 11697996
11.009809 9.435741 1.944253 11697996
10.429556 10.002741 0.509917 11697996
9.766248 11.188312 2.403459 11697996
11.124227 8.869633 2.341108 11697996
10.980403 9.626148 2.559800 11697996
9.738212 10.902946 2.631550 11697996
9.150119 10.326892 0.906745 11697996
9.287733 8.864814 2.191482 11697996
11.065439 9.850787 3.046079 11697996
9.413625 10.907251 1.296050 11697996
10.266887 9.247846 1.506269 11697996
9.615565 10.443847 1.988559 11697996
9.692042 9.157075 2.259645 11697996
9.233806 9.122024 0.654735 11697996
10.508858 11.078666 3.414069 11697996
9.874599 9.774376 2.134209 11697996
10.147507 9.136959 3.317005 11697996
10.433533 10.075420 1.507434 11697996
9.241695 10.854296 1.154995 11697996
9.643932 10.237812 3.952869 11697996
9.785796 8.954880 3.531806 11697996
8.938222 9.516963 0.260251 11697996
10.630610 10.443953 0.136800 11697996
9.296447 10.486030 1.876846 11697996
10.519301 8.976834 2.440336 11697996
10.480825 10.294973 0.638957 11697996
9.922482 10.088362 3.685046 11697996
9.769843 9.739430 0.593963 11697996
11.217329 10.518584 2.800598 11697996
9.689133 10.583617 1.950420 11697996
9.159416 10.848549 3.744933 11697996
9.254919 11.059860 1.257040 11697996
11.107153 11.148007 3.836918 11697996
10.383625 10.210625 2.416236 11697996
9.894036 10.066566 3.602550 11697996
9.106324 9.098409 1.824615 11697996
9.541687 9.923931 3.319171 11697996
10.925091 9.268955 0.125185 11697996
11.068515 9.208208 0.654270 11697996
9.777382 11.104371 2.566210 11697996
10.989991 9.322675 1.460516 11697996
9.257205 9.909110 2.542482 11697996
11.206729 11.122206 0.863418 11697996
11.197783 10.567894 1.814291 11697996
10.363520 8.822698 3.721844 11697996
9.311789 9.743507 3.125674 11697996
10.312996 9.028640 0.867421 11697996
9.577763 9.465260 0.048071 11697996
10.082876 8.881936 3.164495 11697996
10.827262 10.396852 3.056270 11697996
8.754859 9.133008 3.494141 11697996
10.000350 9.582640 1.114851 11697996
10.341702 9.448834 2.332026 11697996
11.129816 9.633553 3.462176 11697996
9.892550 11.164793 3.235680 11697996
10.990397 10.557979 2.629131 11697996
10.677474 10.384660 0.645423 11697996
9.022186 9.121944 2.312840 11697996
10.192452 9.535904 3.789555 11697996
10.805484 10.721181 0.705846 11697996
11.244187 8.865207 0.950025 11697996
9.297614 9.575442 3.787159 11697996
11.242508 10.243361 1.579675 11697996
10.924215 9.412387 1.664352 11697996
11.034477 10.199286 2.415336 11697996
8.906240 10.785660 1.269065 11697996
9.619194 9.823915 0.341060 11697996
10.323524 9.011182 3.234755 11697996
9.550141 8.824705 1.265652 11697996
11.041553 9.106936 1.164127 11697996
10.320676 8.807062 0.435337 11697996
9.869851 9.670640 2.841593 11697996
10.860199 9.757074 3.949950 11697996
9.040442 9.293685 3.382129 11697996
10.035790 10.842183 0.736605 11697996
10.156486 8.778899 3.092117 11697996
10.852887 9.259445 3.638891 11697996
9.518389 9.772250 3.429587 11697996
9.464925 8.968094 3.465155 11697996
10.172714 9.181339 1.281655 11697996
10.577603 9.055944 1.802929 11697996
9.831572 10.880589 3.612083 11697996
11.103214 9.686029 3.543753 11697996
9.760405 10.912784 3.253967 11697996
10.066776 9.523130 0.517306 11697996
9.187445 9.293824 2.893475 11697996
10.464438 8.980003 3.133986 11697996
9.853909 9.553191 0.427271 11697996
8.806374 10.852044 3.289523 11697996
10.315476 9.631102 0.720102 11697996
10.495001 10.898436 1.692963 11697996
9.761888 10.721668 1.938567 11697996
9.237562 10.220598 2.047415 11697996
10.557096 10.698610 3.647307 11697996
10.109912 9.858315 3.116827 11697996
9.949533 9.642924 1.597130 11697996
9.346416 9.864326 3.453590 11697996
9.887465 11.153359 3.843894 11697996
8.971771 11.180463 0.955989 11697996
10.552299 10.073627 0.146295 11697996
10.519901 10.336068 1.776093 11697996
10.109144 9.091298 0.818607 11697996
9.403483 9.577560 2.553424 11697996
11.115425 10.956815 0.994541 11697996
10.631626 11.144083 1.049119 11697996
9.592125 10.439275 1.020004 11697996
8.854491 11.179300 1.600057 11697996
10.191948 10.066519 2.960888 11697996
8.948161 9.278887 1.983806 11697996
11.043513 9.015162 0.618520 11697996
9.798141 8.760867 0.776697 11697996
9.156122 10.449610 1.650204 11697996
10.849324 9.241389 0.580471 11697996
9.833680 9.584942 2.826540 11697996
9.780207 10.213286 0.250396 11697996
11.012742 10.460051 0.401635 11697996
9.488257 10.120033 1.528414 11697996
8.772199 11.081949 2.513708 11697996
10.301512 9.522665 0.506244 11697996
10.653491 8.869637 0.215884 11697996
11.223062 9.412499 2.616668 11697996
9.538215 10.759749 1.226539 11697996
10.248248 9.009123 1.041619 11697996
10.684104 10.834862 1.663991 11697996
9.503370 9.977477 2.387385 11697996
10.366370 9.142626 0.483335 11697996
10.626760 9.021632 2.432178 11697996
10.734802 10.168087 1.161393 11697996
9.361785 9.213577 1.766162 11697996
9.849000 10.283173 2.018393 11697996
9.180000 9.062593 1.658071 11697996
9.637650 8.996637 2.474023 11697996
9.485631 11.215427 1.607403 11697996
11.154845 9.623733 1.527736 11697996
9.679863 8.855872 0.401269 11697996
10.326447 10.675708 2.646359 11697996
10.990926 8.762385 2.017483 11697996
9.525980 9.053419 0.071444 11697996
9.985636 10.337090 2.638319 11697996
9.447392 9.661832 1.605430 11697996
9.379769 10.710674 2.875054 11697996
9.903703 9.763421 1.047811 11697996
9.151031 10.264127 2.865879 11697996
9.426769 10.682600 0.818838 11697996
10.092471 9.727545 3.962156 11697996
9.076261 10.567792 2.230037 11697996
8.805804 8.941877 1.159380 11697996
10.619649 9.199440 1.336033 11697996
10.067009 9.726992 2.238518 11697996
11.124868 10.330928 0.269400 11697996
11.071647 10.335001 3.530736 11697996
9.086293 10.217012 1.826766 11697996
9.904846 10.859526 3.233051 11697996
10.691993 10.698163 1.188073 11697996
11.159261 10.115143 1.896482 11697996
10.916567 11.204489 1.317963 11697996
10.730951 11.074669 3.763096 11697996
9.894655 10.272783 1.943064 11697996
11.247602 10.360539 0.456754 11697996
10.527291 10.040543 2.071975 11697996
10.109022 9.774446 3.652395 11697996
9.402786 10.722949 2.062524 11697996
9.619155 10.310025 2.681180 11697996
9.824100 9.645126 0.974031 11697996
9.105539 8.885512 3.346353 11697996
9.513188 8.950151 0.014538 11697996
10.785707 10.033648 2.283187 11697996
9.493571 9.183066 3.817819 11697996
9.962302 9.894987 2.132656 11697996
9.382994 10.513234 0.391097 11697996
9.670963 10.205890 2.051437 11697996
9.367496 11.114758 3.833997 11697996
9.926335 9.957952 2.222540 11697996
8.980675 10.302713 0.925294 11697996
9.634594 9.604721 2.365429 11697996
11.122482 10.455853 1.188345 11697996
10.882832 10.448175 1.594463 11697996
9.360083 9.371788 0.104638 11697996
9.919433 10.041423 1.261543 11697996
11.185494 9.856507 1.116257 11697996
9.765185 9.306763 0.021204 11697996
9.019713 9.521091 1.804276 11697996
10.870723 9.459036 0.643053 11697996
9.655003 10.037416 1.451224 11697996
9.703232 10.805593 0.250466 11697996
11.227301 10.276441 3.998799 11697996
8.785650 9.737782 2.605973 11697996
10.002677 10.771500 3.163010 11697996
10.064132 9.998403 2.276855 11697996
11.150833 9.840190 2.116722 11697996
9.805099 10.196941 3.536145 11697996
8.942297 9.198929 2.413185 11697996
9.695518 10.400931 2.837670 11697996
10.546219 9.857034 3.833935 11697996
10.555863 9.595090 2.853971 11697996
9.013030 9.509307 2.933086 11697996
10.820924 11.234935 2.810258 11697996
11.211228 10.698520 0.442262 11697996
11.239171 8.756186 1.774817 11697996
9.848047 9.933886 2.495688 11697996
10.448399 8.909052 3.639963 11697996
10.694764 9.619865 1.699322 11697996
10.296574 8.886841 1.267591 11697996
9.714629 10.451406 3.798445 11697996
10.602035 10.472224 1.298935 11697996
10.150975 10.325419 3.651310 11697996
10.185022 9.186322 0.599801 11697996
9.849723 9.080949 1.033928 11697996
10.592579 10.657432 1.754715 11697996
9.957326 10.170916 0.435546 11697996
10.087802 10.381204 3.732867 11697996
10.215106 9.639095 1.587880 11697996
11.068097 9.455244 3.310552 11697996
9.762670 8.768991 3.506070 11697996
9.398275 9.809635 1.282675 11697996
8.912951 8.944870 3.448095 11697996
10.500060 10.497326 1.273772 11697996
10.256585 10.081135 0.182787 11697996
8.983108 10.462908 2.982943 11697996
10.705364 8.825827 1.066047 11697996
8.982883 9.043780 3.306433 11697996
9.744888 11.114350 2.935331 11697996
9.781080 10.922257 0.210153 11697996
11.031920 9.511087 2.020128 11697996
10.514061 10.120422 3.029292 11697996
9.233257 10.584176 2.757830 11697996
11.145354 10.913092 0.196080 11697996
10.080404 9.168018 1.891021 11697996
10.627905 10.253736 2.264950 11697996
11.191329 9.870873 3.136727 11697996
9.044922 10.093156 2.488365 11697996
10.904431 9.092228 1.223801 11697996
11.110068 10.824039 0.162975 11697996
10.399159 10.966725 3.257963 11697996
10.661310 10.836380 3.060491 11697996
9.493300 9.311329 1.075726 11697996
8.855426 9.898425 2.710478 11697996
10.025693 10.558449 3.669112 11697996
10.274663 10.451494 0.934345 11697996
10.284181 9.398755 2.794922 11697996
11.161378 11.012753 2.723447 11697996
9.589216 8.842845 1.125610 11697996
9.471996 9.567827 1.507476 11697996
10.156282 11.116115 2.549689 11697996
9.102077 9.260972 1.691258 11697996
9.384592 8.964336 2.933433 11697996
9.691772 9.744220 2.013459 11697996
10.710649 11.080031 3.674743 11697996
11.089045 10.381145 3.768376 11697996
10.968354 9.195187 0.033911 11697996
11.098432 10.423674 3.196269 11697996
8.979080 8.998756 1.216861 11697996
8.911053 10.280474 3.052754 11697996
8.987751 9.521435 0.965752 11697996
9.323578 9.541324 2.661630 11697996
10.050296 9.129544 3.173568 11697996
8.794691 8.942330 0.447512 11697996
10.178432 10.330297 1.251063 11697996
8.803698 10.247036 0.902488 11697996
9.488666 10.151249 0.414393 11697996
9.594812 9.878377 1.739792 11697996
9.292642 9.164380 1.361690 11697996
9.984382 9.035952 0.942034 11697996
9.386902 9.518366 0.384618 11697996
9.307284 9.582129 0.310028 11697996
9.550378 10.342961 1.876060 11697996
9.063650 9.834984 3.699161 11697996
9.502909 10.002359 0.523322 11697996
9.798400 10.376949 0.681933 11697996
10.765798 11.178137 1.688356 11697996
11.005582 10.222401 0.800748 11697996
9.379138 9.093686 2.486904 11697996
10.070433 9.449589 1.650501 11697996
9.484445 10.028172 2.762349 11697996
10.110658 10.539985 2.600513 11697996
10.952909 9.707612 2.221492 11697996
10.832941 9.550536 0.703914 11697996
9.438922 11.226822 3.620017 11697996
11.197720 10.326263 0.522793 11697996
10.956115 10.523341 3.581361 11697996
10.997827 10.114017 2.392571 11697996
9.419408 8.828195 1.762979 11697996
10.441743 11.101676 0.519318 11697996
9.709446 9.032129 2.011262 11697996
9.659984 9.585353 2.040982 11697996
10.275085 9.623364 1.271842 11697996
10.011934 10.510631 1.337094 11697996
10.379550 9.674717 3.521450 11697996
11.194901 8.899749 0.834633 11697996
10.145819 9.144428 2.858805 11697996
9.527810 9.264333 2.083386 11697996
8.767753 9.366854 0.393180 11697996
9.687817 9.514844 0.670299 11697996
9.037720 10.139542 1.901243 11697996
11.052578 10.242169 1.544708 11697996
9.404674 10.048402 0.705154 11697996
10.123737 8.787321 0.011612 11697996
9.975355 10.479885 3.039482 11697996
9.169391 9.264948 2.522875 11697996
9.322333 9.279240 0.471798 11697996
10.782152 11.165016 3.970241 11697996
9.227649 10.326520 1.510592 11697996
9.897579 9.508142 3.568153 11697996
8.793085 9.417654 2.226096 11697996
10.346802 9.689662 2.795279 11697996
9.767376 11.185978 3.816938 11697996
10.353522 10.601414 3.029314 11697996
10.544906 10.962839 3.968043 11697996
11.205640 9.081011 2.747550 11697996
9.820160 9.369520 2.476293 11697996
10.323870 10.726058 3.246458 11697996
9.510784 10.193934 3.524204 11697996
9.275060 9.932742 0.100750 11697996
10.229602 10.815794 1.676335 11697996
10.749212 10.268482 1.993834 11697996
10.879605 10.614310 1.051519 11697996
10.125371 8.893229 1.845340 11697996
10.038746 10.305243 1.231951 11697996
11.137640 9.629207 1.898486 11697996
10.461857 9.465274 3.642657 11697996
10.009404 10.097332 0.933245 11697996
10.852289 10.960141 1.241744 11697996
10.242647 9.807314 2.569047 11697996
9.693048 9.218709 3.363107 11697996
9.703412 10.898430 2.230649 11697996
9.459963 10.406770 0.880623 11697996
10.872858 10.656278 3.414155 11697996
9.246278 9.620708 2.340645 11697996
9.037643 10.755682 -0.005686 11697996
9.415905 10.907849 1.940841 11697996
9.880901 8.826262 3.049331 11697996
8.836434 9.803285 2.042860 11697996
8.967571 10.618750 0.315539 11697996
8.826830 9.290279 1.230123 11697996
10.903165 9.351275 1.050546 11697996
10.882689 10.455936 3.073355 11697996
9.090024 10.882811 3.765304 11697996
10.914315 9.512972 2.995836 11697996
10.906405 8.762275 0.328173 11697996
9.002686 10.374851 1.063480 11697996
10.418019 8.856223 1.905983 11697996
9.377720 9.322001 0.063785 11697996
9.585124 9.933320 1.216590 11697996
10.725758 8.943849 1.094875 11697996
9.105193 10.530630 0.988661 11697996
10.543554 10.204667 0.400000 11697996
11.022224 9.307974 1.894476 11697996
9.063910 9.887329 2.011836 11697996
10.102896 11.098093 2.731598 11697996
8.850130 9.167811 0.648991 11697996
9.486249 10.852997 3.724681 11697996
9.263193 9.618027 2.190835 11697996
9.266171 10.483298 0.174972 11697996
10.677532 9.862148 2.513081 11697996
9.550942 8.799143 3.745697 11697996
10.934693 10.043884 1.500049 11697996
9.081274 10.363282 1.690932 11697996
9.306853 9.405320 2.022788 11697996
10.263302 8.824695 3.942276 11697996
10.052763 9.178249 3.300762 11697996
10.696053 10.076464 3.196410 11697996
11.226553 10.614158 3.808314 11697996
9.282987 9.295146 2.124057 11697996
9.542169 10.952819 3.283329 11697996
10.057459 9.312984 0.459285 11697996
9.522750 10.452424 2.393166 11697996
10.944130 8.881199 1.174419 11697996
9.627910 10.381229 1.549956 11697996
10.504414 10.434299 1.524240 11697996
9.871376 9.089827 2.533879 11697996
9.302170 10.516745 2.099341 11697996
9.225704 10.072440 0.668698 11697996
9.647401 10.447742 3.796118 11697996
10.291917 9.808561 3.625101 11697996
10.033801 9.297178 2.030879 11697996
10.599918 9.787009 0.395185 11697996
11.233795 10.568533 3.179948 11697996
10.680769 9.626913 3.244627 11697996
10.229774 10.371293 0.765809 11697996
9.583353 10.325481 2.656107 11697996
11.030214 11.159753 3.967127 11697996
11.110229 11.182269 1.997168 11697996
9.229652 9.019756 0.237607 11697996
9.773440 9.790951 3.563284 11697996
9.307126 11.091208 1.595923 11697996
8.908899 10.565555 0.404958 11697996
11.181050 11.031828 2.718015 11697996
8.884247 10.675367 1.597007 11697996
10.659353 9.445022 1.056487 11697996
10.854072 9.605849 3.164185 11697996
10.138036 10.224534 0.940131 11697996
9.108900 9.665965 2.377708 11697996
11.085517 9.114048 0.552365 11697996
9.372483 8.824727 2.218026 11697996
10.900324 10.885029 2.330400 11697996
10.440917 10.731356 3.775540 11697996
9.421141 10.922132 0.988803 11697996
9.277861 10.246336 3.523489 11697996
10.349848 9.476789 2.898195 11697996
10.608630 10.460147 3.601103 11697996
8.866562 11.116775 1.143700 11697996
9.558529 10.210835 1.113866 11697996
9.636070 10.037097 3.187870 11697996
10.712322 10.363048 3.221366 11697996
10.162903 9.528512 0.168421 11697996
9.042968 8.888333 0.019083 11697996
9.506101 10.244178 1.432422 11697996
10.625567 9.559411 3.515749 11697996
9.098174 11.195462 0.547045 11697996
9.561125 11.116187 0.477075 11697996
10.709818 8.831121 1.565613 11697996
10.415083 10.849108 2.153515 11697996
11.203649 10.924282 3.045624 11697996
11.124405 8.898807 2.574861 11697996
9.898188 10.823596 3.912537 11697996
9.463909 10.390563 3.951738 11697996
9.117850 9.197170 3.163656 11697996
9.102014 10.553280 3.409999 11697996
10.949622 11.052244 2.843172 11697996
9.590904 10.463615 2.072841 11697996
9.387617 10.006872 3.768689 11697996
10.946097 9.762740 3.815613 11697996
9.580066 9.053966 0.428290 11697996
9.071733 9.190614 0.580461 11697996
9.538514 9.055027 1.337768 11697996
9.720355 10.322872 3.258331 11697996
10.809155 9.270578 0.737710 11697996
9.075278 10.198571 1.982815 11697996
9.533468 10.528659 1.077911 11697996
10.108938 9.221921 2.766865 11697996
9.483810 10.193472 0.009364 11697996
9.395081 9.178708 0.266803 11697996
10.831415 9.848987 1.492412 11697996
9.808818 10.764206 0.166500 11697996
9.014216 9.707872 0.893567 11697996
10.170193 9.449416 2.036589 11697996
10.911788 9.228408 1.044987 11697996
8.853313 10.261193 1.872115 11697996
8.807022 11.008166 3.585610 11697996
10.563739 9.098433 2.385660 11697996
9.329626 10.948835 1.799207 11697996
10.576035 9.918902 0.514721 11697996
9.492257 9.127457 3.703341 11697996
10.298330 10.281953 0.044636 11697996
10.707989 9.005280 3.705023 11697996
9.150519 11.112762 3.957256 11697996
10.261684 9.284595 1.936006 11697996
8.794255 9.006169 3.683933 11697996
10.305558 9.245008 2.649334 11697996
9.734115 9.983796 3.926830 11697996
8.762896 9.777509 1.497264 11697996
9.258162 10.459135 2.148123 11697996
9.662621 10.697902 2.795800 11697996
9.294677 9.855850 2.126114 11697996
8.776597 10.252053 3.204884 11697996
9.300426 10.961372 0.121993 11697996
8.789797 9.434729 2.494646 11697996
10.882643 9.782438 1.535096 11697996
10.286447 9.786986 1.760712 11697996
10.430316 10.079089 2.355858 11697996
10.136973 9.209469 2.934903 11697996
10.125523 10.307343 3.487972 11697996
9.132787 10.102495 1.016843 11697996
9.369102 8.844311 2.596739 11697996
11.266950 11.136194 1.217786 11697996
9.079437 10.172795 2.621632 11697996
9.650516 9.707780 2.765965 11697996
9.402814 9.770208 1.703384 11697996
9.394270 10.847567 3.584992 11697996
10.719212 8.835846 2.787635 11697996
10.141418 9.343182 1.598862 11697996
10.930530 10.707072 3.808547 11697996
9.107305 9.454319 3.356874 11697996
10.077832 9.670853 0.887091 11697996
9.243246 10.950781 0.436957 11697996
9.048845 11.006023 1.969297 11697996
10.927553 10.813410 1.327702 11697996
9.876260 9.224856 3.215532 11697996
10.363102 9.821647 1.342474 11697996
10.304871 9.897406 3.879916 11697996
9.454223 9.072368 3.596972 11697996
9.774395 10.448732 3.197192 11697996
9.020489 9.798761 2.786325 11697996
10.348181 11.004234 0.445773 11697996
10.135180 10.971636 3.031985 11697996
9.004652 9.464529 0.236642 11697996
8.752749 10.168092 0.968972 11697996
9.697658 10.639623 0.549502 11697996
10.366641 10.158658 3.311847 11697996
9.113026 10.227467 3.685522 11697996
11.237429 10.311013 2.515836 11697996
10.956204 10.037254 2.845609 11697996
10.169389 10.015400 0.142312 11697996
10.530919 9.440286 1.664186 11697996
9.064642 9.130130 0.507750 11697996
8.891851 10.896820 0.504344 11697996
9.078238 10.209172 2.265676 11697996
9.827985 10.621339 2.039645 11697996
10.884859 9.393042 3.353148 11697996
8.984830 10.773212 2.014141 11697996
8.822524 10.123852 2.787861 11697996
9.731743 10.071269 0.615740 11697996
10.739720 10.703553 0.491187 11697996
9.332959 10.090098 3.224817 11697996
8.759868 8.974675 1.700091 11697996
9.634142 9.711694 1.415373 11697996
9.586704 11.134352 2.479098 11697996
11.057667 9.871633 2.836324 11697996
9.455094 9.398327 2.562849 11697996
9.344186 9.605153 1.682877 11697996
10.540186 11.221472 0.404924 11697996
9.243187 8.918310 3.419233 11697996
10.545967 9.769156 2.307183 11697996
9.996259 10.659211 1.560121 11697996
9.816698 11.158866 2.133120 11697996
10.589633 11.012157 2.299497 11697996
9.740844 11.100498 3.437222 11697996
10.117839 8.964174 0.100956 11697996
9.761142 10.445596 1.637655 11697996
8.843570 9.744864 2.766705 11697996
10.122856 9.929111 2.369528 11697996
10.969660 9.902796 1.831277 11697996
10.123044 10.675500 1.084776 11697996
9.240571 9.010020 3.226385 11697996
9.628269 9.619019 0.826806 11697996
9.795543 10.152225 1.004891 11697996
10.004531 9.901920 2.443370 11697996
11.213304 10.514375 3.307869 11697996
9.627361 9.950824 1.914287 11697996
10.659666 8.855033 0.210267 11697996
11.152431 9.338326 -0.008934 11697996
11.165742 9.342010 0.813470 11697996
9.722950 10.274232 1.580368 11697996
10.387713 8.966283 0.693948 11697996
11.146376 8.907554 2.788519 11697996
11.209481 9.407122 3.275309 11697996
11.094293 9.176366 2.125701 11697996
11.182408 10.748480 3.939083 11697996
10.556888 9.703811 2.575280 11697996
10.101492 10.138398 0.316947 11697996
10.775821 10.500075 1.392316 11697996
9.504098 8.824547 1.535299 11697996
9.335613 9.930772 3.423946 11697996
10.722059 10.530091 2.075150 11697996
10.917226 8.828307 2.285720 11697996
9.015141 8.890223 3.370551 11697996
10.228451 10.770103 0.412124 11697996
11.111290 10.940994 3.467585 11697996
10.679683 10.454617 3.052249 11697996
9.329186 9.994115 3.408286 11697996
10.437071 11.057273 0.766349 11697996
10.062193 9.372884 0.871937 11697996
10.587948 10.356679 1.680526 11697996
10.006595 10.168366 3.395378 11697996
9.618237 10.006791 2.767537 11697996
10.508739 9.157504 1.171042 11697996
