# .PCD v0.7 - Point Cloud Data file format
VERSION 0.7
FIELDS x y z rgb
SIZE 4 4 4 4
TYPE F F F U
COUNT 1 1 1 1
WIDTH 1291
HEIGHT 1
VIEWPOINT 0 0 0 1 0 0 0
POINTS 1291
DATA ascii
8.970901 9.688348 0.829753 11697996
9.163830 10.863979 2.286672 11697996
9.107644 9.111309 1.521356 11697996
10.013042 9.164615 0.408263 11697996
9.829348 10.173682 1.466001 11697996
9.392059 10.375651 1.663598 11697996
11.124383 10.045270 2.744788 11697996
10.294267 9.605799 0.244481 11697996
9.343494 9.171230 0.228198 11697996
10.836734 10.725328 0.426435 11697996
11.065971 10.965392 3.493085 11697996
10.602565 9.536672 3.561352 11697996
10.547317 9.210110 3.993040 11697996
9.677041 10.477627 2.572854 11697996
10.430882 10.761273 0.978570 11697996
10.466114 9.695058 0.766597 11697996
10.868505 10.773264 0.810113 11697996
10.774054 9.706997 1.224684 11697996
10.193193 10.108231 0.817276 11697996
10.519006 9.728601 0.266990 11697996
9.059558 8.969504 3.138775 11697996
10.170470 10.804231 0.691649 11697996
9.898027 9.910730 1.958855 11697996
9.080105 11.205169 1.769462 11697996
8.775105 10.108284 2.795023 11697996
8.988680 11.171694 1.940084 11697996
9.984510 10.622243 3.849674 11697996
10.161222 9.224824 0.988342 11697996
10.437197 9.623232 1.744305 11697996
9.733272 9.076364 2.759308 11697996
10.634334 8.790303 3.746211 11697996
9.410850 10.079096 1.871962 11697996
8.905795 8.851868 0.362030 11697996
11.059374 10.733482 3.602413 11697996
9.933972 10.297375 2.303015 11697996
9.479862 10.969855 0.684294 11697996
9.255168 9.426431 1.430929 11697996
8.762839 10.399401 2.156590 11697996
9.543367 11.056188 3.421885 11697996
9.253570 9.671354 2.746669 11697996
10.745121 9.770044 1.809105 11697996
9.553164 10.807272 1.163182 11697996
11.190916 9.058867 1.298464 11697996
10.678598 9.222670 1.482785 11697996
9.815272 10.916357 2.157916 11697996
10.938121 8.813188 1.133142 11697996
10.219834 11.230662 2.092317 11697996
10.845007 9.980070 2.934114 11697996
10.265407 10.628718 3.560078 11697996
10.053721 10.432862 2.782434 11697996
8.802610 8.998205 3.174253 11697996
10.992712 10.571484 1.133179 11697996
9.683323 10.292998 3.881076 11697996
10.109759 9.675776 0.898927 11697996
10.237822 10.052747 2.886421 11697996
8.815331 10.158776 2.937791 11697996
10.839485 9.281092 1.649325 11697996
10.420314 9.607648 1.106875 11697996
9.111307 8.904591 2.784006 11697996
9.334992 8.911244 2.767732 11697996
10.105574 8.826844 1.228423 11697996
10.812231 9.298785 0.007586 11697996
10.087771 10.574175 3.292298 11697996
10.796247 10.040508 3.296805 11697996
9.895647 10.430631 2.053664 11697996
9.200410 9.225892 2.130795 11697996
8.937739 10.853313 3.921844 11697996
10.645640 9.584183 1.258098 11697996
9.225422 10.259356 1.252045 11697996
10.058522 10.798913 2.003140 11697996
11.054667 11.084657 1.217319 11697996
9.159399 10.406562 2.448580 11697996
9.573247 9.045675 1.770324 11697996
10.923653 9.537681 0.560982 11697996
9.630115 8.967539 2.812437 11697996
10.436003 11.236809 0.618953 11697996
11.132177 10.042647 1.906931 11697996
11.211406 9.756784 2.419481 11697996
10.582281 8.778944 1.227508 11697996
10.436788 11.035465 1.788542 11697996
11.180104 9.322160 0.388455 11697996
10.606958 10.617765 1.912494 11697996
9.731824 9.600592 1.423881 11697996
10.668582 9.760258 0.454828 11697996
10.751305 9.703911 0.209353 11697996
9.551920 11.207925 2.491141 11697996
9.537370 11.054167 2.380931 11697996
9.347385 8.758657 3.189740 11697996
10.856986 9.791583 1.074130 11697996
9.878881 10.623001 1.559448 11697996
9.914435 9.196230 3.326612 11697996
10.453007 10.979032 0.854710 11697996
8.753807 11.107671 0.085660 11697996
10.620998 8.941788 1.494227 11697996
10.598851 8.945630 2.481043 11697996
9.740705 9.315812 3.644510 11697996
11.080836 10.209184 2.029151 11697996
11.030641 11.085372 -0.012317 11697996
11.127403 9.052695 1.991566 11697996
10.205353 9.788596 2.071429 11697996
10.036510 9.274700 0.192027 11697996
8.861960 9.162957 2.092479 11697996
9.655152 9.680030 0.190562 11697996
8.816242 9.526838 1.890870 11697996
10.525582 8.837365 1.758329 11697996
9.135241 9.581786 0.290778 11697996
11.024083 8.764907 3.759150 11697996
10.564087 9.000077 1.856387 11697996
10.175812 9.203300 2.542994 11697996
9.266805 8.944824 0.168975 11697996
9.862982 10.677235 2.442157 11697996
9.197469 10.575713 3.007210 11697996
9.896154 10.414036 1.857864 11697996
9.112532 9.701914 1.769277 11697996
9.705927 10.405113 0.365442 11697996
10.065482 10.856276 2.385661 11697996
10.709435 9.961381 2.184125 11697996
9.775228 10.398528 3.629617 11697996
9.552804 10.268332 3.994964 11697996
8.872145 10.703506 1.038754 11697996
10.059489 10.837973 1.488117 11697996
8.753565 9.720198 0.378573 11697996
8.899940 9.872811 1.393871 11697996
10.425495 8.958627 2.602769 11697996
10.629207 10.810466 0.117729 11697996
11.172778 10.215785 1.751917 11697996
10.667619 10.130157 0.550484 11697996
11.206709 8.750421 2.277200 11697996
10.958323 9.280663 0.418203 11697996
8.996520 10.448730 1.616611 11697996
10.561655 10.656683 0.989799 11697996
10.774700 9.991382 2.772161 11697996
10.771088 10.139865 1.643410 11697996
10.259236 10.704515 3.562429 11697996
10.260891 11.099841 3.142092 11697996
9.216154 10.749754 1.170972 11697996
11.183963 9.521152 0.016942 11697996
10.366228 8.779055 0.717678 11697996
9.873810 10.056395 3.786305 11697996
9.792875 10.000741 3.321576 11697996
10.852465 11.144306 1.417563 11697996
10.103890 8.903151 0.093054 11697996
10.162779 10.617951 1.229532 11697996
10.570755 9.315339 2.034350 11697996
10.915984 9.827017 1.278441 11697996
8.776930 10.611154 1.184782 11697996
10.701040 9.675199 1.808350 11697996
10.866781 9.718022 3.627986 11697996
9.702331 9.165799 3.459659 11697996
9.758107 8.878124 3.185828 11697996
11.211510 9.071015 3.900328 11697996
9.287598 9.180123 2.700053 11697996
10.318528 10.678210 1.039666 11697996
10.295483 10.134492 0.926775 11697996
11.119992 11.132772 3.628704 11697996
9.458182 11.035625 3.371257 11697996
10.482853 9.546536 2.849503 11697996
11.136559 9.694223 0.673462 11697996
9.999629 9.127887 2.444322 11697996
10.781912 9.839806 0.119998 11697996
10.414274 11.128422 0.709060 11697996
9.246161 9.400448 2.052390 11697996
10.703129 11.020755 0.782499 11697996
9.725256 8.873448 1.941958 11697996
11.090276 9.103141 2.895817 11697996
10.942529 9.805764 0.414161 11697996
10.630318 11.204918 2.734618 11697996
9.263782 10.974700 0.343461 11697996
9.034123 9.498418 0.706428 11697996
10.228642 9.454260 1.647520 11697996
9.908631 8.963408 0.017769 11697996
9.731571 9.051353 0.708899 11697996
10.754848 8.957314 0.562836 11697996
9.780711 11.051063 0.909639 11697996
11.125940 10.935198 1.819309 11697996
10.010693 8.809850 3.395772 11697996
8.900917 10.693533 2.175731 11697996
10.098510 8.923415 1.570561 11697996
10.550509 10.169339 2.177872 11697996
10.554294 10.160583 2.134486 11697996
10.923981 9.577357 3.883467 11697996
10.578574 10.762547 3.877469 11697996
8.974531 9.619217 2.327913 11697996
9.879332 10.236033 2.255123 11697996
9.950542 10.858412 2.892708 11697996
10.293806 9.293308 0.049257 11697996
9.799980 8.770771 3.457383 11697996
9.884192 8.801420 1.839731 11697996
10.581940 9.426847 0.946774 11697996
10.393481 10.219397 1.383298 11697996
9.846617 10.615139 0.924005 11697996
10.787122 8.902038 2.550631 11697996
10.836694 11.213657 3.679257 11697996
11.039030 10.729083 1.348209 11697996
10.601698 11.023355 3.516767 11697996
11.212598 10.837610 3.808414 11697996
10.916619 10.166249 2.232962 11697996
9.792329 10.597999 0.142695 11697996
10.691256 9.691480 3.048685 11697996
9.110808 10.199016 3.396055 11697996
11.182459 10.495567 3.733163 11697996
10.083823 10.845556 0.172904 11697996
9.443395 9.442665 0.182316 11697996
10.431127 10.223114 0.786596 11697996
10.243698 10.718524 0.012410 11697996
8.979321 11.052650 1.846133 11697996
9.347264 9.674716 0.117460 11697996
9.465164 8.808781 3.858935 11697996
10.320542 10.231375 3.783098 11697996
9.611173 10.998144 3.389054 11697996
11.156695 9.809546 0.799499 11697996
9.534448 9.711160 0.796185 11697996
10.564079 10.544355 2.062335 11697996
10.184190 8.858644 2.197772 11697996
10.014986 10.670797 1.640000 11697996
10.339809 9.820542 0.665536 11697996
9.820724 11.213753 0.433545 11697996
10.702996 9.742998 1.101294 11697996
10.464956 9.671746 3.572928 11697996
9.865733 10.524607 2.294144 11697996
11.245193 9.906375 0.297020 11697996
9.719434 9.286953 1.394737 11697996
9.003587 10.368102 3.640640 11697996
9.914181 9.071779 2.227095 11697996
11.226900 9.531998 1.016694 11697996
9.027423 9.886884 1.535833 11697996
11.197033 9.989581 0.254219 11697996
9.201560 11.139864 2.529007 11697996
10.817138 9.628667 1.827565 11697996
10.504245 10.506145 0.271568 11697996
10.716764 10.710351 2.399781 11697996
10.528028 10.074827 1.762053 11697996
11.175080 9.040637 0.982032 11697996
9.613979 11.118078 0.166713 11697996
9.542690 10.080669 3.737248 11697996
10.152352 9.727151 2.420424 11697996
9.394396 10.867848 2.733297 11697996
11.016123 10.528335 1.307138 11697996
9.070007 9.039370 0.991766 11697996
9.002509 10.375639 2.533796 11697996
10.792606 9.298284 0.039728 11697996
10.243436 10.641921 2.701227 11697996
9.618405 8.795946 3.520526 11697996
10.636392 10.422322 0.545341 11697996
10.657993 8.903502 2.214713 11697996
9.767419 10.079838 1.057179 11697996
10.126720 9.194715 2.348741 11697996
9.529492 9.670799 1.419687 11697996
8.983023 9.274345 0.225158 11697996
10.306200 9.863323 2.266577 11697996
10.807681 10.555518 3.714701 11697996
9.546611 9.246317 0.090405 11697996
9.558174 10.253738 0.524068 11697996
10.464286 9.275245 1.139639 11697996
9.438059 9.288362 2.721875 11697996
10.057892 9.179362 3.900035 11697996
11.140203 9.994569 2.700061 11697996
10.852640 9.579661 1.449546 11697996
10.113050 10.671321 3.810372 11697996
10.304440 10.780844 1.986861 11697996
10.962796 10.493719 1.413044 11697996
11.168104 10.811168 0.661003 11697996
9.732587 10.495601 1.101505 11697996
8.974618 9.858615 3.428923 11697996
11.072844 9.509842 3.177367 11697996
9.482688 10.701455 2.754300 11697996
10.204829 9.631587 1.954309 11697996
10.453915 9.184026 2.802098 11697996
11.252044 8.787732 3.281384 11697996
11.228739 9.956183 1.404944 11697996
10.381933 10.976510 0.417004 11697996
9.706465 11.103657 3.071644 11697996
9.613771 10.599556 1.497893 11697996
10.721483 9.467395 2.473241 11697996
10.211834 10.489150 3.902330 11697996
10.170371 10.860816 3.588015 11697996
9.178255 10.210004 2.109119 11697996
11.179919 11.013693 0.406286 11697996
10.307621 9.405168 3.765826 11697996
11.231240 9.581542 1.518481 11697996
10.328637 11.274061 3.778170 11697996
9.991755 9.563396 3.575937 11697996
11.111817 9.877136 0.714231 11697996
9.376787 9.082819 1.059093 11697996
10.199158 10.738126 0.414477 11697996
11.236509 10.288739 0.744033 11697996
9.755820 9.518566 1.496014 11697996
10.682604 9.029160 0.851516 11697996
9.341413 9.908710 3.614028 11697996
11.066680 9.627658 0.751907 11697996
9.533805 8.777912 3.773316 11697996
10.534999 9.226229 0.843196 11697996
9.012101 9.961096 3.942371 11697996
8.811916 11.166662 3.374850 11697996
8.808326 11.076945 0.986366 11697996
9.841281 9.974368 3.272666 11697996
9.883014 9.795390 1.693426 11697996
11.149858 10.751447 2.529968 11697996
9.127220 9.752024 2.276953 11697996
10.562990 9.276714 0.182450 11697996
10.917605 9.456460 0.030548 11697996
9.302108 9.422253 2.519670 11697996
11.168807 10.404653 1.051227 11697996
10.932084 10.178340 3.661615 11697996
10.484915 10.250613 3.526556 11697996
10.952769 9.490657 3.205335 11697996
9.933752 9.463311 3.841548 11697996
10.374679 10.598428 1.408373 11697996
8.987769 9.165061 2.710768 11697996
10.722101 9.371475 3.054640 11697996
10.880473 9.958960 1.389432 11697996
10.437191 8.820523 1.190736 11697996
10.720592 10.066006 1.367062 11697996
9.757719 9.847972 2.803250 11697996
11.099303 9.203019 0.677999 11697996
10.984892 11.248750 0.875577 11697996
9.150385 8.762145 1.641375 11697996
9.505984 11.116817 2.114252 11697996
10.740914 9.480723 1.062302 11697996
9.037850 9.330127 2.106552 11697996
10.378196 9.002647 1.308599 11697996
9.608081 9.650627 0.076420 11697996
10.351443 10.097878 1.581667 11697996
10.522156 9.534554 2.800980 11697996
11.055687 10.882760 1.744417 11697996
10.793166 11.101988 3.534603 11697996
9.449800 9.117335 0.045911 11697996
9.583916 9.002565 2.091445 11697996
10.016682 9.817185 3.291479 11697996
9.357638 10.271807 1.484029 11697996
8.912695 11.206732 2.817539 11697996
9.716336 9.347980 1.638094 11697996
9.240125 9.593924 3.891802 11697996
9.654910 8.907345 3.193980 11697996
10.277785 10.878981 2.031296 11697996
9.803149 9.397094 0.826887 11697996
9.368426 11.176410 2.004009 11697996
10.927535 9.242133 3.356529 11697996
9.570022 9.695515 3.073689 11697996
9.332930 9.839345 1.938171 11697996
9.008625 9.363536 1.672557 11697996
8.879781 10.355665 3.493239 11697996
8.993524 9.342858 2.446852 11697996
9.315751 9.901623 3.721844 11697996
10.466407 10.931116 3.679961 11697996
10.024762 10.366361 2.915087 11697996
10.093207 10.713039 0.063565 11697996
10.575496 9.238585 2.083646 11697996
8.760208 11.234267 0.417542 11697996
9.670842 10.792426 0.040206 11697996
10.934180 9.070686 0.996434 11697996
9.314141 8.938623 1.204640 11697996
10.930461 9.069532 3.787296 11697996
10.925008 10.888264 1.237636 11697996
9.891372 9.136909 3.960781 11697996
8.760269 9.273061 3.114732 11697996
10.416891 9.240446 0.789427 11697996
10.280647 9.320046 1.160340 11697996
10.941030 9.111123 0.418056 11697996
9.089467 9.953629 1.536193 11697996
9.820965 11.160720 2.205571 11697996
10.498366 10.900734 2.275146 11697996
9.523593 10.618004 1.269385 11697996
10.216329 9.780029 3.926644 11697996
9.440536 10.185512 1.384349 11697996
9.847971 10.722079 0.388434 11697996
10.117597 9.292590 3.658090 11697996
11.046340 9.979626 1.059990 11697996
10.681113 10.130561 2.410575 11697996
9.530664 10.038561 1.724369 11697996
11.045168 9.823776 2.167630 11697996
11.249457 11.117534 1.070590 11697996
11.134503 11.109762 3.725579 11697996
11.153399 10.904601 3.084709 11697996
9.316088 9.665287 2.988496 11697996
8.837907 10.267379 2.719935 11697996
10.589601 8.967536 1.542352 11697996
11.126031 11.099230 2.240878 11697996
8.801604 10.799696 1.971803 11697996
10.447378 9.453464 1.491361 11697996
9.823180 10.182406 0.114945 11697996
8.887034 10.747377 3.852056 11697996
10.472086 9.110616 3.237710 11697996
10.984896 10.195791 3.555888 11697996
11.211191 8.852413 1.516621 11697996
10.922201 11.070228 0.763779 11697996
10.942944 9.712724 3.092115 11697996
10.571913 10.393842 3.591229 11697996
10.797357 10.267265 3.861574 11697996
9.526065 9.642058 0.599895 11697996
10.162407 10.552018 2.093742 11697996
10.015349 9.246786 0.604291 11697996
9.844353 8.919154 1.370633 11697996
8.746615 10.349499 1.064993 11697996
9.248918 11.095325 2.101557 11697996
10.434012 9.953084 1.974683 11697996
9.736416 9.824881 0.720245 11697996
9.492073 9.870844 2.388877 11697996
10.649131 9.493188 0.331412 11697996
10.588604 9.366922 1.871873 11697996
10.334120 11.144328 2.729771 11697996
10.395561 11.022444 2.449414 11697996
10.027789 10.263241 2.995398 11697996
9.662191 9.891863 1.196563 11697996
9.518397 10.674142 1.497996 11697996
9.010886 9.859039 2.658152 11697996
10.152277 9.516520 0.832383 11697996
10.842340 10.656594 2.001050 11697996
11.106032 10.584186 1.193510 11697996
10.172061 10.637293 3.681915 11697996
9.481602 9.406903 3.630078 11697996
10.435062 8.820034 2.580540 11697996
9.021550 10.187334 3.900876 11697996
10.890083 10.089143 3.916564 11697996
10.461323 10.826007 0.062776 11697996
11.057116 9.383810 3.877404 11697996
10.432979 10.300912 0.827311 11697996
11.198858 10.563626 3.759731 11697996
10.595766 9.395509 3.017365 11697996
10.734741 8.914197 3.510302 11697996
10.985333 9.808435 1.039716 11697996
9.326033 10.834142 0.585776 11697996
9.858455 9.960340 3.143438 11697996
8.973204 8.799800 3.659753 11697996
11.219017 10.300940 2.798329 11697996
9.659627 10.969090 2.421084 11697996
10.495835 9.830634 2.678533 11697996
10.260489 10.775697 2.964781 11697996
8.837828 8.826005 2.752522 11697996
10.628015 11.059993 1.931577 11697996
8.777068 9.052258 2.724859 11697996
9.302341 10.484102 2.119427 11697996
9.440788 9.033207 0.701432 11697996
9.210432 9.260643 2.187720 11697996
10.795761 9.235568 3.707778 11697996
11.164203 9.630322 0.291037 11697996
9.912336 10.405462 3.538783 11697996
9.291293 10.391543 2.225245 11697996
9.587722 9.074341 2.214074 11697996
10.629932 10.669096 0.038052 11697996
11.048432 11.147758 2.818020 11697996
10.702019 11.237231 0.050543 11697996
10.786179 9.984710 3.967341 11697996
10.175739 10.745259 3.850029 11697996
9.926400 8.777353 1.240606 11697996
10.926815 8.992818 3.212900 11697996
8.784695 9.473647 1.461528 11697996
9.989492 8.938171 1.280869 11697996
9.053462 10.310835 0.466956 11697996
10.783525 9.174961 3.301879 11697996
10.174971 9.577795 2.049246 11697996
9.681374 10.077740 3.993013 11697996
11.226220 11.185205 3.973908 11697996
9.822393 9.231466 3.456396 11697996
11.143682 9.748648 1.381405 11697996
9.060053 9.884823 2.948426 11697996
8.797917 10.464884 3.188273 11697996
10.379125 9.272739 3.409420 11697996
10.676601 9.540236 1.758095 11697996
10.390098 8.800171 1.749756 11697996
10.683517 9.887691 2.285954 11697996
8.862794 9.317035 2.972875 11697996
9.789849 10.891528 3.068548 11697996
9.506095 9.571382 3.530565 11697996
9.947561 9.756065 1.443215 11697996
8.892697 11.126368 3.026225 11697996
8.996193 10.319633 1.951438 11697996
8.752886 10.705385 0.115271 11697996
9.828301 9.320651 2.538876 11697996
11.201298 9.355152 1.266534 11697996
9.234376 9.884351 2.012507 11697996
8.957028 10.987917 0.533859 11697996
10.068319 10.009457 2.221701 11697996
9.812500 10.298003 3.038997 11697996
11.053059 10.599212 3.543633 11697996
8.798914 9.075870 2.020688 11697996
9.804461 8.901373 0.522820 11697996
10.398594 8.994126 3.361266 11697996
9.902376 10.256767 1.523937 11697996
10.265634 8.904216 1.445207 11697996
11.025480 9.228623 1.383065 11697996
10.233847 10.199954 3.172068 11697996
9.914101 9.176024 2.532263 11697996
10.437294 10.328330 1.351721 11697996
11.020650 10.939719 1.342322 11697996
8.998661 10.424035 0.699159 11697996
9.106697 10.267152 1.667320 11697996
9.002020 9.280028 0.088476 11697996
10.854590 9.142294 1.159487 11697996
10.401244 10.180704 2.244576 11697996
9.450060 10.844337 1.005041 11697996
8.916403 10.669909 1.411791 11697996
10.990885 10.730590 0.381943 11697996
9.994399 10.155872 2.631855 11697996
9.314391 10.692942 2.849736 11697996
10.871989 8.967444 3.853969 11697996
10.901195 10.054104 2.549126 11697996
9.761626 9.932624 3.913257 11697996
11.180081 11.076911 2.155700 11697996
10.466629 10.324008 1.346939 11697996
10.547631 9.301981 1.141725 11697996
10.810238 9.156405 2.792822 11697996
8.889462 10.792245 0.571936 11697996
10.396026 8.929275 3.005871 11697996
9.533483 9.891824 1.429816 11697996
9.387472 9.600173 0.386724 11697996
10.848320 10.475430 3.642697 11697996
10.613125 9.803937 3.878520 11697996
8.814931 10.866531 2.200702 11697996
9.670486 9.803807 3.008828 11697996
9.071842 8.754689 2.572075 11697996
11.024282 9.687272 1.565828 11697996
10.721306 10.868752 0.136616 11697996
9.357770 11.103502 2.728698 11697996
10.356665 10.171853 2.542834 11697996
9.524519 9.555383 2.040946 11697996
8.853730 9.976261 1.975249 11697996
9.138468 10.741181 0.864695 11697996
8.807546 10.786026 1.719294 11697996
9.799191 9.969766 2.061644 11697996
10.301451 8.973393 1.729968 11697996
9.498229 9.909220 0.528277 11697996
9.302526 9.665222 0.706242 11697996
8.817946 10.282198 3.136120 11697996
10.446222 10.281898 3.674247 11697996
10.797009 10.768476 0.036129 11697996
10.273050 10.127905 0.504950 11697996
11.046164 9.900272 1.884353 11697996
9.818407 9.262950 2.270394 11697996
10.078332 9.056829 0.104360 11697996
9.685282 10.045780 0.925192 11697996
10.562218 10.088572 1.572984 11697996
9.277474 11.124136 2.392735 11697996
9.698642 10.120173 0.753994 11697996
9.914702 10.912126 0.207623 11697996
10.393359 10.480953 2.100467 11697996
9.128496 10.031071 0.521226 11697996
8.853426 11.018945 0.868939 11697996
11.103757 9.370421 0.779962 11697996
10.132044 9.249509 2.614334 11697996
10.951082 10.861076 0.488667 11697996
10.427555 11.026267 2.167765 11697996
9.008896 10.293121 3.544763 11697996
9.404055 9.636064 0.175511 11697996
11.103013 9.005155 2.982108 11697996
11.108487 8.962936 3.897054 11697996
8.860596 10.528655 0.407795 11697996
8.882719 9.456436 0.728226 11697996
10.286237 11.133885 3.011935 11697996
8.781190 10.191007 0.885426 11697996
8.795017 8.808518 3.779628 11697996
11.225550 10.549535 2.126697 11697996
10.424466 9.049588 3.191975 11697996
9.333984 9.225806 0.500926 11697996
10.930949 9.733384 3.375176 11697996
10.631953 10.430293 0.418276 11697996
9.785956 8.944015 3.768537 11697996
9.331918 9.440164 2.394311 11697996
9.092103 9.253575 3.904995 11697996
9.786262 9.762349 2.008160 11697996
10.470370 10.552648 0.011048 11697996
9.534796 10.873675 1.271902 11697996
10.342038 10.427298 2.608095 11697996
11.010670 10.968251 0.626899 11697996
9.240902 9.486040 1.051512 11697996
9.567075 9.326918 2.838165 11697996
9.661018 10.374272 1.402521 11697996
10.067144 10.912161 3.147202 11697996
11.177102 9.766648 0.033585 11697996
9.452879 9.544437 0.962315 11697996
8.938515 10.668600 1.235860 11697996
9.133521 9.105014 3.680691 11697996
10.854751 9.832077 2.400781 11697996
11.229261 8.931063 3.996511 11697996
9.948417 10.822296 1.844429 11697996
8.924346 9.003125 0.994503 11697996
9.657736 10.188913 1.046762 11697996
10.315042 9.544203 1.549180 11697996
10.812022 10.414746 1.358362 11697996
10.269600 9.372015 3.978474 11697996
10.100479 9.573655 3.325851 11697996
9.010154 10.408422 0.936208 11697996
9.884022 9.199269 3.772570 11697996
11.125620 8.980144 2.070585 11697996
10.799720 10.811460 0.397317 11697996
9.158725 10.317418 0.860307 11697996
9.382103 11.077288 3.186250 11697996
9.801726 9.019485 0.147499 11697996
10.005611 9.611616 0.402206 11697996
8.875087 10.034276 2.470719 11697996
9.949324 11.104671 0.893711 11697996
10.447127 9.950788 0.070413 11697996
10.304440 9.623537 3.007107 11697996
10.043089 9.228045 3.330047 11697996
10.332923 9.793953 3.781861 11697996
9.324726 11.150380 1.605189 11697996
9.079525 10.525405 1.386454 11697996
8.879219 9.941103 2.228996 11697996
9.846642 10.240712 2.374824 11697996
10.856845 10.586885 1.369280 11697996
10.978386 9.923034 3.734200 11697996
10.310837 10.049845 2.683434 11697996
8.856319 9.651987 2.014895 11697996
10.941498 10.784863 1.452637 11697996
10.826174 8.864522 3.031055 11697996
9.062083 10.223754 3.192655 11697996
10.805799 8.945443 1.613182 11697996
9.225057 10.923356 0.490896 11697996
10.772935 9.943165 0.032077 11697996
10.708785 10.377957 3.559988 11697996
10.874220 10.953661 2.315233 11697996
10.034736 9.572741 3.319220 11697996
10.978759 10.242000 0.238684 11697996
8.892686 9.321123 2.650834 11697996
9.391050 8.824312 3.001364 11697996
9.383654 10.142317 1.945093 11697996
10.772400 10.781051 3.212985 11697996
8.977323 8.938138 0.469703 11697996
10.824317 10.681146 3.087155 11697996
9.921648 10.061031 3.283818 11697996
11.170898 10.649804 2.868273 11697996
11.074114 10.069455 1.983294 11697996
9.188064 9.980258 2.771811 11697996
10.599894 10.770617 3.199073 11697996
9.377972 10.708846 1.750406 11697996
11.230934 9.465605 3.524542 11697996
10.965948 9.620442 1.017491 11697996
8.913335 11.033146 0.438429 11697996
8.828321 10.923333 0.122856 11697996
10.185219 10.006474 1.343994 11697996
10.620624 10.283871 1.456339 11697996
8.965860 9.963583 3.826419 11697996
10.446033 10.578568 1.834642 11697996
9.625233 11.125998 2.683002 11697996
10.876983 9.685590 3.126403 11697996
8.859793 10.926250 3.944285 11697996
10.867481 10.424065 1.865405 11697996
10.736194 9.694651 1.126780 11697996
9.771108 9.419446 0.385749 11697996
10.101687 10.074667 2.721300 11697996
9.766715 11.152646 0.765792 11697996
9.008051 10.036106 3.967066 11697996
10.468627 9.793780 3.115713 11697996
9.397144 9.790155 0.691122 11697996
8.964151 11.147612 3.084857 11697996
9.270550 9.027994 3.726576 11697996
11.104502 9.026266 2.115623 11697996
11.240472 10.820059 0.944893 11697996
10.858803 10.619637 3.697831 11697996
9.111167 9.668706 3.978577 11697996
10.753301 10.623863 2.181326 11697996
10.616990 10.543756 0.439114 11697996
9.233428 9.027673 1.650353 11697996
9.322437 9.910266 3.776140 11697996
8.888885 9.604527 1.845585 11697996
10.680922 8.950868 1.598838 11697996
10.675748 10.498437 2.326985 11697996
10.631651 9.789219 1.851199 11697996
10.879322 10.079050 4.013894 11697996
9.017528 9.469440 2.746239 11697996
10.444242 9.699716 3.200786 11697996
10.773987 8.979633 2.177518 11697996
9.083859 10.794788 0.112029 11697996
9.272808 11.046808 3.175184 11697996
9.902845 10.949040 0.832581 11697996
10.855681 10.750764 0.857903 11697996
9.211457 9.454982 1.065242 11697996
10.420433 9.671062 3.620533 11697996
10.901095 11.183377 0.729708 11697996
9.207594 11.139667 2.191364 11697996
9.643012 10.706640 1.802124 11697996
10.076160 9.896898 3.929020 11697996
9.373034 10.929352 2.698689 11697996
10.849496 10.476286 3.173960 11697996
10.785736 10.912401 3.080880 11697996
9.744361 10.506072 1.310362 11697996
10.787086 9.355385 1.139459 11697996
10.006097 9.341291 0.578149 11697996
9.000175 9.562815 1.067577 11697996
9.153792 9.179266 0.214203 11697996
9.299570 10.300928 3.810285 11697996
9.736233 8.913980 0.447480 11697996
9.217450 8.728586 2.314050 11697996
10.897832 9.177150 2.980982 11697996
8.921220 9.670422 3.869163 11697996
9.569018 10.133752 3.699020 11697996
11.069907 9.233535 0.953315 11697996
10.705185 9.454012 1.226537 11697996
9.859804 9.550963 1.599441 11697996
8.754040 11.123488 2.189679 11697996
11.126374 10.264590 2.380022 11697996
11.220173 9.597559 1.183532 11697996
11.211320 9.797328 0.730571 11697996
9.133822 9.776106 2.507035 11697996
9.129486 10.307708 3.249363 11697996
9.507311 9.414667 2.850824 11697996
8.836987 9.550164 3.761652 11697996
10.153978 10.864583 2.604417 11697996
10.610985 10.330779 3.831535 11697996
9.993793 10.108939 3.900227 11697996
8.827165 8.909095 1.715401 11697996
10.222409 8.943388 0.267735 11697996
9.126215 10.969986 0.805781 11697996
8.779861 8.910127 3.096728 11697996
9.928171 8.967589 3.155221 11697996
11.165508 10.917512 2.202629 11697996
9.271994 8.763186 0.894998 11697996
8.985301 9.101066 1.611050 11697996
9.321664 10.220564 1.381723 11697996
10.488725 8.793463 3.276601 11697996
10.724250 9.837571 3.737321 11697996
9.590541 9.697924 0.409279 11697996
9.370815 8.816808 3.333290 11697996
10.699547 9.549715 2.404302 11697996
10.143765 9.506648 4.010127 11697996
9.588286 9.818234 1.668611 11697996
9.805654 10.136683 3.031911 11697996
9.996485 9.408432 1.831970 11697996
10.735372 10.953070 1.418263 11697996
9.951857 8.817235 1.523550 11697996
9.185948 10.461393 1.892491 11697996
9.133723 11.031981 2.087468 11697996
10.009487 9.814386 3.657330 11697996
11.006182 10.082811 0.171837 11697996
9.358985 10.975966 1.404271 11697996
9.897182 10.214380 3.374104 11697996
11.221815 10.674087 0.223553 11697996
10.029879 9.612890 1.285686 11697996
10.887903 9.369433 2.363201 11697996
10.572952 8.768492 1.650864 11697996
8.902943 10.799623 2.366886 11697996
9.068545 9.466888 1.795670 11697996
9.203938 8.859774 3.711346 11697996
9.770981 9.072836 1.116985 11697996
9.604596 8.821115 3.043466 11697996
10.588118 8.764274 2.807503 11697996
11.178193 9.406066 0.287166 11697996
11.209313 9.868816 2.894794 11697996
10.151958 11.207140 0.629303 11697996
10.005605 10.763654 2.009430 11697996
9.820967 10.497890 1.110325 11697996
10.706050 9.846380 2.503018 11697996
10.734621 8.861404 1.751983 11697996
10.651088 9.194580 0.589907 11697996
10.416276 10.740790 0.682065 11697996
8.780518 9.255437 3.425847 11697996
9.930550 10.363863 0.998579 11697996
10.034224 10.815530 1.692487 11697996
8.884218 10.300865 3.836962 11697996
9.394331 10.039649 1.588542 11697996
10.837884 9.835507 1.599972 11697996
8.809203 8.914408 1.058121 11697996
9.397896 11.087522 1.666332 11697996
10.879357 9.472679 1.655775 11697996
8.794791 11.223533 2.965024 11697996
8.866838 10.105821 0.906109 11697996
10.612937 10.736537 0.841625 11697996
9.081944 8.805997 2.669096 11697996
10.042558 9.530651 2.589705 11697996
8.814336 10.075811 3.379166 11697996
10.559198 9.463317 2.535656 11697996
8.893549 9.853724 0.529628 11697996
9.581200 10.159440 3.979188 11697996
8.815637 9.942550 1.317920 11697996
9.188108 10.350567 3.109584 11697996
11.236599 11.068554 0.856280 11697996
9.787271 9.880865 0.359701 11697996
9.648663 9.877956 0.251404 11697996
11.013582 9.965058 1.354875 11697996
9.219314 11.159925 0.605225 11697996
11.083378 11.097546 2.998214 11697996
11.070023 10.684153 1.321233 11697996
10.487530 10.518811 0.240608 11697996
10.022664 11.188821 1.504021 11697996
10.515692 10.247809 3.803419 11697996
9.377989 10.505573 0.595186 11697996
10.607728 9.426650 3.141411 11697996
10.238130 10.705898 0.776353 11697996
8.822796 10.047776 1.663995 11697996
11.147163 9.729275 1.511139 11697996
8.945037 9.298091 3.410754 11697996
10.308482 8.868626 3.607806 11697996
10.463614 8.811510 3.912751 11697996
9.273835 9.127835 2.102888 11697996
10.473382 10.827147 0.617902 11697996
10.696656 9.706582 0.433504 11697996
10.656209 9.883897 1.902939 11697996
9.433314 9.767385 3.645820 11697996
8.915067 9.141730 2.858018 11697996
10.321250 9.188392 2.837183 11697996
10.041535 11.048145 3.073341 11697996
10.352519 10.556932 3.475886 11697996
10.094844 10.090673 0.865597 11697996
9.949078 9.569711 0.431715 11697996
9.497348 11.004281 1.467589 11697996
10.127521 8.877007 1.165928 11697996
10.107614 11.162294 2.657823 11697996
10.093924 9.389781 2.242556 11697996
9.013967 8.869418 0.237054 11697996
9.259810 9.272993 2.043061 11697996
9.309670 10.889547 0.827285 11697996
11.185298 9.707106 1.981404 11697996
10.522641 11.246922 1.990822 11697996
9.186858 11.043487 0.572155 11697996
8.803290 11.249125 0.089179 11697996
9.446882 10.106861 0.736165 11697996
10.616975 10.541871 2.628160 11697996
10.763955 10.333921 1.053276 11697996
9.577074 11.020845 1.478703 11697996
9.026889 8.998042 1.538674 11697996
9.717539 11.009793 1.279274 11697996
9.741223 9.081820 0.585352 11697996
9.231306 8.993355 2.013862 11697996
10.933663 10.392015 0.045273 11697996
10.652938 9.239613 1.806385 11697996
10.014509 9.909537 1.163448 11697996
10.304389 10.508389 3.115734 11697996
9.953520 10.988687 0.362847 11697996
9.107303 10.557132 3.443222 11697996
9.639668 11.212760 3.379391 11697996
8.994096 10.543918 0.450229 11697996
10.093492 8.869740 3.261783 11697996
10.772268 10.326588 0.776642 11697996
10.099178 8.842731 2.453717 11697996
11.249832 9.039424 0.462098 11697996
9.509846 9.212196 0.621166 11697996
11.249778 8.994372 3.269586 11697996
9.164381 9.727241 0.753180 11697996
9.337470 9.210533 3.999324 11697996
10.481722 9.232831 2.562528 11697996
9.850738 9.371056 1.019926 11697996
10.048684 11.202831 2.937662 11697996
11.103692 10.366123 0.286598 11697996
10.814092 9.263498 1.017400 11697996
10.574821 10.660830 3.147747 11697996
10.558631 10.914215 1.446333 11697996
9.934973 9.066332 0.787312 11697996
10.704515 9.763000 0.198076 11697996
9.044324 9.982907 0.464861 11697996
10.839806 9.641653 1.390171 11697996
10.608821 11.231499 3.927646 11697996
10.652972 9.626262 3.745547 11697996
11.183950 9.919367 2.966683 11697996
11.060130 10.011577 3.042438 11697996
8.830685 10.900628 2.822082 11697996
11.067865 9.856983 2.748915 11697996
9.302627 9.771051 3.419726 11697996
9.301125 9.013226 3.447358 11697996
9.877495 10.713145 2.561596 11697996
10.892763 9.209919 0.177676 11697996
10.718862 10.516007 1.297814 11697996
9.919344 10.679856 2.387125 11697996
9.182938 10.427635 1.772786 11697996
10.191059 9.343018 2.176473 11697996
11.060092 10.173738 0.218189 11697996
10.064607 11.175406 2.952329 11697996
10.645802 11.021941 3.827044 11697996
9.778182 8.827261 1.524472 11697996
9.568991 9.493548 1.407640 11697996
10.675011 10.713560 1.612157 11697996
9.563971 10.485092 2.719747 11697996
10.239689 11.248687 0.303393 11697996
9.587822 8.894446 3.311042 11697996
9.534237 10.314127 3.168061 11697996
10.336163 9.105224 3.289210 11697996
9.403004 10.344949 2.970387 11697996
9.615461 10.645866 1.723194 11697996
9.064370 10.791331 2.141202 11697996
10.819367 10.529949 0.923962 11697996
10.840690 10.934563 3.744468 11697996
10.703150 10.925877 1.697799 11697996
11.207215 9.280140 3.298642 11697996
9.878977 11.230376 1.747794 11697996
8.836661 8.771095 2.461700 11697996
9.177610 10.110196 3.123653 11697996
10.593959 10.058843 0.232257 11697996
8.847693 10.211353 3.413290 11697996
10.290784 9.529959 0.827416 11697996
10.254751 8.973419 1.399861 11697996
9.605448 8.912071 3.612599 11697996
9.770268 9.793115 1.558215 11697996
10.857103 9.944790 3.060228 11697996
10.649562 10.343627 3.281467 11697996
10.795464 10.501859 0.655077 11697996
10.760577 10.246149 3.860040 11697996
11.082300 9.502449 1.677242 11697996
9.495480 10.802355 2.613703 11697996
10.190757 8.759595 3.132463 11697996
11.171603 9.491292 2.694678 11697996
10.335220 10.056101 2.076071 11697996
10.362767 10.023803 0.980108 11697996
8.891317 10.991349 3.420720 11697996
10.619611 9.942837 1.783810 11697996
9.462537 10.006427 2.178338 11697996
10.103147 10.722020 3.241378 11697996
9.246334 10.475907 1.884595 11697996
9.248446 9.738040 2.739626 11697996
9.811754 9.118226 3.531158 11697996
9.592542 11.038374 1.988508 11697996
10.616275 8.870634 1.318218 11697996
8.907248 11.136880 0.018272 11697996
11.034825 10.373281 2.074718 11697996
8.881350 11.178927 0.022167 11697996
9.284512 11.142436 1.567235 11697996
10.123744 9.170525 1.473044 11697996
9.197906 10.610713 0.512775 11697996
10.813525 10.927370 3.770936 11697996
10.180393 9.797294 2.670837 11697996
10.958115 10.457858 2.329358 11697996
11.153152 9.900487 2.122622 11697996
9.968040 10.196475 2.211668 11697996
10.002380 10.194864 2.056558 11697996
8.901472 9.551933 0.978041 11697996
10.428638 10.996496 2.164500 11697996
10.982422 10.926434 1.671720 11697996
9.948287 8.852820 0.538797 11697996
9.316278 10.362885 3.289647 11697996
11.154678 9.207715 3.193657 11697996
11.126767 10.629179 2.385694 11697996
10.863086 11.167192 1.192363 11697996
10.757820 9.542790 2.693156 11697996
9.989168 10.836577 1.091361 11697996
11.054298 10.028912 1.248147 11697996
8.978575 10.052717 2.570018 11697996
10.060913 10.393559 0.450010 11697996
10.826974 9.902000 3.409548 11697996
9.856829 10.377788 3.075393 11697996
10.071999 11.167766 1.551483 11697996
9.553731 9.959550 1.519184 11697996
10.288430 10.224940 3.237599 11697996
10.917170 10.724504 3.174404 11697996
10.687626 10.688656 0.893566 11697996
10.690084 10.079178 1.555734 11697996
9.739910 10.694843 3.989665 11697996
10.833565 9.563853 1.396408 11697996
9.094831 10.155833 3.887974 11697996
9.165612 9.566794 0.264602 11697996
10.964458 10.906903 1.640109 11697996
10.142658 10.253840 2.381066 11697996
9.563474 10.934961 1.802597 11697996
10.138603 10.694150 0.174769 11697996
10.887637 8.896719 0.789088 11697996
9.134700 10.882893 0.686370 11697996
11.002998 11.013275 0.509455 11697996
10.061765 10.187555 3.220397 11697996
10.363049 9.988727 0.211303 11697996
10.210894 8.922565 1.589911 11697996
9.252805 8.929439 1.481241 11697996
8.954358 10.317369 3.069715 11697996
10.494534 9.353691 1.528091 11697996
9.149540 9.349741 3.724398 11697996
9.470857 9.220387 0.630822 11697996
10.334024 11.068239 1.150999 11697996
10.488514 9.158213 1.515251 11697996
11.140628 10.360800 1.905230 11697996
10.604995 8.958528 3.675484 11697996
10.971867 10.826587 0.802020 11697996
10.850299 9.174441 1.499771 11697996
9.555495 11.167403 1.832870 11697996
8.964167 10.211963 1.811871 11697996
11.222632 10.134235 0.247399 11697996
10.002604 10.956429 3.619142 11697996
10.628633 10.313242 0.268790 11697996
8.862240 10.574376 0.580428 11697996
9.002694 8.845822 1.476642 11697996
10.896096 9.457510 0.187995 11697996
10.422361 9.493443 3.722564 11697996
10.255109 10.406399 0.744163 11697996
10.397006 10.771234 0.181042 11697996
10.802162 9.159883 1.247654 11697996
10.969785 9.792439 3.707086 11697996
10.473871 9.546155 1.577188 11697996
8.847852 8.952822 0.550399 11697996
10.177955 10.280181 3.678763 11697996
9.245696 11.042709 0.658839 11697996
10.793687 8.791978 0.551941 11697996
9.019529 10.707967 2.554804 11697996
10.710641 9.462354 3.091753 11697996
9.555820 9.739951 0.844388 11697996
10.962351 11.188518 2.364793 11697996
9.590850 10.534925 2.872755 11697996
9.671814 11.110458 1.306237 11697996
9.820832 11.164219 2.740570 11697996
10.344254 10.280558 3.013564 11697996
10.414680 10.660677 3.531487 11697996
10.920152 10.662213 1.429587 11697996
9.100737 10.874013 2.665381 11697996
10.827703 9.657537 0.350769 11697996
10.993781 10.555620 3.107352 11697996
8.815573 9.103316 3.959084 11697996
9.497724 9.469120 2.510996 11697996
10.750172 10.264601 2.477745 11697996
8.824341 9.474647 0.668922 11697996
10.245775 9.235855 3.743740 11697996
10.140696 9.105675 2.592614 11697996
10.357168 11.032096 2.553496 11697996
9.047352 9.497736 1.920729 11697996
10.058519 9.362193 2.253830 11697996
9.168411 9.380756 0.645944 11697996
11.047416 9.602015 3.934445 11697996
10.245099 10.729120 1.839844 11697996
10.985207 10.002300 2.401460 11697996
10.286057 10.941339 1.705394 11697996
9.612360 9.808702 3.335362 11697996
10.545970 8.877865 1.936934 11697996
9.302038 10.713617 1.526083 11697996
9.370372 9.261853 2.087694 11697996
9.106022 9.109982 3.256647 11697996
9.361327 10.492869 2.030066 11697996
11.095267 9.046153 2.316608 11697996
11.152756 9.868203 2.416361 11697996
9.335007 11.197063 2.928296 11697996
9.627014 11.198572 1.236934 11697996
9.027106 9.524103 3.214910 11697996
11.165367 8.939708 1.382330 11697996
10.203785 9.932435 1.691695 11697996
10.065522 10.442090 2.697059 11697996
9.363197 9.140227 0.743647 11697996
10.000193 9.418513 0.392623 11697996
9.100737 8.922021 1.381851 11697996
8.821945 10.329099 2.412865 11697996
9.764293 8.991201 2.946719 11697996
10.138470 10.962088 0.873377 11697996
11.055757 9.271807 3.959221 11697996
10.768414 8.992555 1.238626 11697996
9.649109 9.917898 2.845438 11697996
10.109898 9.323511 2.801105 11697996
10.068233 11.122005 3.082912 11697996
11.033647 10.875020 3.198907 11697996
9.408423 10.890006 1.020088 11697996
9.551281 10.776738 1.073503 11697996
8.754381 9.329583 0.058523 11697996
10.479345 10.797723 2.036109 11697996
10.473573 10.685054 2.502797 11697996
10.166885 9.092116 2.912768 11697996
10.315642 9.637414 3.752580 11697996
9.204765 10.710107 3.702838 11697996
9.704350 10.871081 2.560525 11697996
10.992366 9.896193 0.457719 11697996
10.590606 10.840511 3.378554 11697996
10.767396 10.268237 2.089159 11697996
10.349676 10.428600 0.319695 11697996
11.020797 10.444931 2.659732 11697996
9.700136 9.666831 2.620399 11697996
11.094200 10.936844 1.327066 11697996
9.379075 9.461205 3.142106 11697996
10.937373 8.935722 3.555620 11697996
11.202207 9.828148 1.981036 11697996
10.429355 10.323668 2.628553 11697996
9.669110 9.119083 0.414927 11697996
11.217701 10.406116 0.299422 11697996
9.973013 9.253210 0.983353 11697996
10.410282 10.331067 2.403694 11697996
10.796735 8.791010 1.192775 11697996
9.976624 9.041183 0.554887 11697996
9.686542 11.207826 0.833694 11697996
10.138229 9.170033 1.171002 11697996
8.900162 9.501012 1.559939 11697996
9.719542 8.893946 1.690152 11697996
9.822118 9.853944 1.069997 11697996
10.116828 10.828158 3.396667 11697996
10.304385 8.955082 1.131960 11697996
9.059762 10.173753 1.306609 11697996
11.120687 8.878292 2.008049 11697996
11.053463 9.339359 2.203827 11697996
11.072843 9.182956 3.956254 11697996
8.885519 10.408154 2.240054 11697996
8.894501 10.405587 0.504389 11697996
9.056826 11.098316 3.721961 11697996
9.238097 9.696449 0.790921 11697996
9.221231 10.765266 1.378933 11697996
9.324225 10.741086 1.327471 11697996
10.978015 10.258478 1.968293 11697996
10.379381 10.515364 2.558380 11697996
8.889226 10.254426 3.286008 11697996
9.489618 10.216806 3.588123 11697996
9.067569 10.918046 3.181325 11697996
11.151048 10.297703 0.718447 11697996
9.435175 9.054180 2.437863 11697996
9.122565 10.065842 1.059146 11697996
11.109780 9.482830 2.065578 11697996
10.828150 9.489214 0.284487 11697996
9.779919 10.390034 1.865621 11697996
10.263452 10.082329 1.222742 11697996
8.763227 10.448766 3.081772 11697996
10.313845 9.236951 1.394503 11697996
9.772489 9.270600 0.011392 11697996
9.254592 9.973827 2.848530 11697996
10.553133 9.555787 0.901903 11697996
10.192799 10.194846 3.547304 11697996
8.923771 11.090161 1.874915 11697996
11.016232 9.207933 1.349614 11697996
9.215370 9.776992 2.963437 11697996
8.933583 9.057873 2.157861 11697996
9.417270 10.258172 1.087009 11697996
11.060919 9.653190 3.517669 11697996
9.627308 10.088883 1.952715 11697996
10.613634 11.187414 0.086714 11697996
9.685606 9.651138 1.378152 11697996
10.796192 8.930507 3.649710 11697996
9.583629 10.448503 0.296373 11697996
10.779989 10.021924 2.895061 11697996
9.113465 10.098859 3.793029 11697996
9.009174 10.842058 3.469676 11697996
10.663189 8.941419 1.528748 11697996
9.124990 10.550658 2.750586 11697996
9.947598 10.034093 3.984955 11697996
10.144423 10.909391 2.298736 11697996
9.864634 10.141175 0.275259 11697996
8.876684 8.927007 2.163302 11697996
10.238655 9.801058 3.844654 11697996
10.637847 11.181238 2.225508 11697996
9.281221 10.118876 3.169016 11697996
9.862466 9.922282 2.612413 11697996
8.927929 10.268343 0.185990 11697996
10.792032 10.502198 1.933148 11697996
10.153893 9.671767 3.324388 11697996
10.948457 10.170070 3.395104 11697996
8.934493 9.200191 3.915937 11697996
9.310333 10.837754 3.342853 11697996
10.290506 10.746301 0.976393 11697996
10.783771 9.910392 2.263180 11697996
10.484612 8.759953 3.458029 11697996
10.833619 8.921997 0.892576 11697996
9.361259 10.236471 2.549942 11697996
9.098050 10.805241 1.127697 11697996
10.338033 8.802214 3.305629 11697996
9.706838 10.809511 2.912374 11697996
9.867101 10.562752 1.143976 11697996
11.139604 10.982178 1.464313 11697996
9.584345 8.841884 3.910220 11697996
10.736198 9.853892 2.267833 11697996
8.772923 9.333138 1.186419 11697996
10.843355 11.111163 3.750215 11697996
10.722755 10.929651 2.532029 11697996
9.547408 9.738808 1.229929 11697996
10.180791 9.254278 2.004553 11697996
9.757332 9.975330 2.733780 11697996
10.016364 9.708547 0.838980 11697996
10.325572 11.220799 1.896991 11697996
10.693296 9.194066 0.204312 11697996
9.519718 10.704431 1.200796 11697996
11.180453 11.026993 2.562417 11697996
10.525916 9.715253 2.091140 11697996
8.968062 10.398195 3.867265 11697996
9.201517 10.585599 0.135962 11697996
10.258483 10.028728 3.652361 11697996
10.765069 10.610791 3.102494 11697996
9.613557 11.233182 3.624151 11697996
9.381817 9.223655 2.999861 11697996
9.997525 9.292599 1.211565 11697996
9.140618 8.940817 0.831135 11697996
10.362792 9.653298 3.092882 11697996
10.592152 11.082053 2.245272 11697996
10.193312 8.905511 0.542261 11697996
10.734377 10.059061 3.505298 11697996
9.093545 10.964946 2.183315 11697996
11.004680 10.110901 1.553050 11697996
10.636264 10.405165 0.584640 11697996
8.845365 10.831608 2.842018 11697996
8.797696 10.471507 0.271095 11697996
9.399859 10.180285 3.506072 11697996
9.036946 9.308485 2.120959 11697996
9.662903 9.735510 2.063418 11697996
10.345023 10.051085 1.856600 11697996
9.208293 9.346512 2.335273 11697996
9.486038 10.891190 3.370477 11697996
10.040652 10.009653 3.364288 11697996
10.693153 8.831992 0.840947 11697996
9.162539 11.235554 3.944136 11697996
9.411244 9.881654 0.973905 11697996
8.870118 11.165649 2.728459 11697996
10.168405 9.616468 3.417201 11697996
11.244752 10.333658 0.186247 11697996
9.326352 9.021568 2.746278 11697996
8.955759 9.314033 1.317678 11697996
9.009466 9.799241 1.622494 11697996
8.887444 9.710686 2.195322 11697996
11.052498 11.093179 3.591691 11697996
10.399270 9.859012 3.013052 11697996
8.773370 9.701167 3.467905 11697996
10.278749 9.644419 0.361515 11697996
10.439076 10.564358 1.891098 11697996
10.775964 9.614039 0.066495 11697996
11.183322 8.926570 3.985723 11697996
10.572157 10.455503 2.016713 11697996
10.203021 10.210177 0.765281 11697996
9.981038 9.139861 1.449673 11697996
11.100121 9.283146 2.207248 11697996
9.031122 11.207066 0.931323 11697996
9.001773 9.465857 3.326062 11697996
10.508950 9.945966 2.770483 11697996
8.742025 11.200802 1.146553 11697996
10.547205 9.799232 3.060696 11697996
9.129022 10.666637 3.402665 11697996
9.138912 10.180723 3.975862 11697996
10.957664 10.278887 1.971504 11697996
10.905186 9.699526 1.025318 11697996
9.401268 8.963173 3.882776 11697996
8.742706 9.832479 2.469889 11697996
10.270208 10.428583 1.875484 11697996
11.076599 10.910697 3.546727 11697996
8.844316 9.454123 3.899758 11697996
9.901792 9.110192 3.469738 11697996
9.981390 9.637465 2.150066 11697996
8.929690 9.988014 2.434272 11697996
9.639507 9.912044 3.724669 11697996
9.946348 10.874454 2.649338 11697996
10.934573 11.111540 0.855743 11697996
9.327909 9.056842 0.078338 11697996
9.690310 10.888740 0.131141 11697996
10.174500 10.329392 3.551365 11697996
10.918754 9.050572 0.964435 11697996
9.327486 11.016579 1.749181 11697996
10.165781 9.212081 2.205279 11697996
8.787896 10.017999 0.771601 11697996
9.730066 9.892624 3.950027 11697996
9.965568 11.194156 2.396753 11697996
9.320075 10.908209 2.972862 11697996
10.681475 9.620371 2.210710 11697996
10.890334 9.058439 2.763511 11697996
10.902828 10.877028 1.756290 11697996
11.246360 9.889112 2.225604 11697996
9.649785 9.342922 2.487776 11697996
9.327848 8.861815 2.940617 11697996
11.007863 8.962099 2.673473 11697996
9.841872 8.814886 0.583571 11697996
9.800369 9.044172 3.584351 11697996
10.973006 9.799679 0.877789 11697996
11.097451 9.036951 3.661371 11697996
10.454015 9.158706 2.280558 11697996
10.759059 10.402704 1.419160 11697996
9.353724 10.601069 0.174137 11697996
9.345150 10.724970 2.725060 11697996
9.552698 9.320025 3.925906 11697996
9.044568 10.957806 2.224354 11697996
9.766369 9.949313 0.525217 11697996
10.522211 10.139007 1.768332 11697996
11.209699 11.039279 0.276045 11697996
8.941835 10.471934 2.818753 11697996
10.403749 10.044244 1.551557 11697996
10.599006 10.357246 0.782544 11697996
10.565903 9.659792 3.580966 11697996
11.076463 8.853049 0.302115 11697996
11.020658 11.203487 0.012051 11697996
10.766296 9.723782 3.546281 11697996
9.681543 10.835347 3.365677 11697996
9.520072 9.425923 2.230994 11697996
10.513416 9.586677 1.583036 11697996
11.025648 9.432180 1.928400 11697996
10.413376 9.981417 0.532298 11697996
9.787040 11.201407 2.401708 11697996
11.120743 8.894865 2.317726 11697996
10.994848 9.628879 2.521204 11697996
9.711063 10.870346 2.637834 11697996
9.184130 10.329294 0.897963 11697996
9.302986 8.832442 2.205308 11697996
11.053596 9.862356 3.029592 11697996
9.431419 10.897024 1.301863 11697996
10.308141 9.267068 1.504210 11697996
9.624064 10.439455 1.993579 11697996
9.755754 9.157319 2.231767 11697996
9.239064 9.122865 0.649113 11697996
10.525612 11.087970 3.446401 11697996
9.886052 9.820709 2.147879 11697996
10.153209 9.171953 3.320574 11697996
10.410032 10.096700 1.537981 11697996
9.239337 10.843975 1.162099 11697996
9.623139 10.238210 3.947032 11697996
9.770898 8.956112 3.516595 11697996
8.910780 9.517624 0.283820 11697996
10.622718 10.444782 0.114225 11697996
9.311213 10.492849 1.861634 11697996
10.530264 8.950275 2.460918 11697996
10.498383 10.329133 0.615048 11697996
9.931361 10.066167 3.670712 11697996
9.756456 9.730231 0.588876 11697996
11.203855 10.495634 2.807789 11697996
9.662477 10.636568 1.972544 11697996
9.121814 10.868855 3.802098 11697996
9.245742 11.059040 1.236985 11697996
11.098062 11.143284 3.820973 11697996
10.386080 10.201314 2.393003 11697996
9.882825 10.094522 3.634588 11697996
9.105408 9.114123 1.810842 11697996
9.552972 9.929012 3.297352 11697996
10.954517 9.278367 0.129418 11697996
11.068281 9.192109 0.663316 11697996
9.807021 11.098847 2.553800 11697996
11.024327 9.335694 1.456916 11697996
9.290329 9.906890 2.536437 11697996
