# .PCD v0.7 - Point Cloud Data file format
VERSION 0.7
FIELDS x y z rgb
SIZE 4 4 4 4
TYPE F F F U
COUNT 1 1 1 1
WIDTH 1283
HEIGHT 1
VIEWPOINT 0 0 0 1 0 0 0
POINTS 1283
DATA ascii
10.156258 9.163248 3.312243 11697996
10.415679 10.118177 1.521342 11697996
9.234062 10.845914 1.192203 11697996
9.678208 10.223047 3.949325 11697996
9.772011 8.977036 3.512456 11697996
8.952397 9.544742 0.281187 11697996
10.647655 10.408582 0.138596 11697996
9.316048 10.504194 1.878976 11697996
10.515488 8.968913 2.433220 11697996
10.507324 10.311201 0.612942 11697996
9.945399 10.067440 3.678798 11697996
9.778333 9.768019 0.616334 11697996
11.187411 10.507086 2.821566 11697996
9.657456 10.635923 1.967035 11697996
9.142151 10.849094 3.783590 11697996
9.226669 11.098547 1.237006 11697996
11.083874 11.143547 3.823879 11697996
10.377602 10.235200 2.404695 11697996
9.874310 10.073516 3.622926 11697996
9.097206 9.129432 1.794601 11697996
9.541661 9.907096 3.273589 11697996
10.950295 9.277021 0.151884 11697996
11.056173 9.194459 0.630341 11697996
9.788425 11.090693 2.575217 11697996
10.973348 9.318040 1.430681 11697996
9.268165 9.885850 2.557811 11697996
11.222909 11.109797 0.868395 11697996
11.185508 10.589089 1.845840 11697996
10.363036 8.814254 3.741058 11697996
9.304060 9.710794 3.134664 11697996
10.302935 9.046859 0.833559 11697996
9.597579 9.440405 0.082283 11697996
10.066217 8.891526 3.156229 11697996
10.783123 10.410012 3.033741 11697996
8.786152 9.136269 3.472580 11697996
9.983007 9.579960 1.099044 11697996
10.363765 9.450215 2.349708 11697996
11.116796 9.609469 3.441296 11697996
9.878547 11.169366 3.206147 11697996
10.986317 10.536799 2.665527 11697996
10.676739 10.383545 0.607771 11697996
9.012163 9.122272 2.311858 11697996
10.200503 9.510015 3.775028 11697996
10.786593 10.707175 0.728657 11697996
11.232878 8.808709 0.949536 11697996
9.276953 9.583149 3.794052 11697996
11.241663 10.237583 1.570268 11697996
10.932563 9.396167 1.686499 11697996
11.000510 10.199634 2.410401 11697996
8.878192 10.790346 1.245111 11697996
9.591187 9.874213 0.318369 11697996
10.348001 8.986979 3.251028 11697996
9.536341 8.827771 1.291366 11697996
11.020051 9.099853 1.140781 11697996
10.338387 8.824475 0.423599 11697996
9.866724 9.677558 2.803361 11697996
10.834305 9.749758 3.940033 11697996
9.029256 9.309716 3.380878 11697996
10.065007 10.875279 0.746661 11697996
10.131311 8.778385 3.067240 11697996
10.821003 9.261545 3.647320 11697996
9.533271 9.760221 3.428568 11697996
9.501352 8.968810 3.448827 11697996
10.127852 9.226547 1.284005 11697996
10.571309 9.079481 1.751324 11697996
9.840700 10.891411 3.648535 11697996
11.084382 9.650779 3.539535 11697996
9.768964 10.917200 3.273704 11697996
10.051413 9.553571 0.534083 11697996
9.199012 9.268420 2.852551 11697996
10.453675 8.962037 3.141250 11697996
9.861936 9.563944 0.433528 11697996
8.794561 10.876977 3.297549 11697996
10.315730 9.622683 0.682588 11697996
10.502436 10.912303 1.692096 11697996
9.761315 10.711471 1.947014 11697996
9.247688 10.210343 2.045236 11697996
10.540145 10.700819 3.665663 11697996
10.114452 9.900720 3.127228 11697996
9.934576 9.631723 1.617133 11697996
9.325065 9.859080 3.441836 11697996
9.901230 11.137156 3.837482 11697996
8.991870 11.195210 0.995737 11697996
10.581293 10.092175 0.140751 11697996
10.494017 10.291509 1.769615 11697996
10.114351 9.110711 0.772763 11697996
9.412043 9.576620 2.588162 11697996
11.113038 11.000666 1.011898 11697996
10.618323 11.143413 1.052636 11697996
9.583392 10.416770 0.988431 11697996
8.854242 11.220543 1.627716 11697996
10.178094 10.034579 2.958264 11697996
8.963518 9.285786 1.969705 11697996
11.016365 9.025108 0.629648 11697996
9.809581 8.739913 0.777228 11697996
9.195111 10.445513 1.669544 11697996
10.866746 9.235930 0.562265 11697996
9.840989 9.591645 2.802842 11697996
9.775933 10.188551 0.235848 11697996
11.010976 10.451298 0.404000 11697996
9.483731 10.137479 1.531871 11697996
8.751771 11.122688 2.492262 11697996
10.313558 9.462946 0.540668 11697996
10.665647 8.875019 0.198900 11697996
11.246181 9.416111 2.644973 11697996
9.497017 10.745468 1.232775 11697996
10.208528 9.035964 1.020732 11697996
10.729028 10.820982 1.697091 11697996
9.524009 10.000182 2.355006 11697996
10.345522 9.155934 0.498394 11697996
10.617203 9.026567 2.447946 11697996
10.715848 10.120851 1.191306 11697996
9.357420 9.186461 1.753259 11697996
9.874450 10.265229 1.993528 11697996
9.149230 9.051807 1.655991 11697996
9.610544 8.966328 2.454737 11697996
9.471738 11.215696 1.609330 11697996
11.187952 9.637508 1.516918 11697996
9.662583 8.854360 0.403721 11697996
10.319516 10.638269 2.675281 11697996
11.006516 8.765159 1.990899 11697996
9.513637 9.047921 0.078731 11697996
9.998617 10.341324 2.671602 11697996
9.435478 9.663132 1.587835 11697996
9.381070 10.719404 2.919195 11697996
9.911378 9.759058 1.036160 11697996
9.163416 10.263938 2.845263 11697996
9.432330 10.665546 0.802286 11697996
10.108020 9.752497 3.937576 11697996
9.083349 10.594791 2.252897 11697996
8.792863 8.923628 1.171561 11697996
10.586171 9.199739 1.326010 11697996
10.051431 9.721614 2.238762 11697996
11.104898 10.355480 0.234074 11697996
11.085820 10.340158 3.521454 11697996
9.073992 10.210586 1.815895 11697996
9.909494 10.866400 3.213842 11697996
10.713365 10.662460 1.182072 11697996
11.187145 10.117765 1.923903 11697996
10.904516 11.211005 1.332250 11697996
10.703333 11.089366 3.772551 11697996
9.886985 10.273519 1.964758 11697996
11.222960 10.362330 0.471188 11697996
10.498740 10.047275 2.064924 11697996
10.109205 9.791034 3.662149 11697996
9.384579 10.679144 2.040482 11697996
9.615695 10.323882 2.677030 11697996
9.809410 9.643989 0.970044 11697996
9.115486 8.858434 3.365618 11697996
9.500608 8.969586 0.062924 11697996
10.733348 10.028470 2.297826 11697996
9.506514 9.161345 3.820198 11697996
9.951316 9.905097 2.130163 11697996
9.393844 10.492218 0.383725 11697996
9.680791 10.203811 2.069134 11697996
9.363774 11.108234 3.826516 11697996
9.928248 9.969728 2.219809 11697996
8.976671 10.283075 0.913272 11697996
9.626871 9.603614 2.336258 11697996
11.127943 10.420441 1.188116 11697996
10.902818 10.416526 1.580562 11697996
9.358747 9.374827 0.102695 11697996
9.926110 10.042160 1.232173 11697996
11.156694 9.872232 1.108195 11697996
9.757587 9.297690 0.029697 11697996
9.009459 9.518768 1.793361 11697996
10.870218 9.454751 0.642837 11697996
9.645712 10.050199 1.435706 11697996
9.738790 10.802223 0.253056 11697996
11.221008 10.291208 3.966309 11697996
8.768930 9.722618 2.598634 11697996
9.996615 10.773580 3.186370 11697996
10.077639 9.997157 2.288783 11697996
11.145804 9.858703 2.140040 11697996
9.799780 10.184175 3.513843 11697996
8.961977 9.182450 2.385345 11697996
9.681917 10.393992 2.808328 11697996
10.553634 9.847490 3.817856 11697996
10.576974 9.588834 2.828730 11697996
8.992259 9.490221 2.930290 11697996
10.835628 11.224533 2.813925 11697996
11.221326 10.713046 0.436657 11697996
11.263382 8.789701 1.743195 11697996
9.825324 9.935686 2.483294 11697996
10.459061 8.901146 3.633301 11697996
10.668836 9.624588 1.682581 11697996
10.290945 8.943121 1.247988 11697996
9.693040 10.450850 3.807203 11697996
10.606659 10.445651 1.305019 11697996
10.134255 10.315054 3.668771 11697996
10.153621 9.242458 0.592083 11697996
9.843928 9.092505 1.037240 11697996
10.585584 10.667941 1.746646 11697996
9.950199 10.174057 0.456395 11697996
10.081125 10.423586 3.708625 11697996
10.221580 9.637872 1.586862 11697996
11.084907 9.444243 3.308906 11697996
9.758625 8.791786 3.497750 11697996
9.394867 9.785519 1.290485 11697996
8.925184 8.973937 3.438313 11697996
10.503484 10.523745 1.280561 11697996
10.225615 10.100235 0.174740 11697996
9.004332 10.425324 2.986717 11697996
10.722538 8.809726 1.084436 11697996
8.966327 9.022855 3.321515 11697996
9.746400 11.134881 2.933383 11697996
9.782151 10.903737 0.164068 11697996
11.060814 9.463694 2.044879 11697996
10.489860 10.133026 3.041935 11697996
9.234511 10.601178 2.748876 11697996
11.148769 10.912609 0.180106 11697996
10.068789 9.149517 1.883238 11697996
10.625604 10.267138 2.269756 11697996
11.212308 9.863380 3.128455 11697996
9.057301 10.046007 2.497140 11697996
10.937455 9.108048 1.190919 11697996
11.114958 10.827873 0.184463 11697996
10.391355 10.986799 3.263135 11697996
10.687003 10.826171 3.052496 11697996
9.463339 9.296840 1.091393 11697996
8.875539 9.883158 2.709432 11697996
10.000161 10.531635 3.661647 11697996
10.286245 10.458555 0.942045 11697996
10.293701 9.398540 2.796373 11697996
11.135624 11.000383 2.730463 11697996
9.574548 8.831771 1.120435 11697996
9.467706 9.604070 1.493408 11697996
10.157657 11.091198 2.574542 11697996
9.111816 9.234764 1.737198 11697996
9.364307 8.944826 2.948489 11697996
9.702659 9.745163 2.012634 11697996
10.695032 11.070864 3.707750 11697996
11.114866 10.381229 3.772618 11697996
10.992193 9.170644 0.015294 11697996
11.117920 10.432327 3.186059 11697996
8.970567 9.033740 1.217706 11697996
8.933022 10.238913 3.081559 11697996
8.993110 9.535158 0.980277 11697996
9.303554 9.594863 2.664059 11697996
10.066623 9.152212 3.155233 11697996
8.788787 8.949978 0.423157 11697996
10.139683 10.325620 1.263265 11697996
8.765944 10.252666 0.889885 11697996
9.493755 10.131207 0.427164 11697996
9.611047 9.877780 1.760168 11697996
9.320921 9.148374 1.362933 11697996
10.005928 9.014809 0.990605 11697996
9.361032 9.511143 0.390924 11697996
9.285731 9.580814 0.296162 11697996
9.555073 10.334887 1.866590 11697996
9.045145 9.804250 3.713178 11697996
9.479438 10.013000 0.534139 11697996
9.778115 10.403145 0.678110 11697996
10.777351 11.195218 1.681189 11697996
10.991505 10.240254 0.746892 11697996
9.311203 9.092249 2.484961 11697996
10.033598 9.455251 1.643159 11697996
9.481898 10.048512 2.815076 11697996
10.037245 10.526100 2.630189 11697996
10.948208 9.710545 2.168139 11697996
10.820045 9.547440 0.725979 11697996
9.484012 11.247467 3.655883 11697996
11.193685 10.287220 0.531214 11697996
10.948775 10.520017 3.567595 11697996
10.978476 10.126182 2.376412 11697996
9.435636 8.803883 1.763399 11697996
10.441739 11.088719 0.526959 11697996
9.678299 9.002069 2.040191 11697996
9.648341 9.564987 2.024447 11697996
10.279350 9.634978 1.273680 11697996
9.985277 10.520103 1.319386 11697996
10.347659 9.689615 3.541711 11697996
11.234966 8.868004 0.854605 11697996
10.178028 9.136806 2.853782 11697996
9.519192 9.282449 2.121509 11697996
8.763061 9.358958 0.379025 11697996
9.710128 9.488292 0.669811 11697996
9.036279 10.129948 1.922941 11697996
11.073804 10.253330 1.531208 11697996
9.383777 10.096189 0.670411 11697996
10.086151 8.776769 0.045894 11697996
9.973808 10.474977 3.037584 11697996
9.162467 9.235385 2.574637 11697996
9.320956 9.321895 0.491693 11697996
10.767446 11.142615 3.959283 11697996
9.237456 10.328721 1.534554 11697996
9.872518 9.492842 3.555383 11697996
8.774979 9.430296 2.233222 11697996
10.332064 9.674062 2.765530 11697996
9.736606 11.197745 3.813395 11697996
10.331307 10.562116 3.007446 11697996
10.557317 10.965591 3.977826 11697996
11.207351 9.069418 2.772489 11697996
9.846305 9.360184 2.442630 11697996
10.290494 10.716078 3.279686 11697996
9.515807 10.214521 3.536368 11697996
9.268675 9.966788 0.089640 11697996
10.229417 10.816698 1.692816 11697996
10.772245 10.248382 1.986760 11697996
10.907652 10.595989 1.037932 11697996
10.131606 8.883023 1.848636 11697996
10.004473 10.333920 1.241493 11697996
11.131777 9.632958 1.904893 11697996
10.460816 9.472005 3.621255 11697996
9.968441 10.096710 0.914757 11697996
10.866892 10.913630 1.274346 11697996
10.248868 9.799147 2.572980 11697996
9.730704 9.203765 3.352904 11697996
9.708246 10.902832 2.207949 11697996
9.450600 10.382505 0.865876 11697996
10.892126 10.621743 3.405717 11697996
9.225454 9.602423 2.325836 11697996
9.021194 10.795033 0.003551 11697996
9.402458 10.877833 1.950469 11697996
9.857886 8.841473 3.060347 11697996
8.822340 9.811300 2.046622 11697996
8.990709 10.624496 0.337570 11697996
8.815202 9.274039 1.230110 11697996
10.887900 9.381127 1.036049 11697996
10.898068 10.459270 3.028638 11697996
9.070567 10.881500 3.796392 11697996
10.946316 9.495744 2.998893 11697996
10.841818 8.738262 0.343490 11697996
8.988613 10.394593 1.048582 11697996
10.407844 8.862888 1.920840 11697996
9.379085 9.325006 0.067076 11697996
9.597827 9.931978 1.251320 11697996
10.724789 8.930312 1.112197 11697996
9.092999 10.529001 1.019363 11697996
10.550186 10.175851 0.425587 11697996
11.022724 9.326099 1.893387 11697996
9.075315 9.867887 2.008381 11697996
10.093288 11.115748 2.736881 11697996
8.839880 9.182800 0.641002 11697996
9.528060 10.839959 3.755729 11697996
9.267046 9.603171 2.219961 11697996
9.281034 10.447424 0.161176 11697996
10.708659 9.859559 2.485119 11697996
9.530233 8.812692 3.790680 11697996
10.932055 10.057971 1.459807 11697996
9.068168 10.380630 1.673847 11697996
9.318643 9.339555 2.032135 11697996
10.237532 8.826279 3.929659 11697996
10.094863 9.202758 3.271574 11697996
10.680358 10.074208 3.204749 11697996
11.227638 10.617763 3.803750 11697996
9.281248 9.277238 2.130456 11697996
9.511996 10.956109 3.224856 11697996
10.072206 9.341337 0.481724 11697996
9.520475 10.474480 2.353264 11697996
10.975501 8.883857 1.160498 11697996
9.664950 10.358139 1.546952 11697996
10.508802 10.440779 1.545619 11697996
9.877208 9.092754 2.543113 11697996
9.270206 10.534981 2.089031 11697996
9.231211 10.066971 0.666414 11697996
9.627367 10.473721 3.771707 11697996
10.308916 9.818276 3.601770 11697996
10.012611 9.307916 2.031510 11697996
10.620890 9.794415 0.437464 11697996
11.215706 10.571400 3.186125 11697996
10.709305 9.657820 3.244689 11697996
10.219270 10.344625 0.783681 11697996
9.624602 10.349036 2.636107 11697996
11.007673 11.154428 3.942710 11697996
11.096388 11.173662 2.012493 11697996
9.191380 9.037723 0.259190 11697996
9.776175 9.813578 3.609851 11697996
9.305678 11.097487 1.607738 11697996
8.913159 10.597906 0.432851 11697996
11.177185 11.016928 2.716413 11697996
8.868356 10.710753 1.583320 11697996
10.680042 9.427917 1.058024 11697996
10.821735 9.570475 3.169466 11697996
10.164998 10.196948 0.945652 11697996
9.100413 9.683255 2.361258 11697996
11.095682 9.119336 0.526849 11697996
9.376035 8.836699 2.194876 11697996
10.912017 10.873800 2.315206 11697996
10.429925 10.717982 3.774657 11697996
9.442954 10.948078 0.984769 11697996
9.288559 10.226677 3.513641 11697996
10.358561 9.488283 2.897679 11697996
10.611487 10.435979 3.618637 11697996
8.845082 11.150680 1.213968 11697996
9.546373 10.220288 1.096055 11697996
9.627968 10.004026 3.187682 11697996
10.699880 10.368310 3.200786 11697996
10.152530 9.544772 0.171957 11697996
9.055540 8.879416 0.032319 11697996
9.487515 10.243416 1.420546 11697996
10.646332 9.543404 3.513837 11697996
9.112269 11.184237 0.560875 11697996
9.548641 11.127043 0.468200 11697996
10.700750 8.852804 1.583270 11697996
10.413921 10.844779 2.145413 11697996
11.212986 10.935491 3.033391 11697996
11.152668 8.908093 2.594996 11697996
9.898164 10.812825 3.943650 11697996
9.457161 10.414318 3.934114 11697996
9.121448 9.169317 3.146358 11697996
9.138152 10.544957 3.392706 11697996
10.942957 11.062268 2.868533 11697996
9.578528 10.447213 2.059025 11697996
9.367083 9.988690 3.743937 11697996
10.908183 9.721252 3.787760 11697996
9.588096 9.009713 0.391027 11697996
9.111203 9.186386 0.565645 11697996
9.498930 9.059933 1.371648 11697996
9.754939 10.324837 3.255901 11697996
10.853628 9.307249 0.730853 11697996
9.053864 10.169023 1.967357 11697996
9.503539 10.527800 1.101442 11697996
10.113153 9.242747 2.786381 11697996
9.481154 10.227280 -0.003460 11697996
9.407792 9.210489 0.255229 11697996
10.834822 9.873327 1.526374 11697996
9.833934 10.766313 0.170132 11697996
9.030927 9.690123 0.895176 11697996
10.173221 9.436291 2.042283 11697996
10.890656 9.257593 1.048250 11697996
8.872496 10.238935 1.852139 11697996
8.818658 11.032354 3.598348 11697996
10.560252 9.101027 2.364946 11697996
9.279058 10.924644 1.812248 11697996
10.609494 9.909129 0.543940 11697996
9.451293 9.165267 3.730684 11697996
10.318184 10.275986 0.035994 11697996
10.704349 9.000828 3.714999 11697996
9.122645 11.118671 3.993055 11697996
10.248775 9.281806 1.960011 11697996
8.793118 8.981885 3.664596 11697996
10.312143 9.220309 2.685479 11697996
9.748016 9.978109 3.947242 11697996
8.742897 9.837934 1.454364 11697996
9.278146 10.480962 2.154286 11697996
9.656976 10.705376 2.772677 11697996
9.323262 9.834712 2.118418 11697996
8.776571 10.238358 3.203298 11697996
9.262217 10.967559 0.089180 11697996
8.811776 9.460637 2.479709 11697996
10.852383 9.795008 1.537942 11697996
10.242616 9.770554 1.756213 11697996
10.451244 10.046827 2.341614 11697996
10.145374 9.199799 2.946269 11697996
10.097836 10.344863 3.503505 11697996
9.127857 10.096577 1.003463 11697996
9.346489 8.821216 2.606750 11697996
11.231527 11.149815 1.195930 11697996
9.079181 10.163253 2.636034 11697996
9.625780 9.716603 2.765189 11697996
9.386140 9.764084 1.685886 11697996
9.353558 10.840590 3.625767 11697996
10.672416 8.842310 2.797973 11697996
10.156685 9.354855 1.572543 11697996
10.925266 10.730121 3.816919 11697996
9.118098 9.448199 3.365645 11697996
10.089301 9.648890 0.855344 11697996
9.230678 10.931259 0.459635 11697996
9.041158 11.001580 1.958781 11697996
10.919347 10.838571 1.356189 11697996
9.889069 9.248906 3.201210 11697996
10.348419 9.826925 1.366674 11697996
10.299015 9.890634 3.917824 11697996
9.453213 9.079304 3.578252 11697996
9.773610 10.469805 3.221591 11697996
9.010750 9.801796 2.797464 11697996
10.346702 10.980072 0.430562 11697996
10.116156 10.985515 3.014411 11697996
9.010320 9.475364 0.260472 11697996
8.762361 10.157106 0.933345 11697996
9.688461 10.649255 0.549995 11697996
10.367143 10.173245 3.291173 11697996
9.137444 10.246907 3.641217 11697996
11.209566 10.312080 2.538969 11697996
10.930211 10.031245 2.852359 11697996
10.159049 9.977106 0.137078 11697996
10.552799 9.434031 1.673697 11697996
9.093821 9.106048 0.497994 11697996
8.902674 10.888465 0.485201 11697996
9.085373 10.203823 2.241339 11697996
9.769695 10.608524 2.029349 11697996
10.893990 9.408899 3.366022 11697996
8.998055 10.760959 2.036761 11697996
8.833549 10.130448 2.771462 11697996
9.761271 10.076188 0.632976 11697996
10.745714 10.696353 0.507712 11697996
9.327362 10.097726 3.229472 11697996
8.759205 8.955887 1.699301 11697996
9.623141 9.745623 1.451156 11697996
9.555423 11.132228 2.497648 11697996
11.074161 9.868391 2.825990 11697996
9.444589 9.426028 2.572155 11697996
9.327664 9.600513 1.702769 11697996
10.548960 11.203465 0.389453 11697996
9.250283 8.905183 3.428261 11697996
10.565875 9.794828 2.319189 11697996
9.999262 10.651297 1.611898 11697996
9.813410 11.161632 2.118654 11697996
10.605750 10.989387 2.289738 11697996
9.734947 11.093913 3.431620 11697996
10.131210 8.944342 0.077527 11697996
9.778035 10.483518 1.662195 11697996
8.849689 9.767147 2.788101 11697996
10.147774 9.895548 2.362240 11697996
10.996380 9.890581 1.828428 11697996
10.125690 10.687440 1.078826 11697996
9.265873 9.012539 3.218354 11697996
9.632133 9.625782 0.825394 11697996
9.787001 10.159572 0.987168 11697996
10.014637 9.912481 2.443652 11697996
11.214790 10.531157 3.330290 11697996
9.621921 9.968132 1.910603 11697996
10.675321 8.826317 0.189849 11697996
11.156336 9.348510 0.003378 11697996
11.134145 9.338262 0.836449 11697996
9.746457 10.271946 1.567761 11697996
10.391905 8.971750 0.670448 11697996
11.130338 8.889717 2.768109 11697996
11.206561 9.433165 3.282261 11697996
11.088338 9.197072 2.085715 11697996
11.169734 10.718717 3.954552 11697996
10.536191 9.719681 2.582347 11697996
10.095518 10.178906 0.354343 11697996
10.806496 10.475112 1.359166 11697996
9.499524 8.829546 1.564794 11697996
9.347517 9.922067 3.425358 11697996
10.691628 10.507233 2.051942 11697996
10.914040 8.839846 2.300150 11697996
9.026272 8.853357 3.411196 11697996
10.216946 10.770796 0.424396 11697996
11.109788 10.918336 3.492205 11697996
10.658921 10.437960 3.047759 11697996
9.323332 10.017194 3.433794 11697996
10.395198 11.066366 0.761337 11697996
10.065091 9.420654 0.879023 11697996
10.544969 10.363009 1.697593 11697996
10.016674 10.148565 3.393422 11697996
9.629808 10.057262 2.749640 11697996
10.555716 9.165272 1.183869 11697996
9.993790 9.587588 1.788165 11697996
10.753268 10.255096 1.773464 11697996
10.675750 11.056108 0.912861 11697996
11.086901 9.862771 2.091181 11697996
10.480555 10.155103 1.564395 11697996
11.052137 9.314768 3.909354 11697996
9.147042 9.720686 2.585938 11697996
10.502168 10.316628 2.303754 11697996
9.545060 10.824494 1.730112 11697996
10.539450 9.513408 3.956654 11697996
10.319158 10.340383 1.592921 11697996
9.304161 9.785502 0.293441 11697996
9.031945 10.673996 2.511255 11697996
11.047415 10.998404 3.001958 11697996
9.286111 9.521889 0.079472 11697996
9.390002 10.505293 2.617799 11697996
9.267272 10.068311 0.004397 11697996
10.363778 9.616235 0.284699 11697996
9.879461 11.024642 1.129248 11697996
10.087785 9.898730 0.998174 11697996
9.979008 9.898006 1.803407 11697996
8.919020 9.045961 0.525310 11697996
10.194916 10.350270 3.609245 11697996
10.824947 10.472748 1.509688 11697996
9.260069 10.532019 3.031219 11697996
8.960167 9.333509 3.930425 11697996
9.288200 9.355536 3.722275 11697996
10.490344 10.301973 0.154264 11697996
11.186984 11.075852 2.772972 11697996
10.156623 10.415423 3.992009 11697996
9.009498 11.024949 2.417912 11697996
9.963935 10.584050 1.109752 11697996
10.710653 10.415337 0.987478 11697996
10.297326 9.880313 1.913064 11697996
9.260133 9.859758 3.127146 11697996
10.865772 9.969693 1.291678 11697996
11.231481 8.832825 0.164822 11697996
9.287124 9.563193 1.886000 11697996
9.447844 10.244949 3.931494 11697996
10.603946 10.936950 2.753672 11697996
9.782927 9.423529 2.238967 11697996
11.180740 10.730112 1.640758 11697996
9.084110 10.789233 0.261162 11697996
9.678622 9.676463 0.171881 11697996
9.713744 9.010799 2.250673 11697996
9.856796 11.031321 3.532930 11697996
10.625833 9.135553 3.481444 11697996
9.433183 10.154832 1.861728 11697996
9.648155 9.866109 3.434543 11697996
10.209958 9.596320 3.182537 11697996
10.913420 8.796167 0.620669 11697996
10.137653 9.777275 1.623882 11697996
9.436245 9.021168 3.391381 11697996
10.101777 10.801799 2.283267 11697996
10.147840 9.911867 3.386914 11697996
9.808336 9.061268 3.000170 11697996
11.150947 9.553354 1.240784 11697996
9.190610 9.637317 2.735570 11697996
9.125452 10.079096 1.838074 11697996
11.033576 10.255134 3.433884 11697996
9.052865 9.584431 0.171624 11697996
10.596507 9.791417 1.390059 11697996
11.020183 10.130582 0.092129 11697996
10.423252 10.171551 2.291155 11697996
10.428579 10.590615 2.576657 11697996
10.941789 9.790425 3.783707 11697996
9.423129 10.768585 3.115722 11697996
8.802437 9.787389 3.735137 11697996
10.405762 9.066036 0.431428 11697996
8.885819 9.593258 0.137730 11697996
10.929352 9.898225 1.916087 11697996
10.407636 10.301195 1.426542 11697996
9.038349 9.186581 1.524039 11697996
11.030534 8.949924 1.417770 11697996
9.213346 10.507152 1.174380 11697996
9.549455 11.034417 0.760128 11697996
10.640466 10.955143 2.839700 11697996
11.145952 10.785542 0.125140 11697996
9.116638 8.871705 0.226436 11697996
9.896442 10.022432 3.842208 11697996
10.460559 9.537474 2.707702 11697996
11.049266 10.886720 2.940704 11697996
10.014214 10.766383 0.076738 11697996
10.280061 9.044733 0.255008 11697996
10.381412 10.955532 0.985467 11697996
8.768097 9.445039 0.789465 11697996
9.335594 11.080359 1.247495 11697996
10.716317 9.012934 1.535934 11697996
9.995672 10.632377 0.403554 11697996
10.684011 9.831885 1.727888 11697996
10.262916 10.058713 3.935194 11697996
10.627848 9.422880 3.082901 11697996
10.140966 11.132212 0.276956 11697996
9.008974 9.890821 1.735046 11697996
9.566873 10.119503 3.806046 11697996
9.751887 10.782932 1.278060 11697996
11.041829 11.000848 0.432436 11697996
10.255675 9.197235 2.141953 11697996
8.774933 9.146757 1.826455 11697996
8.757155 9.211103 1.238430 11697996
8.857699 9.553946 2.098732 11697996
9.380807 10.801346 1.832036 11697996
9.026398 10.309602 2.099132 11697996
8.966052 10.618138 1.964636 11697996
9.155075 10.555182 0.324235 11697996
10.100619 11.184657 2.710201 11697996
9.289171 10.183496 3.515988 11697996
11.099496 10.574318 2.627123 11697996
10.699664 9.781979 0.665027 11697996
9.639427 9.000039 2.024942 11697996
10.387875 10.294164 3.017288 11697996
10.182157 9.197843 1.906062 11697996
11.263819 9.851058 1.991194 11697996
11.062632 9.226027 2.205245 11697996
9.963771 11.054232 1.759254 11697996
11.185770 9.507456 1.471671 11697996
9.977269 9.153847 1.378441 11697996
10.682347 10.568872 3.135116 11697996
11.095220 11.162666 3.774213 11697996
9.887983 9.181234 3.632026 11697996
11.169984 11.152074 0.589752 11697996
9.187842 9.235817 3.908545 11697996
10.806087 10.237363 2.559364 11697996
10.135808 10.213970 0.321998 11697996
9.808238 10.245342 0.598916 11697996
10.398574 8.762593 0.320177 11697996
10.434491 9.596310 2.685987 11697996
9.429261 9.142255 2.357079 11697996
8.738316 10.515762 3.935858 11697996
10.849636 10.087976 2.885294 11697996
10.550763 11.021599 3.478548 11697996
9.103294 9.756327 3.658865 11697996
8.808084 9.468998 0.826660 11697996
9.320592 10.821134 2.063966 11697996
10.169369 9.515474 2.912888 11697996
9.622108 9.827954 0.628217 11697996
11.050062 9.787347 2.091621 11697996
10.096861 10.285642 2.280410 11697996
10.769588 11.089507 1.868775 11697996
10.195944 9.631217 3.245103 11697996
8.804396 9.190954 0.273703 11697996
10.770904 9.798320 3.118153 11697996
11.226335 8.809602 0.995454 11697996
9.712065 10.481228 2.691623 11697996
10.904933 10.526065 1.838952 11697996
9.780114 10.798360 3.947559 11697996
10.664695 10.434836 0.154674 11697996
11.033086 9.032901 1.019892 11697996
10.166294 9.141924 0.974331 11697996
10.230976 11.145218 2.455703 11697996
9.491858 11.002833 0.779757 11697996
9.572115 10.612557 0.775952 11697996
9.031341 8.994962 1.483700 11697996
10.747896 9.798778 2.743847 11697996
10.455347 9.993360 2.181256 11697996
10.553667 8.861616 2.525519 11697996
9.024154 11.170961 1.082633 11697996
9.607941 10.140487 3.537599 11697996
9.661906 10.906178 2.896906 11697996
10.572472 9.152371 0.978274 11697996
8.842601 9.137644 1.153618 11697996
11.094669 10.703651 1.706434 11697996
8.913879 9.654110 3.354942 11697996
10.698493 9.124502 2.225855 11697996
10.691696 9.869487 3.867289 11697996
8.879199 9.406992 1.883537 11697996
9.971310 9.249846 1.357696 11697996
10.594950 9.925301 0.735700 11697996
9.537896 10.791307 3.133937 11697996
9.218028 9.576822 3.052014 11697996
10.175993 9.433208 2.915805 11697996
11.219551 9.887145 0.518445 11697996
10.852046 9.458025 0.512538 11697996
10.002987 11.141814 0.803381 11697996
9.639278 9.373864 0.558383 11697996
9.504433 9.602063 3.615947 11697996
9.744183 9.364421 3.500905 11697996
9.861711 9.973528 3.138656 11697996
9.251219 9.774939 2.387873 11697996
9.574439 9.328635 1.805943 11697996
8.812025 10.024201 0.793760 11697996
10.846156 10.548587 0.091771 11697996
8.869363 10.687087 0.348549 11697996
11.102344 11.210786 3.653758 11697996
10.437031 9.250417 1.178754 11697996
10.345039 8.862534 3.477912 11697996
11.137420 11.255706 3.811897 11697996
10.973420 9.784135 1.179879 11697996
11.082418 9.321330 2.895782 11697996
10.009196 10.881116 3.826451 11697996
9.992384 9.946603 2.982852 11697996
10.659595 11.044277 1.460784 11697996
9.922545 10.908995 0.926225 11697996
9.826623 9.663233 2.284977 11697996
10.761786 9.298460 3.287825 11697996
9.467734 9.674316 0.273805 11697996
10.521415 9.128741 2.398457 11697996
8.835783 9.319971 1.309085 11697996
10.553331 9.521225 3.665396 11697996
11.079536 9.086699 1.261345 11697996
10.303396 8.796883 1.711151 11697996
10.911254 10.725185 2.723309 11697996
9.582570 9.012875 1.281077 11697996
8.807040 9.696421 0.381152 11697996
8.834129 9.077230 3.136596 11697996
10.580057 10.712254 2.074411 11697996
10.450439 9.839943 1.334110 11697996
10.396059 8.970865 3.755435 11697996
10.340605 10.723719 2.342870 11697996
11.020817 8.801455 0.167807 11697996
9.034886 9.534750 2.740998 11697996
10.480357 9.718902 2.978419 11697996
10.775191 10.241676 3.099302 11697996
10.372612 9.008345 1.417780 11697996
10.118238 9.659632 2.032928 11697996
9.547220 11.053548 1.914122 11697996
9.750439 9.500045 1.349080 11697996
9.296597 10.518622 3.825373 11697996
10.900564 9.641085 0.681501 11697996
9.776119 10.581479 2.596678 11697996
8.850732 9.852652 1.576436 11697996
10.261872 10.297409 3.740187 11697996
8.747975 9.740558 1.664576 11697996
9.432715 10.174512 1.815268 11697996
9.464898 9.567221 0.050651 11697996
9.885440 10.189811 1.867694 11697996
9.467712 8.768691 2.150936 11697996
9.455917 10.121889 0.428954 11697996
9.325012 8.774365 3.942624 11697996
8.953597 10.375401 2.399625 11697996
9.613887 10.055770 1.648685 11697996
9.272840 9.864168 0.894690 11697996
10.786080 10.851476 1.394763 11697996
11.177732 9.852837 3.219197 11697996
10.562135 10.213619 1.273084 11697996
8.968252 10.599840 3.758086 11697996
10.506437 10.239119 2.750302 11697996
9.706542 9.285915 3.536669 11697996
10.968616 11.145358 0.964735 11697996
10.383721 10.665913 2.604436 11697996
10.206514 10.651799 1.206653 11697996
10.470035 9.470551 2.204232 11697996
9.886950 9.328114 0.035303 11697996
9.560373 10.692181 0.590715 11697996
10.372797 9.252254 0.271296 11697996
9.006932 10.758392 0.494193 11697996
10.401807 10.929856 2.004025 11697996
10.071548 9.044612 2.651316 11697996
10.181762 9.230175 3.779607 11697996
10.838627 9.851505 2.850120 11697996
10.319529 11.149696 1.068224 11697996
10.955379 9.099800 0.484421 11697996
11.139846 10.037893 1.423657 11697996
9.395523 10.223750 3.583127 11697996
9.060669 8.809915 1.229104 11697996
10.320913 10.547824 1.316411 11697996
8.923034 8.922898 3.268747 11697996
10.251113 9.174083 3.928092 11697996
9.126543 10.295444 2.648069 11697996
9.254756 9.813875 0.701333 11697996
9.836623 11.077118 3.339523 11697996
8.990577 10.308864 3.247957 11697996
8.837452 11.259793 2.914717 11697996
9.404554 10.323789 3.575141 11697996
11.142732 11.236588 0.482441 11697996
8.937586 9.272854 0.655812 11697996
10.265465 8.980507 3.670349 11697996
10.449018 11.084251 0.610237 11697996
8.770700 9.844572 3.628084 11697996
10.131454 10.369533 3.540311 11697996
9.598283 10.248963 1.098625 11697996
9.715157 8.783427 3.118329 11697996
10.042018 9.516030 3.117461 11697996
10.560025 9.854172 2.865546 11697996
9.316630 9.014164 1.086830 11697996
10.802765 11.071666 1.591673 11697996
9.915548 9.322511 3.093778 11697996
10.369596 9.424042 1.316019 11697996
10.409991 10.923795 3.321423 11697996
8.881349 9.652922 1.897681 11697996
9.276469 10.814628 3.028850 11697996
9.401401 10.746372 1.294009 11697996
9.332843 9.885940 2.345146 11697996
11.088737 9.036120 0.178306 11697996
10.078868 9.007172 1.887462 11697996
10.678235 9.863054 1.075631 11697996
10.323566 10.188714 0.628704 11697996
10.988892 9.695189 3.100066 11697996
8.881520 10.648320 1.590789 11697996
10.202602 9.630759 3.037052 11697996
9.020818 10.512843 3.402504 11697996
10.235435 10.476936 -0.005628 11697996
9.089420 10.360953 2.122041 11697996
9.836835 10.463577 1.635321 11697996
10.108082 9.865483 1.474997 11697996
10.832117 9.909350 1.285740 11697996
9.465870 8.954753 1.828718 11697996
10.577090 9.191821 2.195797 11697996
11.196097 10.332416 3.114007 11697996
11.214880 9.365605 3.463862 11697996
9.965050 9.060740 1.547275 11697996
10.926898 9.827517 1.156078 11697996
11.270346 10.065310 0.445234 11697996
9.850053 8.774174 2.296557 11697996
10.037677 9.517758 2.338005 11697996
10.011738 10.727678 1.728112 11697996
9.931419 10.002804 2.845042 11697996
9.974678 10.681683 3.796737 11697996
10.706463 9.317095 2.469992 11697996
9.467541 8.927592 0.273858 11697996
9.361862 8.834240 0.471418 11697996
9.080760 10.587587 3.240182 11697996
8.969966 9.531882 3.335549 11697996
10.130970 10.977118 0.117172 11697996
8.766959 10.513326 3.807067 11697996
10.314631 8.809881 3.560823 11697996
9.267239 10.565287 1.792531 11697996
9.449089 10.883802 1.873613 11697996
8.977309 9.933366 0.246667 11697996
10.421214 9.472359 2.716542 11697996
10.522609 9.620297 3.300512 11697996
10.283677 9.763705 0.845098 11697996
9.268095 10.139694 0.234569 11697996
8.784968 10.312016 0.932183 11697996
10.474606 11.235353 3.593534 11697996
9.053008 8.924191 2.866809 11697996
9.495807 10.404847 3.758328 11697996
8.770560 10.044251 2.475477 11697996
10.764392 10.578965 3.436351 11697996
11.010744 11.228189 3.610462 11697996
10.490162 8.818638 0.969036 11697996
8.919011 10.296713 0.041051 11697996
9.102729 9.390826 0.739651 11697996
9.268810 8.912099 0.314488 11697996
9.595788 9.174976 0.204816 11697996
10.872593 10.297254 1.724657 11697996
9.850531 10.226268 3.608803 11697996
9.106100 9.812263 1.802993 11697996
9.910262 9.479897 1.263372 11697996
9.397478 9.154430 1.525221 11697996
10.167183 10.488426 3.070267 11697996
10.117671 9.907046 0.754016 11697996
11.022818 9.095553 1.691878 11697996
8.768323 10.490417 0.243494 11697996
10.423834 11.110288 2.033940 11697996
9.879755 9.549682 1.731536 11697996
11.201224 10.174236 0.735612 11697996
9.818926 9.151787 1.808191 11697996
9.757661 9.657182 2.906091 11697996
10.727690 9.455184 3.024163 11697996
10.568643 8.763635 2.891105 11697996
10.599116 10.568564 2.359273 11697996
9.354330 9.879363 3.221967 11697996
10.379760 10.684903 2.611955 11697996
10.352274 10.510168 2.536832 11697996
8.760785 8.862040 0.439859 11697996
10.165098 9.017165 2.615757 11697996
9.905202 10.287854 2.021111 11697996
9.802795 11.185664 2.458772 11697996
8.773548 9.480075 -0.002982 11697996
10.650503 9.479359 0.380392 11697996
-9.801241 -10.456235 0.689836 6730418
-10.260090 -10.941849 1.061768 6730418
-10.577657 -9.838408 2.171390 6730418
-10.394627 -9.367677 0.356731 6730418
-9.661262 -9.553815 1.815666 6730418
-9.896757 -9.364574 2.430054 6730418
-9.991828 -10.277779 2.943125 6730418
-9.627840 -9.338675 0.201902 6730418
-9.561747 -9.668421 2.407339 6730418
-9.404858 -10.287286 0.299839 6730418
-10.765220 -9.759565 1.198980 6730418
-9.426064 -10.340252 1.976071 6730418
-9.613278 -10.844241 2.884041 6730418
-10.241370 -10.157136 1.439300 6730418
-9.482187 -10.127600 0.819084 6730418
-9.314853 -10.585706 1.782143 6730418
-10.489526 -9.750964 0.192624 6730418
-9.320756 -10.713886 1.783068 6730418
-9.595947 -10.800992 1.322078 6730418
-9.871552 -10.477582 1.615528 6730418
-9.388552 -10.527338 1.804921 6730418
-9.798545 -9.229706 1.215044 6730418
-9.836901 -9.037651 2.090462 6730418
-9.730776 -10.760296 0.138436 6730418
-10.317461 -10.083527 0.320699 6730418
-10.092050 -9.693597 0.836702 6730418
-10.279377 -10.536360 0.471859 6730418
-9.919375 -9.597586 0.887165 6730418
-10.405381 -10.473993 0.936543 6730418
-9.591136 -10.415483 2.114479 6730418
-10.241866 -10.612181 2.034151 6730418
-9.472736 -9.329941 2.828825 6730418
-10.003055 -10.907198 1.217912 6730418
-10.821596 -9.433525 1.753341 6730418
-9.600825 -9.371440 2.136273 6730418
-10.476899 -9.834039 0.298204 6730418
-9.896241 -9.788254 1.180724 6730418
-9.584528 -10.595343 1.032762 6730418
-9.750813 -10.752443 1.899080 6730418
-9.374245 -9.468700 1.122355 6730418
-9.119978 -10.307240 0.477681 6730418
-9.933537 -10.785574 0.222079 6730418
-10.009940 -9.150103 2.583142 6730418
-9.543199 -10.174290 2.727405 6730418
-9.896260 -9.422474 2.504938 6730418
-10.342716 -9.802974 1.853915 6730418
-9.800653 -10.384607 0.858119 6730418
-9.420691 -9.419853 1.216090 6730418
-10.553215 -10.497064 1.868452 6730418
-9.510752 -9.436375 2.361590 6730418
-10.794729 -10.297469 2.751313 6730418
-9.274771 -9.858246 2.678974 6730418
-10.631521 -10.030937 1.917165 6730418
-9.909386 -10.120571 1.163848 6730418
-10.388259 -10.516124 2.569480 6730418
-9.931810 -10.468442 0.720211 6730418
-9.815928 -9.814752 1.427327 6730418
-9.491858 -10.236784 2.609493 6730418
-9.785259 -9.295437 1.792004 6730418
-9.800399 -10.530643 2.910074 6730418
-10.280335 -10.201215 1.247194 6730418
-9.136847 -9.755953 1.219851 6730418
-9.372838 -9.980009 2.131773 6730418
-10.223773 -9.053915 2.104025 6730418
-9.291328 -9.721206 2.701041 6730418
-10.183406 -9.354862 1.057569 6730418
-9.691278 -9.597093 1.176748 6730418
-10.065585 -9.100824 1.180807 6730418
-9.788544 -9.895481 0.948782 6730418
-10.596030 -10.600795 0.641989 6730418
-9.198585 -10.557355 0.740740 6730418
-10.076818 -10.875551 1.798386 6730418
-9.996393 -9.579203 2.863276 6730418
-9.665526 -10.102279 0.345846 6730418
-9.977214 -10.056724 1.513572 6730418
-9.516397 -9.329149 1.857232 6730418
-9.152017 -9.534665 1.150749 6730418
-10.045534 -9.177238 0.061331 6730418
-9.604439 -9.903999 0.733932 6730418
-9.797843 -9.903933 2.322417 6730418
-9.349501 -10.695222 1.971448 6730418
-10.486790 -9.462121 1.174646 6730418
-10.361746 -9.647924 2.695925 6730418
-9.173237 -9.954456 2.761396 6730418
-9.409144 -10.340207 0.127666 6730418
-10.217317 -9.473912 1.629289 6730418
-10.761395 -9.831465 1.452513 6730418
-10.204098 -9.828958 2.219358 6730418
-10.512786 -9.423986 1.188465 6730418
-9.985458 -9.357509 0.599416 6730418
-10.852848 -10.189318 2.647833 6730418
-9.935699 -9.727897 2.342555 6730418
-10.859174 -9.843553 1.519752 6730418
-10.720024 -9.735128 0.841386 6730418
-9.671746 -10.552779 2.706337 6730418
-10.691517 -10.601184 1.431939 6730418
-10.100145 -10.300553 1.539014 6730418
-9.754098 -10.970885 0.383201 6730418
-10.051991 -10.368237 1.141884 6730418
-9.450771 -10.256038 1.112265 6730418
-9.648717 -10.261984 2.197312 6730418
-9.050076 -9.865932 0.384143 6730418
-10.638521 -10.122512 0.438065 6730418
-9.522863 -10.486811 1.530791 6730418
-9.826153 -10.378945 1.987960 6730418
-9.982803 -10.226993 2.809344 6730418
-10.006563 -10.224154 2.422106 6730418
-9.445179 -9.591140 0.749203 6730418
-9.442701 -9.922265 2.651455 6730418
-9.722676 -10.507370 2.128740 6730418
-9.420361 -10.247227 0.579889 6730418
-9.016939 -10.242487 1.039059 6730418
-9.769574 -9.079310 0.972343 6730418
-9.219792 -10.422311 2.436227 6730418
-9.681902 -9.756937 2.763786 6730418
-9.118776 -10.313473 0.157385 6730418
-9.589131 -10.420517 1.018899 6730418
-10.408166 -10.498205 2.295355 6730418
-9.672696 -9.113369 1.859203 6730418
-9.283191 -10.122953 1.571801 6730418
-9.144767 -9.582060 1.762077 6730418
-9.347256 -9.505774 2.224491 6730418
-10.372368 -10.701637 0.630489 6730418
-9.248298 -10.398737 1.014973 6730418
-9.213272 -9.441723 0.314165 6730418
-9.281156 -10.050532 1.356880 6730418
-9.135920 -10.187259 1.859496 6730418
-10.378521 -9.310133 0.748632 6730418
-10.892853 -10.125980 2.211360 6730418
-9.897884 -9.390915 2.656314 6730418
-10.818280 -9.535734 1.604183 6730418
-9.236712 -10.211234 2.016027 6730418
-9.484288 -10.816215 2.831705 6730418
-9.409968 -10.458796 2.773994 6730418
-10.486873 -10.336321 2.125917 6730418
-9.972444 -10.536860 1.570151 6730418
-9.536874 -9.156611 2.685400 6730418
-9.953286 -10.510912 2.586262 6730418
-10.871997 -10.274725 1.733055 6730418
-10.253134 -9.500212 1.480599 6730418
-9.614607 -10.636180 2.443077 6730418
-9.415788 -9.952240 1.815615 6730418
-9.907527 -10.226268 0.085297 6730418
-10.602494 -10.382074 0.222482 6730418
-9.195138 -9.989701 0.030715 6730418
-10.778688 -10.313516 0.291405 6730418
-9.478038 -9.731586 1.842097 6730418
-10.532469 -9.866548 0.901986 6730418
-9.471458 -10.029847 1.496888 6730418
-9.899144 -10.287169 0.977114 6730418
-9.833308 -10.930162 0.088479 6730418
-9.996293 -9.537360 2.240944 6730418
-9.770183 -10.073592 2.030853 6730418
-9.147550 -10.447218 2.748316 6730418
-10.166116 -9.959766 2.018618 6730418
-10.394588 -9.933884 2.482662 6730418
-9.669138 -10.180050 2.540725 6730418
-10.126312 -9.977647 2.536544 6730418
-9.231068 -10.397678 1.127897 6730418
-10.325460 -10.711568 2.783288 6730418
-10.070907 -9.589808 2.823095 6730418
-9.235583 -10.647324 0.792082 6730418
-10.245078 -9.472879 1.218815 6730418
-9.998107 -9.276701 1.037365 6730418
-10.313040 -9.176301 2.727203 6730418
-9.371807 -10.520834 0.683511 6730418
-10.801952 -10.019428 0.919815 6730418
-9.931621 -10.623225 0.083659 6730418
-9.292570 -9.950884 1.827686 6730418
-9.370015 -9.238984 1.573849 6730418
-10.866076 -9.565241 0.613444 6730418
-9.473831 -9.886052 1.115650 6730418
-10.146873 -9.930943 1.366346 6730418
-10.073325 -9.899235 1.547321 6730418
-10.259623 -10.135743 2.187433 6730418
-9.609364 -9.454664 1.148383 6730418
-10.396358 -9.740614 0.899657 6730418
-10.341411 -9.395589 1.700847 6730418
-10.426885 -10.539875 2.941587 6730418
-10.264526 -10.985128 2.874692 6730418
-9.965380 -10.862043 2.295437 6730418
-9.920444 -9.537133 1.225865 6730418
-9.892263 -9.869330 2.563276 6730418
-9.532471 -9.376571 1.177581 6730418
-10.530699 -10.264654 1.040959 6730418
-9.829181 -9.943760 1.141980 6730418
-9.849583 -10.331912 2.096691 6730418
-9.646467 -9.578151 2.292916 6730418
-9.605132 -10.658133 2.312495 6730418
-9.828634 -9.211740 2.027297 6730418
-10.443600 -10.355158 0.633465 6730418
-9.998330 -10.954931 1.996595 6730418
-9.276612 -10.132378 0.078958 6730418
-10.425864 -9.469910 2.949945 6730418
-9.196565 -9.447110 2.289176 6730418
-10.148408 -9.196465 0.141652 6730418
-9.859590 -9.167980 2.230988 6730418
-9.074761 -9.805519 1.493158 6730418
-10.220156 -10.497139 0.409004 6730418
-9.714286 -9.119377 1.446859 6730418
-9.194622 -9.711336 1.653433 6730418
-9.249890 -9.562613 0.833173 6730418
-9.448790 -10.127481 0.662313 6730418
-9.461593 -10.411957 2.590648 6730418
-10.796159 -10.021312 0.466483 6730418
-10.730809 -9.838763 1.956329 6730418
-9.048284 -9.705852 0.658797 6730418
-9.774930 -9.658141 1.548243 6730418
-10.366178 -10.484470 1.526434 6730418
-9.242255 -9.471604 1.073467 6730418
-10.190642 -9.196467 2.330246 6730418
-10.828151 -9.623397 0.977000 6730418
-9.238251 -9.662210 0.459008 6730418
-9.652349 -9.756923 2.990281 6730418
-10.795953 -10.212337 2.386358 6730418
-9.273704 -9.826674 0.079618 6730418
-10.013527 -9.201757 2.123159 6730418
-9.706047 -10.288611 2.772079 6730418
-10.209831 -10.833983 1.883904 6730418
-9.492384 -10.102504 1.048981 6730418
-10.187804 -10.283029 1.183596 6730418
-10.146111 -9.779464 2.573637 6730418
-10.910424 -9.937468 1.762389 6730418
-9.227560 -9.569659 1.957962 6730418
-9.276563 -9.506424 2.007161 6730418
-9.879638 -10.244564 2.611586 6730418
-10.760022 -10.494124 2.449737 6730418
-9.351489 -10.375542 1.764354 6730418
-10.402826 -9.676458 1.262520 6730418
-10.181392 -10.174692 2.944669 6730418
-9.586983 -9.292110 1.755073 6730418
-9.437301 -10.816940 1.450521 6730418
-9.749477 -10.357913 0.617078 6730418
-9.569857 -10.291950 1.352265 6730418
-9.366789 -10.116619 1.246207 6730418
-9.356191 -9.260792 0.278031 6730418
-10.188637 -10.685057 0.951243 6730418
-10.529237 -10.490559 1.487064 6730418
-10.439591 -10.507765 2.471689 6730418
-10.582217 -9.945755 0.892234 6730418
-9.599151 -10.947597 1.950294 6730418
-9.197863 -10.485346 1.863837 6730418
-10.439374 -9.754839 2.672373 6730418
-10.355775 -10.201091 0.471043 6730418
-9.774286 -10.676649 2.657893 6730418
-10.895726 -10.024363 2.568172 6730418
-9.516643 -9.154344 0.834413 6730418
-10.046797 -10.311852 0.635931 6730418
-10.291710 -9.896170 0.355585 6730418
-9.946128 -9.844263 0.719833 6730418
-9.355972 -10.545954 0.687415 6730418
-10.677544 -10.171425 2.584445 6730418
-9.456081 -9.208848 2.952362 6730418
-9.953370 -9.446517 2.269348 6730418
-10.826060 -9.507273 2.551055 6730418
-10.009189 -10.434935 2.555075 6730418
-10.512467 -10.486790 2.396065 6730418
-9.532484 -9.884154 2.264426 6730418
-10.791279 -10.476134 0.635071 6730418
-10.565450 -9.246938 0.292834 6730418
-9.673162 -9.251071 1.758019 6730418
-9.224113 -9.981714 0.982055 6730418
-10.143958 -10.375004 2.334822 6730418
-10.811422 -10.180730 1.682308 6730418
-9.979810 -9.468461 1.354816 6730418
-9.218836 -10.169711 1.270122 6730418
-9.781184 -10.520044 0.322931 6730418
-10.104477 -10.263504 1.574929 6730418
-10.839400 -10.019231 1.542216 6730418
-10.013357 -10.621332 0.113549 6730418
-10.713293 -9.783444 2.625297 6730418
-9.121111 -10.126554 2.664769 6730418
-9.823403 -10.294334 2.658556 6730418
-10.908201 -10.182583 2.587176 6730418
-10.509646 -9.192261 0.906170 6730418
-10.042427 -9.510921 2.424948 6730418
-9.483166 -10.491599 0.858938 6730418
-10.605824 -9.193538 2.226912 6730418
-10.109473 -10.219789 1.141132 6730418
-9.472781 -9.171305 2.015447 6730418
-9.378723 -9.648081 2.115462 6730418
-9.999344 -9.865906 2.350705 6730418
-10.324871 -9.303082 0.022707 6730418
-10.115272 -9.524720 1.597639 6730418
-10.727561 -10.563066 1.051091 6730418
-10.646027 -9.872027 1.950368 6730418
-9.118621 -9.940083 1.905428 6730418
-9.372824 -9.798650 1.210693 6730418
-9.858587 -9.177135 1.328335 6730418
-9.856411 -9.170471 0.031949 6730418
-9.058324 -10.006172 0.031325 6730418
-9.414177 -10.724118 0.572143 6730418
-10.652599 -9.846085 0.457808 6730418
-10.497591 -10.185330 2.521328 6730418
-9.646289 -10.249302 1.086698 6730418
-9.465815 -9.457910 0.600026 6730418
-9.475747 -10.772380 1.616208 6730418
-9.978152 -9.529969 0.256627 6730418
-10.712048 -9.982097 1.249074 6730418
-9.789190 -10.662252 0.622387 6730418
-9.212763 -9.554404 0.788513 6730418
-9.627799 -9.463855 2.149690 6730418
-9.812511 -10.885851 0.197034 6730418
-10.146855 -9.253082 2.412657 6730418
-10.400393 -9.509817 1.066570 6730418
-10.714505 -10.289744 1.960931 6730418
-10.910864 -10.404911 2.242302 6730418
-10.331610 -10.562637 1.100270 6730418
-10.094779 -10.710626 0.984930 6730418
-9.690007 -9.770345 1.499421 6730418
-10.581973 -10.327400 1.182772 6730418
-10.573053 -10.788439 2.142981 6730418
-10.907926 -10.190621 2.568225 6730418
-10.725376 -10.478731 2.207761 6730418
-10.122067 -9.377290 1.207081 6730418
-9.504050 -10.291460 0.526478 6730418
-10.155573 -10.671909 0.697295 6730418
-9.398777 -10.724003 0.067149 6730418
-9.485785 -9.495239 1.576800 6730418
-10.538744 -9.380040 1.573109 6730418
-10.519485 -10.555513 2.104372 6730418
-10.108426 -9.651398 2.034948 6730418
-10.808825 -9.615979 0.648332 6730418
-10.531352 -9.984561 2.847203 6730418
-10.892968 -9.914575 2.944397 6730418
-9.729427 -9.740952 1.098953 6730418
-10.897471 -9.679564 0.178118 6730418
-9.895510 -9.730124 2.585260 6730418
-9.473595 -9.234229 2.598392 6730418
-9.251759 -9.361320 0.280588 6730418
-9.898906 -9.687620 2.405767 6730418
-10.381207 -9.657275 0.347160 6730418
-10.809144 -9.994790 0.622739 6730418
-9.976129 -9.129440 1.664796 6730418
-9.777168 -9.046895 2.245705 6730418
-10.458727 -9.233261 1.240777 6730418
-10.106695 -10.061233 1.970334 6730418
-9.554531 -10.053409 0.158354 6730418
-9.376701 -9.215708 2.655240 6730418
-10.365246 -10.080730 1.000462 6730418
-10.236972 -10.216705 1.108972 6730418
-10.668615 -10.264295 0.567800 6730418
-10.464697 -10.197565 2.215027 6730418
-9.883110 -9.418856 2.236345 6730418
-9.306297 -9.353001 0.707171 6730418
-9.998462 -10.132754 1.446226 6730418
-10.391891 -9.630000 1.784110 6730418
-10.486031 -10.166854 2.452746 6730418
-9.762383 -10.362534 2.329897 6730418
-9.591202 -9.531953 2.998631 6730418
-10.672391 -9.962165 2.822752 6730418
-9.501811 -10.304574 2.326842 6730418
-10.010338 -10.023952 2.608634 6730418
-10.331129 -10.570503 1.183325 6730418
-10.069492 -9.933911 1.236324 6730418
-10.318984 -9.194849 1.338645 6730418
-9.571850 -10.194534 0.654257 6730418
-9.865755 -10.626772 0.151575 6730418
-9.796391 -10.232512 0.843169 6730418
-10.695313 -10.635264 2.905283 6730418
-9.597584 -9.369698 0.756594 6730418
-10.958830 -10.289206 1.342552 6730418
-10.315375 -9.906615 2.214041 6730418
-9.703518 -9.542789 0.889749 6730418
-9.771992 -9.172410 2.386226 6730418
-9.609640 -9.673801 1.390951 6730418
-9.228889 -9.646902 2.455968 6730418
-10.090812 -9.392063 2.638829 6730418
-10.532743 -9.727959 2.835641 6730418
-9.608383 -10.351476 2.169449 6730418
-9.458357 -10.718767 1.914927 6730418
-10.314399 -9.056860 1.858810 6730418
-10.340648 -10.351254 1.704106 6730418
-9.489230 -9.351029 1.175416 6730418
-9.894658 -10.257074 2.175721 6730418
-10.168703 -9.751998 1.835739 6730418
-10.871105 -10.302861 0.875030 6730418
-10.690823 -9.733400 0.639491 6730418
-9.353214 -9.356934 1.767059 6730418
-9.048583 -9.986969 0.069165 6730418
-10.748897 -9.517089 0.278066 6730418
-10.152036 -9.566913 1.726616 6730418
