# .PCD v0.7 - Point Cloud Data file format
VERSION 0.7
FIELDS x y z rgb
SIZE 4 4 4 4
TYPE F F F U
COUNT 1 1 1 1
WIDTH 1270
HEIGHT 1
VIEWPOINT 0 0 0 1 0 0 0
POINTS 1270
DATA ascii
10.316661 9.237296 2.692230 11697996
9.740658 10.009298 3.932044 11697996
8.740332 9.841157 1.473215 11697996
9.235736 10.440211 2.135567 11697996
9.668962 10.676005 2.768352 11697996
9.283296 9.849347 2.154990 11697996
8.768533 10.255265 3.212323 11697996
9.293000 10.938045 0.118350 11697996
8.810678 9.464835 2.507119 11697996
10.860074 9.804385 1.524101 11697996
10.279429 9.784591 1.792227 11697996
10.440036 10.072193 2.357024 11697996
10.147133 9.172121 2.928010 11697996
10.125562 10.317646 3.506828 11697996
9.137987 10.110897 1.018429 11697996
9.380617 8.835649 2.604710 11697996
11.263340 11.138382 1.192013 11697996
9.137368 10.175861 2.596159 11697996
9.664578 9.719467 2.730592 11697996
9.380732 9.748489 1.701017 11697996
9.396498 10.853650 3.594145 11697996
10.712620 8.885180 2.780940 11697996
10.146532 9.360538 1.619160 11697996
10.935434 10.719739 3.811244 11697996
9.091241 9.403377 3.381048 11697996
10.086842 9.669785 0.879791 11697996
9.235682 10.961699 0.464617 11697996
9.000293 10.982780 1.946298 11697996
10.964417 10.827034 1.350997 11697996
9.903689 9.239878 3.195390 11697996
10.351123 9.860633 1.371326 11697996
10.260367 9.862964 3.895916 11697996
9.439478 9.066166 3.577071 11697996
9.759315 10.456656 3.221066 11697996
9.006577 9.806363 2.819401 11697996
10.335478 11.015734 0.428899 11697996
10.076256 10.962091 3.011414 11697996
8.990832 9.486285 0.283179 11697996
8.777469 10.149698 0.993524 11697996
9.641971 10.662503 0.552582 11697996
10.387518 10.155721 3.321040 11697996
9.130987 10.241097 3.649430 11697996
11.214542 10.306861 2.508042 11697996
10.929751 10.022337 2.834298 11697996
10.190527 9.995591 0.118225 11697996
10.514447 9.429591 1.655781 11697996
9.089267 9.113066 0.495051 11697996
8.882076 10.924084 0.495595 11697996
9.067363 10.201737 2.245768 11697996
9.792179 10.598186 1.999458 11697996
10.913147 9.399532 3.401859 11697996
8.995404 10.752363 2.040443 11697996
8.836952 10.154026 2.764628 11697996
9.757113 10.080603 0.654524 11697996
10.718826 10.691009 0.492714 11697996
9.350616 10.080323 3.216050 11697996
8.755949 8.970057 1.696274 11697996
9.613268 9.752904 1.429539 11697996
9.572838 11.130266 2.497091 11697996
11.046217 9.874582 2.815028 11697996
9.467796 9.408720 2.599067 11697996
9.331543 9.616140 1.704524 11697996
10.523594 11.194663 0.390449 11697996
9.283693 8.915794 3.400997 11697996
10.564331 9.784146 2.305964 11697996
9.979170 10.663286 1.583210 11697996
9.793122 11.154203 2.140399 11697996
10.661992 11.019518 2.323479 11697996
9.744568 11.096962 3.439008 11697996
10.121817 8.942508 0.086318 11697996
9.755022 10.498864 1.663383 11697996
8.853468 9.759731 2.786520 11697996
10.131570 9.911795 2.393835 11697996
10.954091 9.893451 1.828436 11697996
10.121035 10.706735 1.067763 11697996
9.245600 8.979379 3.230326 11697996
9.617443 9.639637 0.802840 11697996
9.767136 10.164797 0.999310 11697996
10.066572 9.944902 2.421149 11697996
11.240195 10.560311 3.334533 11697996
9.637510 9.983410 1.907366 11697996
10.639692 8.859495 0.217522 11697996
11.142946 9.338929 0.006503 11697996
11.133497 9.334096 0.805988 11697996
9.728337 10.327038 1.560026 11697996
10.364859 8.942101 0.670797 11697996
11.102330 8.846780 2.799342 11697996
11.196464 9.412707 3.289770 11697996
11.069368 9.178867 2.097144 11697996
11.160928 10.749269 3.914137 11697996
10.525015 9.704295 2.579019 11697996
10.091120 10.153863 0.352127 11697996
10.801143 10.472098 1.389163 11697996
9.489976 8.800975 1.546427 11697996
9.344462 9.948734 3.424027 11697996
10.726176 10.539158 2.092606 11697996
10.908515 8.829065 2.303880 11697996
9.017719 8.870998 3.437570 11697996
10.224566 10.768166 0.417292 11697996
11.138954 10.932925 3.453633 11697996
10.683037 10.433887 3.054249 11697996
9.336428 9.979774 3.422330 11697996
10.387180 11.092813 0.771348 11697996
10.069159 9.385501 0.883257 11697996
10.570198 10.374823 1.667612 11697996
10.009386 10.154449 3.401466 11697996
9.603334 10.027130 2.775526 11697996
10.516107 9.152553 1.178192 11697996
9.953375 9.593769 1.789861 11697996
10.764475 10.236962 1.750797 11697996
10.676350 11.022614 0.907436 11697996
11.076920 9.861767 2.078800 11697996
10.483223 10.135077 1.569730 11697996
11.036981 9.283373 3.894846 11697996
9.187768 9.714328 2.556142 11697996
10.516859 10.322250 2.322401 11697996
9.574499 10.820080 1.738143 11697996
10.519712 9.541790 3.941930 11697996
10.310956 10.336728 1.587860 11697996
9.281563 9.753876 0.290630 11697996
9.044544 10.664927 2.513500 11697996
11.023458 10.995996 3.008131 11697996
9.311421 9.502271 0.094182 11697996
9.414186 10.532722 2.601437 11697996
9.279868 10.054753 0.031403 11697996
10.381868 9.597360 0.307051 11697996
9.919007 11.011191 1.135459 11697996
10.073268 9.879787 0.985435 11697996
10.002958 9.866921 1.768260 11697996
8.930314 9.016710 0.507650 11697996
10.199981 10.345525 3.593282 11697996
10.805893 10.464403 1.543015 11697996
9.292871 10.535999 3.012886 11697996
8.964304 9.295503 3.919548 11697996
9.295830 9.362904 3.760919 11697996
10.488669 10.305853 0.148892 11697996
11.183729 11.079868 2.775190 11697996
10.181520 10.429789 3.987218 11697996
9.040410 11.021684 2.444081 11697996
9.961430 10.565838 1.098911 11697996
10.697792 10.429682 0.989978 11697996
10.313246 9.874017 1.951450 11697996
9.245796 9.865224 3.109952 11697996
10.851700 9.986016 1.310603 11697996
11.229704 8.812816 0.155221 11697996
9.298521 9.582389 1.919764 11697996
9.440598 10.226366 3.933977 11697996
10.609935 10.971613 2.743103 11697996
9.779228 9.399160 2.234653 11697996
11.158740 10.698709 1.659109 11697996
9.097224 10.821993 0.272959 11697996
9.667755 9.700813 0.164736 11697996
9.722556 9.008058 2.274195 11697996
9.877070 11.045545 3.612427 11697996
10.645044 9.131997 3.494511 11697996
9.453233 10.152812 1.854222 11697996
9.664320 9.861470 3.411037 11697996
10.205110 9.568020 3.173943 11697996
10.894012 8.792035 0.628476 11697996
10.166761 9.810656 1.633660 11697996
9.444674 9.004097 3.363615 11697996
10.093061 10.807922 2.296950 11697996
10.127257 9.872487 3.421338 11697996
9.775088 9.058673 3.009269 11697996
11.152452 9.570658 1.232827 11697996
9.175814 9.627101 2.742976 11697996
9.141868 10.076042 1.850066 11697996
11.019317 10.277629 3.417037 11697996
9.041461 9.585287 0.210554 11697996
10.619905 9.804979 1.375817 11697996
11.009081 10.132576 0.041323 11697996
10.421215 10.193605 2.303776 11697996
10.437362 10.578178 2.592561 11697996
10.937874 9.792278 3.758778 11697996
9.412999 10.750252 3.099021 11697996
8.803936 9.802436 3.743398 11697996
10.414482 9.069156 0.414629 11697996
8.895467 9.603379 0.128431 11697996
10.932778 9.938806 1.922289 11697996
10.379972 10.352539 1.377742 11697996
9.009701 9.176561 1.541201 11697996
11.038918 8.947135 1.399998 11697996
9.225889 10.488303 1.214213 11697996
9.546648 11.038115 0.770751 11697996
10.631740 10.991969 2.843583 11697996
11.123052 10.766299 0.155141 11697996
9.159367 8.874719 0.236076 11697996
9.914986 10.003961 3.823666 11697996
10.431253 9.561641 2.684652 11697996
11.052534 10.867973 2.952211 11697996
9.970084 10.767381 0.054158 11697996
10.289253 9.005762 0.266305 11697996
10.398494 10.942224 0.976558 11697996
8.745924 9.472292 0.783346 11697996
9.336199 11.052570 1.229956 11697996
10.724990 9.002269 1.525008 11697996
10.000975 10.626479 0.428925 11697996
10.700740 9.823987 1.711538 11697996
10.256667 10.081370 3.904383 11697996
10.659064 9.426695 3.061210 11697996
10.134045 11.140525 0.305596 11697996
9.017492 9.868651 1.722408 11697996
9.569798 10.124595 3.771448 11697996
9.758203 10.769794 1.241961 11697996
11.031514 11.016343 0.429899 11697996
10.266552 9.199006 2.159796 11697996
8.774921 9.123277 1.826138 11697996
8.778516 9.228908 1.215812 11697996
8.870880 9.547853 2.066988 11697996
9.344193 10.832066 1.810850 11697996
9.015182 10.303809 2.106564 11697996
8.958652 10.651121 1.974048 11697996
9.173415 10.537632 0.325643 11697996
10.117011 11.188556 2.691561 11697996
9.303457 10.158080 3.528256 11697996
11.092945 10.550207 2.653083 11697996
10.692917 9.774762 0.696328 11697996
9.627434 9.007028 2.017133 11697996
10.353036 10.314731 3.008457 11697996
10.190823 9.191989 1.924439 11697996
11.224525 9.850488 1.976621 11697996
11.044792 9.218404 2.221972 11697996
9.968927 11.037395 1.745681 11697996
11.198847 9.516260 1.505163 11697996
9.988110 9.136234 1.407242 11697996
10.690900 10.561701 3.135885 11697996
11.092569 11.171529 3.764850 11697996
9.926205 9.206656 3.616873 11697996
11.196955 11.138472 0.602447 11697996
9.185405 9.255973 3.874999 11697996
10.831873 10.266347 2.581984 11697996
10.125711 10.200682 0.342878 11697996
9.818257 10.242862 0.618005 11697996
10.350011 8.762227 0.279146 11697996
10.446383 9.608499 2.697459 11697996
9.466516 9.161143 2.360423 11697996
8.771141 10.506916 3.912722 11697996
10.851859 10.126278 2.864060 11697996
10.572495 11.055487 3.469857 11697996
9.104197 9.717631 3.643024 11697996
8.825217 9.494635 0.876517 11697996
9.316015 10.799953 2.075164 11697996
10.162587 9.511760 2.957499 11697996
9.654781 9.844085 0.650154 11697996
11.087503 9.804956 2.075112 11697996
10.087962 10.311900 2.301131 11697996
10.735330 11.102702 1.833997 11697996
10.201243 9.678114 3.219068 11697996
8.807442 9.200130 0.259212 11697996
10.785297 9.812127 3.108354 11697996
11.202795 8.795396 0.997108 11697996
9.688357 10.505980 2.717883 11697996
10.915269 10.549693 1.842219 11697996
9.793341 10.796449 3.980057 11697996
10.674479 10.439599 0.126192 11697996
11.004362 9.011781 1.031849 11697996
10.202926 9.191405 0.985817 11697996
10.204980 11.134838 2.414957 11697996
9.507730 10.983240 0.788751 11697996
9.572007 10.613927 0.743730 11697996
9.050680 8.990428 1.457201 11697996
10.742113 9.780487 2.752470 11697996
10.429341 9.988576 2.205393 11697996
10.538424 8.821857 2.489096 11697996
9.006359 11.171046 1.102046 11697996
9.578837 10.173058 3.547498 11697996
9.660170 10.928520 2.910991 11697996
10.570512 9.142379 0.967393 11697996
8.816703 9.148170 1.162822 11697996
11.094270 10.696867 1.719075 11697996
8.938246 9.644673 3.339616 11697996
10.698833 9.163164 2.241629 11697996
10.686117 9.854791 3.864411 11697996
8.875504 9.402059 1.880616 11697996
10.005295 9.269041 1.358772 11697996
10.581318 9.956577 0.770915 11697996
9.551641 10.817236 3.154531 11697996
9.208977 9.571006 3.048944 11697996
10.181978 9.468139 2.897244 11697996
11.206606 9.854944 0.520568 11697996
10.894002 9.477571 0.528318 11697996
9.988596 11.151635 0.828390 11697996
9.598426 9.366594 0.549733 11697996
9.492824 9.571899 3.608321 11697996
9.739251 9.362784 3.464420 11697996
9.850141 9.975584 3.152145 11697996
9.212697 9.770505 2.431571 11697996
9.589034 9.356190 1.805007 11697996
8.766873 10.006530 0.793045 11697996
10.846077 10.573256 0.105313 11697996
8.876979 10.687695 0.372157 11697996
11.083947 11.197149 3.667306 11697996
10.424988 9.254507 1.160379 11697996
10.355474 8.906820 3.415558 11697996
11.158493 11.229002 3.793578 11697996
10.984568 9.785619 1.191574 11697996
11.081688 9.366628 2.886790 11697996
10.032767 10.886501 3.852037 11697996
9.978246 9.952619 2.961584 11697996
10.642768 11.042193 1.435467 11697996
9.915126 10.913854 0.935981 11697996
9.796439 9.626416 2.245721 11697996
10.745708 9.313135 3.265508 11697996
9.470216 9.667816 0.262284 11697996
10.526913 9.116125 2.408641 11697996
8.834673 9.330194 1.311862 11697996
10.525253 9.527166 3.670034 11697996
11.092086 9.106194 1.254968 11697996
10.327563 8.789426 1.683939 11697996
10.920328 10.735386 2.703441 11697996
9.598648 8.999224 1.268187 11697996
8.794941 9.688545 0.362195 11697996
8.843469 9.083527 3.127579 11697996
10.570954 10.687626 2.076482 11697996
10.436001 9.848988 1.391370 11697996
10.378725 8.975953 3.765958 11697996
10.380180 10.722195 2.374018 11697996
11.007323 8.841193 0.155329 11697996
9.026841 9.516039 2.741740 11697996
10.504520 9.739499 2.955516 11697996
10.767748 10.255909 3.115924 11697996
10.434298 8.986591 1.411427 11697996
10.132272 9.666042 2.020078 11697996
9.534707 11.038157 1.943566 11697996
9.751246 9.534847 1.370747 11697996
9.311515 10.511630 3.843880 11697996
10.912166 9.677380 0.668273 11697996
9.790111 10.570753 2.633132 11697996
8.868252 9.842267 1.597165 11697996
10.281850 10.289360 3.747221 11697996
8.778182 9.749369 1.658780 11697996
9.413810 10.196988 1.810094 11697996
9.485920 9.562635 0.060326 11697996
9.900362 10.171189 1.856645 11697996
9.436147 8.757112 2.140217 11697996
9.437835 10.133395 0.444086 11697996
9.316348 8.759570 3.958235 11697996
8.916141 10.388361 2.385080 11697996
9.610421 10.067644 1.691514 11697996
9.247066 9.889120 0.920581 11697996
10.770962 10.838450 1.406193 11697996
11.173209 9.873136 3.184732 11697996
10.543361 10.226907 1.263542 11697996
8.931469 10.598024 3.710624 11697996
10.532550 10.247443 2.730708 11697996
9.712561 9.280282 3.533236 11697996
10.953482 11.151372 0.975407 11697996
10.407422 10.673108 2.605373 11697996
10.206243 10.649949 1.217628 11697996
10.488607 9.455589 2.185510 11697996
9.899073 9.342202 0.059365 11697996
9.577346 10.677909 0.583436 11697996
10.357990 9.272137 0.281737 11697996
9.030181 10.774947 0.471368 11697996
10.396776 10.923232 2.005110 11697996
10.044560 9.061913 2.661146 11697996
10.176373 9.217185 3.777469 11697996
10.866488 9.844771 2.891671 11697996
10.336808 11.149096 1.099506 11697996
10.957942 9.067854 0.504566 11697996
11.171534 10.031411 1.426425 11697996
9.397470 10.186230 3.585233 11697996
9.046414 8.787277 1.269403 11697996
10.341965 10.537178 1.370335 11697996
8.940481 8.937209 3.256494 11697996
10.261362 9.186887 3.908487 11697996
9.114320 10.295531 2.647839 11697996
9.243734 9.783213 0.701682 11697996
9.856967 11.071170 3.335714 11697996
9.001654 10.291378 3.240898 11697996
8.817945 11.270727 2.922971 11697996
9.376601 10.317852 3.532662 11697996
11.135623 11.183607 0.480552 11697996
8.961422 9.251255 0.640127 11697996
10.276035 8.971663 3.673325 11697996
10.434655 11.057441 0.582053 11697996
8.766426 9.831747 3.641194 11697996
10.134383 10.369850 3.538727 11697996
9.587408 10.227826 1.080517 11697996
9.719599 8.811841 3.105718 11697996
10.013427 9.509435 3.104891 11697996
10.536410 9.847400 2.839311 11697996
9.359316 8.998405 1.080940 11697996
10.776744 11.042152 1.610632 11697996
9.927087 9.353049 3.080203 11697996
10.337328 9.432722 1.309339 11697996
10.396397 10.923189 3.334978 11697996
8.832723 9.657268 1.889798 11697996
9.264359 10.823168 3.052795 11697996
9.396550 10.800021 1.290752 11697996
9.324217 9.905227 2.370579 11697996
11.088672 9.016162 0.176267 11697996
10.110266 9.010083 1.879246 11697996
10.672460 9.886905 1.099939 11697996
10.328012 10.175994 0.633265 11697996
10.943749 9.691070 3.086939 11697996
8.846199 10.622949 1.589471 11697996
10.221349 9.641113 3.057882 11697996
9.023819 10.523075 3.416477 11697996
10.250639 10.481083 0.002101 11697996
9.093792 10.362620 2.132466 11697996
9.835967 10.489213 1.644951 11697996
10.089274 9.829627 1.471581 11697996
10.843706 9.910965 1.298334 11697996
9.492972 8.968933 1.786216 11697996
10.602883 9.210344 2.188048 11697996
11.202229 10.345848 3.101571 11697996
11.254986 9.368733 3.496186 11697996
9.940282 9.062795 1.572600 11697996
10.925876 9.792601 1.120379 11697996
11.236355 10.063967 0.408881 11697996
9.862852 8.804935 2.269081 11697996
10.046767 9.493878 2.333926 11697996
9.982531 10.772243 1.710227 11697996
9.934128 9.976027 2.893649 11697996
9.925203 10.687695 3.800579 11697996
10.716464 9.321728 2.486383 11697996
9.446483 8.934877 0.259811 11697996
9.360023 8.861278 0.466009 11697996
9.071836 10.644271 3.221302 11697996
8.915464 9.581498 3.349354 11697996
10.101937 11.010965 0.121850 11697996
8.757708 10.507276 3.769679 11697996
10.307760 8.811164 3.562714 11697996
9.296346 10.539010 1.813817 11697996
9.454296 10.898889 1.908301 11697996
8.948939 9.917841 0.203335 11697996
10.419111 9.487652 2.764503 11697996
10.495172 9.628713 3.265334 11697996
10.296613 9.778046 0.846912 11697996
9.230021 10.106421 0.239806 11697996
8.835200 10.347301 0.922156 11697996
10.490505 11.224121 3.549017 11697996
9.037246 8.928384 2.855705 11697996
9.541087 10.377224 3.715256 11697996
8.778666 10.045163 2.494437 11697996
10.777411 10.637903 3.426196 11697996
11.026906 11.232427 3.661102 11697996
10.515700 8.838591 0.957273 11697996
8.927602 10.285032 0.060035 11697996
9.066720 9.408720 0.720694 11697996
9.267782 8.980989 0.311098 11697996
9.569299 9.162979 0.228267 11697996
10.866296 10.297271 1.722631 11697996
9.847955 10.220385 3.600734 11697996
9.137575 9.800414 1.820378 11697996
9.908125 9.479877 1.262931 11697996
9.370918 9.163878 1.491989 11697996
10.191084 10.485716 3.118015 11697996
10.112449 9.913044 0.753502 11697996
11.023012 9.067371 1.663456 11697996
8.751019 10.470928 0.242567 11697996
10.462056 11.103259 2.050853 11697996
9.892995 9.520590 1.728183 11697996
11.234221 10.168862 0.784669 11697996
9.843234 9.154422 1.762544 11697996
9.754386 9.656343 2.926415 11697996
10.732588 9.464161 3.006367 11697996
10.564583 8.769257 2.913647 11697996
10.611805 10.559491 2.324408 11697996
9.360856 9.873775 3.222045 11697996
10.358237 10.689776 2.652408 11697996
10.376363 10.559628 2.555926 11697996
8.752232 8.891015 0.496429 11697996
10.164501 9.006484 2.627911 11697996
9.916866 10.288972 2.043264 11697996
9.803754 11.200891 2.491406 11697996
8.757134 9.462021 0.044313 11697996
10.646028 9.456592 0.351843 11697996
-9.809009 -10.479461 0.705290 6730418
-10.269577 -10.979482 1.083360 6730418
-10.564863 -9.854703 2.173439 6730418
-10.433064 -9.398122 0.339369 6730418
-9.691909 -9.595688 1.835398 6730418
-9.887216 -9.377892 2.425776 6730418
-9.994871 -10.278843 2.970993 6730418
-9.649526 -9.342025 0.189996 6730418
-9.550391 -9.690276 2.396823 6730418
-9.423540 -10.303052 0.304754 6730418
-10.751727 -9.753336 1.220562 6730418
-9.431073 -10.368237 1.965099 6730418
-9.619637 -10.856093 2.873149 6730418
-10.230111 -10.154994 1.433460 6730418
-9.457530 -10.131551 0.803393 6730418
-9.338375 -10.572467 1.773916 6730418
-10.462192 -9.800819 0.160397 6730418
-9.313751 -10.733429 1.788862 6730418
-9.566659 -10.767211 1.308480 6730418
-9.866575 -10.483870 1.592911 6730418
-9.365841 -10.556923 1.778042 6730418
-9.791621 -9.242000 1.221635 6730418
-9.824412 -8.996547 2.115228 6730418
-9.754186 -10.760919 0.113252 6730418
-10.333603 -10.052377 0.324082 6730418
-10.123688 -9.696993 0.857937 6730418
-10.283721 -10.519244 0.497536 6730418
-9.913184 -9.588652 0.889301 6730418
-10.388559 -10.490895 0.952267 6730418
-9.616584 -10.418538 2.095438 6730418
-10.217771 -10.612075 2.039447 6730418
-9.463578 -9.282226 2.852005 6730418
-9.999335 -10.899453 1.223117 6730418
-10.844276 -9.417032 1.735883 6730418
-9.612793 -9.366067 2.095312 6730418
-10.471742 -9.835055 0.354614 6730418
-9.897037 -9.797900 1.187098 6730418
-9.547943 -10.556047 1.033771 6730418
-9.757060 -10.726756 1.856049 6730418
-9.365843 -9.499142 1.106363 6730418
-9.131449 -10.287310 0.462136 6730418
-9.892288 -10.750826 0.240657 6730418
-10.001637 -9.140877 2.593730 6730418
-9.549197 -10.188089 2.734144 6730418
-9.879413 -9.445452 2.495312 6730418
-10.323354 -9.827467 1.890517 6730418
-9.813071 -10.347300 0.868158 6730418
-9.403643 -9.447131 1.214990 6730418
-10.559806 -10.504842 1.844382 6730418
-9.436298 -9.435097 2.307145 6730418
-10.765841 -10.291016 2.743647 6730418
-9.297009 -9.856290 2.708243 6730418
-10.580522 -10.009158 1.919905 6730418
-9.923831 -10.127620 1.181537 6730418
-10.385283 -10.505396 2.575332 6730418
-9.920007 -10.462954 0.722424 6730418
-9.822734 -9.815948 1.413036 6730418
-9.503669 -10.286551 2.576867 6730418
-9.774894 -9.317564 1.800354 6730418
-9.743347 -10.574174 2.895004 6730418
-10.270883 -10.189272 1.245748 6730418
-9.150187 -9.764413 1.273002 6730418
-9.359108 -9.974825 2.136948 6730418
-10.234624 -9.075439 2.105886 6730418
-9.359746 -9.699670 2.706828 6730418
-10.196285 -9.319550 1.050404 6730418
-9.696677 -9.608992 1.208132 6730418
-10.076117 -9.079976 1.155951 6730418
-9.782394 -9.913053 0.932639 6730418
-10.609287 -10.592046 0.628541 6730418
-9.198684 -10.572656 0.753521 6730418
-10.052176 -10.895153 1.829339 6730418
-10.014956 -9.537541 2.835855 6730418
-9.683725 -10.119720 0.366195 6730418
-9.961701 -10.032430 1.501398 6730418
-9.522752 -9.319025 1.892317 6730418
-9.159578 -9.566139 1.146729 6730418
-10.057666 -9.149325 0.104737 6730418
-9.603577 -9.900321 0.712634 6730418
-9.770940 -9.869070 2.362542 6730418
-9.362343 -10.722512 1.959974 6730418
-10.472991 -9.433472 1.187790 6730418
-10.360345 -9.648212 2.684139 6730418
-9.158445 -9.941960 2.755317 6730418
-9.408109 -10.348469 0.130779 6730418
-10.211783 -9.470567 1.631108 6730418
-10.779241 -9.840505 1.500281 6730418
-10.199514 -9.820890 2.206364 6730418
-10.530577 -9.429025 1.205083 6730418
-9.998303 -9.344553 0.586280 6730418
-10.872131 -10.229623 2.666063 6730418
-9.947145 -9.710772 2.322027 6730418
-10.827309 -9.862204 1.517994 6730418
-10.712560 -9.729418 0.825321 6730418
-9.698079 -10.519904 2.717300 6730418
-10.708474 -10.609773 1.407959 6730418
-10.048135 -10.319882 1.576413 6730418
-9.761265 -10.972517 0.367548 6730418
-10.047876 -10.380106 1.125188 6730418
-9.438366 -10.258881 1.115104 6730418
-9.643000 -10.230966 2.166593 6730418
-9.046860 -9.831132 0.384972 6730418
-10.637138 -10.122914 0.469667 6730418
-9.524783 -10.493376 1.548390 6730418
-9.799870 -10.376532 2.001957 6730418
-9.926388 -10.245208 2.818667 6730418
-9.985644 -10.274652 2.433049 6730418
-9.444931 -9.561729 0.739306 6730418
-9.464045 -9.900769 2.680761 6730418
-9.728778 -10.496981 2.092672 6730418
-9.444414 -10.243001 0.542342 6730418
-9.039492 -10.264678 1.047431 6730418
-9.762648 -9.053144 0.962596 6730418
-9.212811 -10.455682 2.455336 6730418
-9.670628 -9.767431 2.762412 6730418
-9.092402 -10.299766 0.152897 6730418
-9.612376 -10.373967 0.985222 6730418
-10.374469 -10.499114 2.321570 6730418
-9.605651 -9.122017 1.857544 6730418
-9.278759 -10.106811 1.554123 6730418
-9.153978 -9.595353 1.732254 6730418
-9.326135 -9.510882 2.227864 6730418
-10.347016 -10.662266 0.645559 6730418
-9.259940 -10.391755 0.994092 6730418
-9.264666 -9.460517 0.353701 6730418
-9.263573 -10.043487 1.402032 6730418
-9.183590 -10.200892 1.813318 6730418
-10.373769 -9.294145 0.731868 6730418
-10.942059 -10.103381 2.238648 6730418
-9.900674 -9.392614 2.602326 6730418
-10.821170 -9.571874 1.606788 6730418
-9.221065 -10.194933 2.007523 6730418
-9.462328 -10.832350 2.838982 6730418
-9.448731 -10.427200 2.764038 6730418
-10.501649 -10.344797 2.136789 6730418
-9.994139 -10.538990 1.544050 6730418
-9.556686 -9.189355 2.706388 6730418
-9.957134 -10.525756 2.565311 6730418
-10.875419 -10.317970 1.759317 6730418
-10.279662 -9.503040 1.457653 6730418
-9.596930 -10.672851 2.428305 6730418
-9.397778 -9.976718 1.807507 6730418
-9.848112 -10.230285 0.069318 6730418
-10.590305 -10.393475 0.265268 6730418
-9.204883 -10.005633 0.003233 6730418
-10.802359 -10.338877 0.317359 6730418
-9.450617 -9.729507 1.860209 6730418
-10.509179 -9.850713 0.908688 6730418
-9.454295 -10.025493 1.457388 6730418
-9.890223 -10.294785 0.956446 6730418
-9.782151 -10.910032 0.065982 6730418
-10.007608 -9.555534 2.248676 6730418
-9.719499 -10.101511 2.072618 6730418
-9.152522 -10.450455 2.742923 6730418
-10.175074 -9.959022 2.014836 6730418
-10.409398 -9.941637 2.510430 6730418
-9.684346 -10.143437 2.535515 6730418
-10.112428 -9.993710 2.503487 6730418
-9.228185 -10.406490 1.101269 6730418
-10.315981 -10.707267 2.789606 6730418
-10.065833 -9.606806 2.825131 6730418
-9.253866 -10.665455 0.784546 6730418
-10.244267 -9.466249 1.255053 6730418
-10.016511 -9.255433 0.997798 6730418
-10.337788 -9.220086 2.729007 6730418
-9.386529 -10.563923 0.674613 6730418
-10.799242 -10.061894 0.965322 6730418
-9.913346 -10.626877 0.072461 6730418
-9.300602 -9.930576 1.803035 6730418
-9.362855 -9.237446 1.583057 6730418
-10.876163 -9.548809 0.611129 6730418
-9.488124 -9.892901 1.135803 6730418
-10.175426 -9.966768 1.358495 6730418
-10.104850 -9.888206 1.584338 6730418
-10.229023 -10.101849 2.147181 6730418
-9.622313 -9.455533 1.122811 6730418
-10.415425 -9.756568 0.872452 6730418
-10.340543 -9.379013 1.662940 6730418
-10.410465 -10.534355 2.928010 6730418
-10.227650 -10.960625 2.893465 6730418
-9.980548 -10.861548 2.318000 6730418
-9.898965 -9.551323 1.224236 6730418
-9.883071 -9.904657 2.567465 6730418
-9.537539 -9.375196 1.160804 6730418
-10.540504 -10.267461 1.002207 6730418
-9.796111 -9.941611 1.119938 6730418
-9.831419 -10.313313 2.127846 6730418
-9.659190 -9.607414 2.328151 6730418
-9.613363 -10.637529 2.334262 6730418
-9.803501 -9.178594 2.003885 6730418
-10.460862 -10.373184 0.597252 6730418
-9.992841 -10.967820 2.012284 6730418
-9.253407 -10.121690 0.086010 6730418
-10.417555 -9.468626 2.987588 6730418
-9.219744 -9.460683 2.267792 6730418
-10.128436 -9.202550 0.096841 6730418
-9.876011 -9.171423 2.226663 6730418
-9.095181 -9.838987 1.500137 6730418
-10.229902 -10.510676 0.418376 6730418
-9.708355 -9.099490 1.466378 6730418
-9.185176 -9.686625 1.664626 6730418
-9.234397 -9.544106 0.827922 6730418
-9.462556 -10.103751 0.657335 6730418
-9.452695 -10.423190 2.605428 6730418
-10.788423 -9.996139 0.437298 6730418
-10.728949 -9.846266 1.926850 6730418
-9.053433 -9.695845 0.643230 6730418
-9.780434 -9.684249 1.565916 6730418
-10.368557 -10.478900 1.522045 6730418
-9.237012 -9.457203 1.086967 6730418
-10.219325 -9.192228 2.293983 6730418
-10.812488 -9.638114 0.965671 6730418
-9.210867 -9.682539 0.473612 6730418
-9.667274 -9.760802 3.000720 6730418
-10.791995 -10.208096 2.376183 6730418
-9.235238 -9.829441 0.023201 6730418
-10.057445 -9.188718 2.129695 6730418
-9.712785 -10.268611 2.762590 6730418
-10.234703 -10.819294 1.884217 6730418
-9.497049 -10.104817 1.067385 6730418
-10.223802 -10.308839 1.156497 6730418
-10.168464 -9.795658 2.560704 6730418
-10.931052 -9.947144 1.797987 6730418
-9.252217 -9.590258 1.924186 6730418
-9.237389 -9.499109 2.019084 6730418
-9.876030 -10.245717 2.665786 6730418
-10.775085 -10.504036 2.472874 6730418
-9.293799 -10.396438 1.768018 6730418
-10.398024 -9.715054 1.237262 6730418
-10.180814 -10.147065 2.928617 6730418
-9.575024 -9.302319 1.767263 6730418
-9.455918 -10.806440 1.430730 6730418
-9.773115 -10.333107 0.643558 6730418
-9.575091 -10.297822 1.381761 6730418
-9.338014 -10.100624 1.230135 6730418
-9.361217 -9.243234 0.278374 6730418
-10.183349 -10.669641 0.933105 6730418
-10.535412 -10.507237 1.476635 6730418
-10.439503 -10.500366 2.451077 6730418
-10.604031 -9.940155 0.887421 6730418
-9.611484 -10.918151 1.932547 6730418
-9.201287 -10.448368 1.849061 6730418
-10.450840 -9.749221 2.699134 6730418
-10.359111 -10.192994 0.433149 6730418
-9.761117 -10.678003 2.618183 6730418
-10.908748 -10.039669 2.551300 6730418
-9.542284 -9.125992 0.802242 6730418
-10.048761 -10.324036 0.637865 6730418
-10.278677 -9.869136 0.373343 6730418
-9.956043 -9.868599 0.685872 6730418
-9.386967 -10.546386 0.694846 6730418
-10.723017 -10.141766 2.581774 6730418
-9.456829 -9.224964 2.965614 6730418
-9.947967 -9.432366 2.252758 6730418
-10.803420 -9.504695 2.564933 6730418
-10.014198 -10.422144 2.566599 6730418
-10.531988 -10.527808 2.383399 6730418
-9.510974 -9.855000 2.255536 6730418
-10.778931 -10.441606 0.601767 6730418
-10.556477 -9.228470 0.255847 6730418
-9.711936 -9.226874 1.745831 6730418
-9.242991 -9.969186 0.978996 6730418
-10.154874 -10.410700 2.351685 6730418
-10.824535 -10.198019 1.668790 6730418
-10.014297 -9.424707 1.379024 6730418
-9.247547 -10.155770 1.258852 6730418
-9.771874 -10.521807 0.347699 6730418
-10.133250 -10.270404 1.567060 6730418
-10.846476 -10.035821 1.536734 6730418
-10.031040 -10.638401 0.136278 6730418
-10.719145 -9.789538 2.624539 6730418
-9.146039 -10.081801 2.667148 6730418
-9.827387 -10.308545 2.650920 6730418
-10.895038 -10.185445 2.620835 6730418
-10.509530 -9.177976 0.898446 6730418
-10.029286 -9.480191 2.421114 6730418
-9.439746 -10.480600 0.850296 6730418
-10.543543 -9.208088 2.263137 6730418
-10.090203 -10.225089 1.158209 6730418
-9.464951 -9.179441 2.030673 6730418
-9.363394 -9.644444 2.115368 6730418
-10.012081 -9.880092 2.356779 6730418
-10.277096 -9.287004 0.032207 6730418
-10.104977 -9.518876 1.607998 6730418
-10.734135 -10.591808 1.032512 6730418
-10.669746 -9.853391 1.909629 6730418
-9.082578 -9.948335 1.909357 6730418
-9.390782 -9.780869 1.221666 6730418
-9.839023 -9.148174 1.313528 6730418
-9.860409 -9.170753 0.061909 6730418
-9.063235 -9.952033 0.057243 6730418
-9.379535 -10.702371 0.545006 6730418
-10.623797 -9.852764 0.440204 6730418
-10.493130 -10.169630 2.522538 6730418
-9.678304 -10.275467 1.070877 6730418
-9.447906 -9.445018 0.591261 6730418
-9.463225 -10.809084 1.636356 6730418
-9.988521 -9.523881 0.252489 6730418
-10.712154 -9.997665 1.262562 6730418
-9.800274 -10.661994 0.630023 6730418
-9.180265 -9.566135 0.769739 6730418
-9.609924 -9.454253 2.173936 6730418
-9.841790 -10.913411 0.169017 6730418
-10.177622 -9.243332 2.434630 6730418
-10.418534 -9.475454 1.027976 6730418
-10.706738 -10.310644 1.953264 6730418
-10.888526 -10.384572 2.197261 6730418
-10.316735 -10.603170 1.110895 6730418
-10.098509 -10.730400 1.004064 6730418
-9.717751 -9.773095 1.495140 6730418
-10.570953 -10.290283 1.201391 6730418
-10.580955 -10.797464 2.153625 6730418
-10.903514 -10.200331 2.576684 6730418
-10.751216 -10.447281 2.206239 6730418
-10.042164 -9.398789 1.220852 6730418
-9.512768 -10.329608 0.550276 6730418
-10.165410 -10.686222 0.700346 6730418
-9.385015 -10.716686 0.087330 6730418
-9.489566 -9.457933 1.555691 6730418
-10.530844 -9.368847 1.555861 6730418
-10.528099 -10.554622 2.099950 6730418
-10.161998 -9.633353 2.040280 6730418
-10.756927 -9.607791 0.646630 6730418
-10.545828 -9.986364 2.857367 6730418
-10.881021 -9.905215 2.955011 6730418
-9.733135 -9.756640 1.127389 6730418
-10.924304 -9.670350 0.174600 6730418
-9.898987 -9.743840 2.569506 6730418
-9.475777 -9.262240 2.612314 6730418
-9.247989 -9.354256 0.277338 6730418
-9.906193 -9.683992 2.419065 6730418
-10.367691 -9.658029 0.363398 6730418
-10.826019 -9.974369 0.612131 6730418
-10.001365 -9.136779 1.652445 6730418
-9.769617 -9.028338 2.227429 6730418
-10.512586 -9.239660 1.225666 6730418
-10.083060 -10.031605 2.022962 6730418
-9.556265 -10.064154 0.150202 6730418
-9.380966 -9.240652 2.640853 6730418
-10.388731 -10.110740 1.009928 6730418
-10.234041 -10.241896 1.127699 6730418
-10.655065 -10.253246 0.543628 6730418
-10.473216 -10.212361 2.214519 6730418
-9.865056 -9.436364 2.240566 6730418
-9.281929 -9.372460 0.716752 6730418
-9.997746 -10.170767 1.445599 6730418
-10.375901 -9.643261 1.756241 6730418
-10.490714 -10.124911 2.477121 6730418
-9.793266 -10.397665 2.348237 6730418
-9.577756 -9.535605 2.969732 6730418
-10.698586 -9.969583 2.808645 6730418
-9.502149 -10.343402 2.301085 6730418
-10.020956 -10.038551 2.581577 6730418
-10.335070 -10.619299 1.196264 6730418
-10.062813 -9.945038 1.270281 6730418
-10.283061 -9.165402 1.317288 6730418
-9.592177 -10.172838 0.602795 6730418
-9.852773 -10.596766 0.185021 6730418
-9.789062 -10.250717 0.816668 6730418
-10.668963 -10.663271 2.895768 6730418
-9.583175 -9.353514 0.746253 6730418
-10.960220 -10.285425 1.375402 6730418
-10.317571 -9.922338 2.210442 6730418
-9.715749 -9.522903 0.928826 6730418
-9.787893 -9.172765 2.375752 6730418
-9.636408 -9.649203 1.374291 6730418
-9.238407 -9.664501 2.459482 6730418
-10.118676 -9.388148 2.600964 6730418
-10.548469 -9.709672 2.824780 6730418
-9.627439 -10.404097 2.170682 6730418
-9.477140 -10.744660 1.902099 6730418
-10.303391 -9.079373 1.840787 6730418
-10.329770 -10.374413 1.704835 6730418
-9.493215 -9.345050 1.230065 6730418
-9.896376 -10.223616 2.167783 6730418
-10.154255 -9.734200 1.833851 6730418
-10.833153 -10.262113 0.873480 6730418
-10.712940 -9.747855 0.665771 6730418
-9.344691 -9.344679 1.769233 6730418
-9.073820 -9.987244 0.086128 6730418
-10.711367 -9.499427 0.279576 6730418
-10.152046 -9.565313 1.722017 6730418
-10.445815 -9.526841 1.251151 6730418
-10.751733 -9.475615 1.113246 6730418
-10.282127 -10.043317 2.085927 6730418
-10.008391 -9.414599 2.766998 6730418
-10.783309 -9.587934 1.769277 6730418
-10.610867 -10.046434 1.099559 6730418
-10.874610 -9.730821 0.472492 6730418
-10.072392 -10.131201 0.981894 6730418
-9.407301 -9.660398 2.076384 6730418
-10.065547 -9.507971 2.769666 6730418
-10.647528 -9.417885 0.473132 6730418
-10.093375 -9.407896 0.884558 6730418
-10.727712 -10.243196 2.024878 6730418
-10.472400 -9.905164 0.636737 6730418
-9.337696 -10.516856 1.192546 6730418
-9.659866 -10.633662 1.761401 6730418
-9.971427 -10.369819 2.974793 6730418
-10.731855 -10.592566 0.376303 6730418
-10.055163 -10.042854 1.056240 6730418
-10.409285 -9.100416 0.768350 6730418
-10.091924 -10.504004 0.312782 6730418
-10.478877 -10.160894 1.733284 6730418
-9.248430 -9.389796 0.076883 6730418
-10.338936 -9.979174 0.752275 6730418
-10.465225 -9.495580 2.578341 6730418
-9.264315 -10.055277 2.899347 6730418
-10.510521 -9.803253 2.155053 6730418
-9.815378 -10.109864 0.964675 6730418
-10.303550 -10.577026 0.285427 6730418
-10.926939 -9.955014 1.616999 6730418
-9.197883 -9.840954 2.317315 6730418
-9.737893 -9.140425 0.251094 6730418
-10.570762 -10.019006 2.388325 6730418
-10.102700 -10.727139 1.969967 6730418
-10.913022 -9.782181 -0.015530 6730418
-10.682443 -9.875001 0.786310 6730418
-10.214542 -10.338696 2.539399 6730418
-10.431171 -10.627013 1.213556 6730418
-10.662465 -9.338380 2.645943 6730418
-9.203389 -10.608905 0.479320 6730418
-9.914884 -9.677127 2.494352 6730418
-9.118724 -9.935988 2.382383 6730418
-10.200598 -10.353419 1.041962 6730418
-9.333319 -9.819817 1.024969 6730418
-10.352348 -10.729321 2.793131 6730418
-9.678763 -10.243320 0.749778 6730418
-10.581871 -9.808347 2.090310 6730418
-9.942267 -10.972110 2.280494 6730418
-9.811353 -9.741347 2.202130 6730418
-10.180169 -9.245064 1.022924 6730418
-10.186528 -10.419949 1.657176 6730418
-9.575500 -9.917566 0.530340 6730418
-10.170026 -10.097636 2.325835 6730418
-9.276104 -10.684641 1.182411 6730418
-9.179497 -10.276199 0.630485 6730418
-9.586806 -9.872916 1.056290 6730418
-9.892274 -9.607802 2.573979 6730418
-10.459407 -9.762679 0.613917 6730418
-10.228456 -9.866521 0.479469 6730418
-10.456734 -10.687201 2.997194 6730418
-9.470637 -9.714757 2.460236 6730418
-9.116083 -10.279925 2.833449 6730418
-9.869365 -10.730974 0.823330 6730418
-9.894222 -10.754226 2.968742 6730418
-10.336683 -10.242062 0.980398 6730418
-10.488237 -10.395144 1.250619 6730418
-10.432802 -10.374112 1.817251 6730418
-10.526434 -10.762353 2.452525 6730418
-10.136063 -9.623672 2.138912 6730418
-10.000831 -9.536692 0.587070 6730418
-10.811087 -10.486754 1.140023 6730418
-9.025089 -10.088639 1.443128 6730418
-10.334342 -10.891247 0.080477 6730418
-9.790030 -9.556365 2.731568 6730418
-10.359034 -10.479321 2.443620 6730418
-9.923466 -10.705961 2.134990 6730418
-9.195230 -9.806111 0.925808 6730418
-9.359578 -10.771768 2.812764 6730418
-10.583687 -10.553252 0.074421 6730418
-9.959917 -9.889960 0.881006 6730418
-10.077866 -9.713083 2.000986 6730418
-9.721730 -9.899525 0.489879 6730418
-9.142245 -10.322531 0.512050 6730418
-9.823052 -10.347352 1.334083 6730418
-10.648200 -10.119828 1.395596 6730418
-9.061514 -9.870289 2.143489 6730418
-10.426335 -10.530530 0.687025 6730418
-10.127810 -9.721502 2.877086 6730418
-9.146051 -10.451904 0.043457 6730418
-10.985095 -9.877366 1.469443 6730418
-10.193477 -10.113317 2.174820 6730418
-10.381549 -10.292781 0.346900 6730418
-9.279264 -10.563709 1.036070 6730418
-10.101959 -10.102031 1.074733 6730418
-10.733558 -10.229085 2.502878 6730418
-9.807837 -10.471434 2.976217 6730418
-9.906988 -10.001434 1.294968 6730418
-9.743746 -10.810771 2.343539 6730418
-9.171798 -10.271034 1.530230 6730418
-10.481686 -9.557347 1.450064 6730418
-9.633589 -10.186399 2.676990 6730418
-10.599427 -9.394324 2.096448 6730418
-10.077710 -9.227762 1.612561 6730418
-10.416343 -9.817368 0.310098 6730418
-9.258197 -10.176643 2.860298 6730418
-10.753415 -10.093515 0.172019 6730418
-9.286216 -10.160765 2.821263 6730418
-10.087965 -10.848587 1.456461 6730418
-9.676646 -10.204492 1.112174 6730418
-10.881182 -10.001832 2.051987 6730418
-9.631173 -9.191992 2.520772 6730418
-10.572157 -9.245768 0.257630 6730418
-9.129159 -10.298579 2.779024 6730418
-10.172449 -10.648436 1.655578 6730418
-9.348282 -10.233609 0.432530 6730418
-10.381478 -10.302777 1.435307 6730418
-10.348429 -9.558697 2.595870 6730418
-10.857726 -9.535204 2.884048 6730418
-9.973585 -9.279205 0.833717 6730418
-9.280030 -9.474044 2.450192 6730418
-10.153610 -9.205113 2.742145 6730418
-10.789193 -9.725999 2.604397 6730418
-9.414824 -9.479335 0.291255 6730418
-9.316542 -9.515258 2.093575 6730418
-10.200336 -10.932736 0.395831 6730418
-9.088608 -10.339911 0.460002 6730418
-10.858590 -9.574135 1.398219 6730418
-9.950979 -10.101094 0.548599 6730418
-10.294324 -9.761225 1.598973 6730418
-10.694282 -9.722898 2.405554 6730418
-10.192749 -9.403953 1.677558 6730418
-9.493018 -10.117615 2.446664 6730418
-10.367709 -10.745995 2.940715 6730418
-10.068656 -10.455286 0.493007 6730418
-9.513967 -10.649367 2.272466 6730418
-9.528799 -10.710738 0.029292 6730418
-9.566825 -9.268652 1.195607 6730418
-9.420907 -9.485788 2.411370 6730418
-9.578949 -9.129944 0.153725 6730418
-10.232491 -10.229513 0.665672 6730418
-9.753649 -10.326202 0.049087 6730418
-10.324892 -9.264958 2.420250 6730418
-10.301787 -10.405076 0.148082 6730418
-9.471884 -10.757987 2.565706 6730418
-9.631634 -9.420204 0.470573 6730418
-9.106716 -10.018936 2.639859 6730418
-9.949424 -10.027178 2.814260 6730418
-10.489893 -10.485108 0.499890 6730418
-9.557613 -10.758927 1.826815 6730418
-10.732004 -10.405357 0.947625 6730418
-10.305821 -9.266589 1.191118 6730418
-10.547472 -10.027092 0.191680 6730418
-10.706288 -10.116738 0.736696 6730418
-9.868147 -10.841050 2.495058 6730418
-10.472349 -9.594558 2.846269 6730418
-10.745151 -10.433039 2.938031 6730418
-9.522860 -10.308756 1.707639 6730418
-10.392063 -9.927996 1.913060 6730418
-10.403185 -10.465111 0.937985 6730418
-10.307199 -9.767437 0.293673 6730418
-9.718569 -10.344082 0.123629 6730418
-10.691503 -10.029049 1.577574 6730418
-10.681502 -10.557595 0.192046 6730418
-10.273402 -10.180112 0.941911 6730418
-9.337231 -10.331597 1.267048 6730418
-9.447787 -9.222765 1.730011 6730418
-10.443841 -10.348055 0.929867 6730418
-10.238018 -9.937134 2.932839 6730418
-10.408919 -10.194993 2.223946 6730418
-10.346992 -10.730151 1.681852 6730418
-9.499384 -10.380471 1.119874 6730418
-9.531551 -10.041204 1.369081 6730418
-10.539289 -9.671548 0.129316 6730418
-9.616692 -10.128763 2.712112 6730418
-9.515427 -9.747396 1.218168 6730418
-9.857346 -10.555295 2.832210 6730418
-10.579337 -9.647992 1.484464 6730418
-9.989432 -10.580660 0.792086 6730418
-9.751999 -9.140330 1.458322 6730418
-10.766702 -10.006493 0.043058 6730418
-10.348860 -10.360806 2.411750 6730418
-9.934514 -9.549561 0.162080 6730418
-9.347282 -10.109740 1.450855 6730418
-9.102035 -10.244634 1.272848 6730418
-9.126591 -9.883397 -0.008931 6730418
-10.391655 -9.950926 0.628857 6730418
-10.263041 -9.300329 0.261076 6730418
-10.834899 -10.488713 0.912958 6730418
-10.934085 -10.355909 2.068210 6730418
-9.498505 -10.264597 0.755833 6730418
-9.959149 -10.834023 1.545554 6730418
-9.593611 -10.586355 1.716904 6730418
-10.716995 -9.483877 0.479910 6730418
-10.296687 -9.609246 2.520448 6730418
-9.889130 -10.722981 1.891782 6730418
-10.092757 -9.273997 1.809597 6730418
-10.269286 -9.283588 2.085219 6730418
-10.793825 -9.677728 1.074193 6730418
-9.612264 -9.756141 2.473496 6730418
-9.312727 -9.603976 1.115588 6730418
-10.966440 -10.276155 1.619363 6730418
-10.381024 -10.857229 1.454082 6730418
-10.729219 -9.675526 1.660432 6730418
-9.694788 -9.721631 0.626780 6730418
-9.497372 -10.624672 0.063243 6730418
-10.047724 -9.177787 2.920344 6730418
-10.706406 -10.158689 2.337841 6730418
-10.415431 -9.726968 1.139027 6730418
-10.971111 -9.690245 2.452955 6730418
-9.804782 -9.312050 0.631776 6730418
-10.877852 -10.310143 0.313998 6730418
-10.847280 -10.187035 2.164358 6730418
-10.322598 -10.732299 0.023232 6730418
-10.212974 -10.470486 1.680796 6730418
-9.447741 -10.364912 2.321496 6730418
-10.427258 -10.692788 2.055156 6730418
-10.425191 -10.834640 2.481530 6730418
-9.967670 -10.717115 1.430810 6730418
-9.592774 -10.261699 1.931282 6730418
-9.832628 -10.070566 2.341809 6730418
-10.271316 -9.634373 1.206102 6730418
-9.161788 -10.225721 1.241152 6730418
-9.922762 -10.955287 0.175193 6730418
-10.492648 -9.224344 2.408866 6730418
-10.383603 -10.699579 1.640478 6730418
-10.203424 -9.900638 2.924613 6730418
-9.263852 -10.028875 2.954504 6730418
-9.490365 -10.500662 1.879476 6730418
-10.834006 -10.102398 1.934169 6730418
-10.838271 -9.687823 2.956773 6730418
-10.333985 -9.348515 1.523837 6730418
-9.950665 -10.654685 1.010284 6730418
-10.604692 -10.330652 1.940208 6730418
-10.552830 -9.522723 1.277138 6730418
-10.598114 -9.797303 0.058673 6730418
-10.871704 -10.489372 0.957336 6730418
-10.219329 -9.021358 0.686061 6730418
-10.270471 -10.942951 2.440999 6730418
-10.394753 -9.415246 0.452186 6730418
-9.362493 -10.754860 0.828738 6730418
-9.640436 -10.211059 2.351704 6730418
-9.930296 -10.400242 1.782357 6730418
-10.723451 -10.507663 0.884966 6730418
-10.175016 -9.923609 0.526288 6730418
-10.613982 -10.214274 1.448908 6730418
-9.970881 -9.928827 1.865989 6730418
-10.443373 -9.319165 1.291066 6730418
-9.617993 -9.413538 1.776386 6730418
-10.447978 -10.333873 2.186859 6730418
-10.865958 -10.357500 0.487591 6730418
-10.286877 -10.012012 2.608495 6730418
-9.970418 -9.726624 0.339239 6730418
-10.416772 -9.436236 0.595173 6730418
-10.311105 -10.448823 1.125910 6730418
-9.657541 -9.813968 0.740277 6730418
-9.775116 -9.470094 2.893950 6730418
-9.405107 -10.780539 2.887506 6730418
-10.038254 -10.042263 2.810618 6730418
-9.706765 -10.886142 1.855007 6730418
-10.275719 -9.546102 0.488210 6730418
-9.170944 -10.518176 2.221883 6730418
-9.785690 -9.691182 1.037388 6730418
-10.381999 -10.618569 2.314298 6730418
-9.508934 -10.285781 1.275529 6730418
-9.418975 -9.937185 1.652945 6730418
-10.759934 -9.849415 0.589252 6730418
-10.596867 -9.344284 1.304291 6730418
-9.400698 -9.627172 0.836759 6730418
-10.135121 -9.209848 0.163270 6730418
-9.855129 -9.358629 0.672905 6730418
-9.358521 -10.311942 0.277630 6730418
-9.814583 -9.063331 0.670131 6730418
-10.044473 -10.779348 1.177277 6730418
-10.532379 -10.347069 2.750450 6730418
-10.100316 -9.560662 0.475910 6730418
-9.547425 -10.116362 1.810493 6730418
-10.745013 -9.918947 2.257005 6730418
-9.361681 -9.641052 1.641550 6730418
-9.868723 -10.380241 1.752801 6730418
-9.292151 -9.668366 2.680379 6730418
-9.222915 -9.553776 2.530102 6730418
-9.870728 -9.580739 2.273481 6730418
-9.914967 -10.121229 0.715489 6730418
-9.768959 -10.810468 1.057717 6730418
-9.513942 -9.628208 0.270553 6730418
-9.938092 -9.024605 1.696070 6730418
-10.392055 -9.451194 2.115909 6730418
-10.630827 -9.975408 2.300180 6730418
-10.185208 -10.170780 0.597216 6730418
-9.903254 -10.512279 2.111857 6730418
-9.422067 -10.093278 2.688022 6730418
-9.781680 -10.587088 0.641262 6730418
-10.327066 -10.724538 2.444365 6730418
-9.877380 -10.777946 1.128125 6730418
-9.818784 -10.777817 2.761370 6730418
-9.136546 -10.409068 0.618439 6730418
-9.646263 -9.397754 0.231847 6730418
-9.477665 -9.994220 1.554988 6730418
-10.540348 -9.644586 1.116145 6730418
-10.454807 -10.326610 1.016770 6730418
-9.551530 -9.251434 1.442875 6730418
-9.166037 -10.035313 0.721764 6730418
-10.980368 -9.900148 1.295878 6730418
-9.667580 -9.514832 1.852646 6730418
-9.897062 -10.044217 2.251259 6730418
-10.392143 -10.439215 2.224342 6730418
-9.125670 -10.096465 0.662041 6730418
-10.000971 -9.226469 1.102023 6730418
-9.940285 -9.964456 2.967630 6730418
-9.820959 -9.188393 1.090483 6730418
-9.244806 -10.347296 2.329412 6730418
-9.556039 -10.249688 1.738142 6730418
-10.172586 -10.500269 0.119071 6730418
-10.601644 -9.449494 0.158771 6730418
-10.303796 -10.024766 2.870639 6730418
-10.546900 -9.420766 0.389855 6730418
-10.432631 -10.459400 2.430233 6730418
-10.687955 -10.158941 1.680943 6730418
-9.130342 -10.290863 2.706548 6730418
-10.501234 -10.202285 2.876173 6730418
-10.511279 -9.509987 1.417699 6730418
-9.745562 -9.170364 2.977134 6730418
-10.771731 -10.436892 0.440922 6730418
-10.502216 -9.499645 2.963303 6730418
-10.634422 -9.265676 0.036223 6730418
-10.036177 -9.627612 0.029013 6730418
-10.330487 -10.678927 2.322562 6730418
-10.728357 -10.159218 2.896208 6730418
-9.801133 -9.612570 0.502935 6730418
-10.584528 -9.840859 0.463623 6730418
-9.383238 -10.697784 2.433922 6730418
-10.198527 -9.134509 1.573526 6730418
-9.922440 -9.046556 0.167733 6730418
-9.933887 -10.962039 0.416432 6730418
-10.034510 -9.399023 2.250367 6730418
-9.737123 -10.495417 0.333764 6730418
-10.045794 -10.582848 2.108769 6730418
-10.409720 -9.544517 2.988933 6730418
-10.412965 -10.217193 1.717745 6730418
-10.423771 -10.117513 1.981880 6730418
-10.079269 -9.761906 0.219343 6730418
-10.727001 -9.528379 2.915725 6730418
-10.127249 -10.717342 0.254073 6730418
-10.129455 -9.613352 2.915226 6730418
-10.388391 -9.469321 1.789583 6730418
-10.338082 -10.768044 2.722942 6730418
-9.777678 -10.866952 0.732229 6730418
-10.651090 -9.916090 1.455649 6730418
-9.842338 -9.832267 2.704665 6730418
-9.761802 -10.560066 0.078926 6730418
-9.609879 -10.819262 1.723841 6730418
-10.662352 -10.336251 2.419325 6730418
-10.035208 -9.846690 0.649048 6730418
-10.204844 -9.369020 0.955091 6730418
-9.053087 -10.042377 1.614807 6730418
-9.833778 -10.809900 2.557927 6730418
-9.524255 -9.689510 1.892474 6730418
-9.263699 -9.832341 2.606349 6730418
-10.728249 -10.099873 0.165907 6730418
-10.453267 -9.915986 0.093744 6730418
-9.331750 -10.305235 0.760214 6730418
-10.244493 -9.476203 0.404818 6730418
-9.737855 -10.226528 2.086459 6730418
-9.310929 -9.937704 0.276858 6730418
-10.657545 -10.157915 0.416275 6730418
-9.523730 -9.473444 2.827363 6730418
-10.097626 -10.081049 0.370375 6730418
-10.625220 -10.458708 1.947070 6730418
-9.713894 -9.092257 0.530983 6730418
-9.785349 -10.541867 0.614956 6730418
-10.331956 -10.388356 1.813712 6730418
-10.528337 -9.558099 1.218451 6730418
-9.637551 -10.746961 0.302407 6730418
-9.232073 -9.651234 1.173125 6730418
-9.954125 -10.199778 1.838765 6730418
-9.333831 -9.272007 0.594721 6730418
-10.183679 -9.219123 0.477206 6730418
-9.735080 -10.431409 1.814324 6730418
-10.623269 -9.770926 1.857093 6730418
-10.505157 -10.405037 0.509782 6730418
-9.471284 -9.521203 1.559480 6730418
-10.412416 -10.264777 2.298138 6730418
-10.046310 -10.174601 1.153402 6730418
-9.258922 -10.210737 1.588691 6730418
-10.255285 -10.609429 2.474270 6730418
-10.159278 -9.340733 0.042017 6730418
-9.774272 -10.818321 0.761827 6730418
-9.603526 -9.829000 2.472213 6730418
-9.570957 -9.786205 1.691064 6730418
-10.502755 -9.693600 1.915007 6730418
-9.850976 -10.466777 0.945269 6730418
-10.593966 -9.956607 2.819579 6730418
-9.157049 -10.398379 2.320136 6730418
-10.058282 -9.892943 1.354280 6730418
-10.480174 -9.627698 0.950213 6730418
-9.818347 -10.958296 2.876933 6730418
-10.341496 -10.437716 0.695952 6730418
-10.189505 -9.694909 2.763320 6730418
-10.671586 -10.384000 2.049400 6730418
-9.537190 -10.733408 1.328035 6730418
-9.268774 -10.650699 0.778883 6730418
-9.606324 -10.116111 2.816292 6730418
-9.751847 -10.190565 2.795095 6730418
-9.906341 -10.059559 1.886445 6730418
-9.645796 -10.028858 2.397438 6730418
-9.934613 -9.687623 1.165078 6730418
-9.544471 -9.306953 2.043108 6730418
-9.249473 -9.593740 1.231612 6730418
-9.286392 -10.664919 0.553071 6730418
-10.159772 -10.529207 0.061650 6730418
-10.952417 -10.214816 2.907046 6730418
-10.228726 -10.367740 1.125542 6730418
-10.285262 -9.965997 0.714671 6730418
-9.128691 -10.094911 2.923321 6730418
-9.830049 -10.208797 0.225968 6730418
-9.802765 -9.432384 0.595780 6730418
-9.610147 -9.215113 1.675193 6730418
-10.020210 -9.633560 2.449525 6730418
-10.084913 -10.864328 2.559254 6730418
