# .PCD v0.7 - Point Cloud Data file format
VERSION 0.7
FIELDS x y z rgb
SIZE 4 4 4 4
TYPE F F F U
COUNT 1 1 1 1
WIDTH 1283
HEIGHT 1
VIEWPOINT 0 0 0 1 0 0 0
POINTS 1283
DATA ascii
9.665849 10.858257 3.384579 11697996
9.541664 9.444188 2.244191 11697996
10.517758 9.578046 1.567196 11697996
10.994659 9.437607 1.960892 11697996
10.411770 10.002471 0.546424 11697996
9.789335 11.180698 2.401600 11697996
11.121520 8.893554 2.347790 11697996
10.998845 9.645110 2.555364 11697996
9.737835 10.890828 2.629878 11697996
9.157163 10.317508 0.891701 11697996
9.287098 8.853478 2.216511 11697996
11.065561 9.860314 3.022147 11697996
9.415505 10.899155 1.283321 11697996
10.273686 9.286835 1.483199 11697996
9.618662 10.453028 1.948857 11697996
9.694793 9.174182 2.273568 11697996
9.199251 9.089691 0.656778 11697996
10.526262 11.085657 3.438359 11697996
9.873137 9.802967 2.144784 11697996
10.142889 9.137145 3.334655 11697996
10.430074 10.108140 1.534963 11697996
9.239824 10.834882 1.184356 11697996
9.658097 10.202154 3.959664 11697996
9.787093 8.974450 3.527244 11697996
8.942136 9.487414 0.274571 11697996
10.638228 10.418340 0.129603 11697996
9.320609 10.479144 1.879406 11697996
10.519808 8.986833 2.456714 11697996
10.486756 10.329357 0.641873 11697996
9.933233 10.082054 3.679572 11697996
9.762312 9.738967 0.627975 11697996
11.211473 10.486089 2.816265 11697996
9.677671 10.610603 1.930162 11697996
9.148375 10.848860 3.809938 11697996
9.236647 11.046701 1.224093 11697996
11.111080 11.139569 3.832393 11697996
10.397826 10.192214 2.398650 11697996
9.909423 10.087757 3.635738 11697996
9.085364 9.113509 1.810906 11697996
9.539696 9.941994 3.243551 11697996
10.904550 9.289333 0.141813 11697996
11.051890 9.194658 0.687864 11697996
9.799618 11.112493 2.581003 11697996
10.995382 9.329257 1.471922 11697996
9.291118 9.897277 2.544812 11697996
11.204414 11.106005 0.885786 11697996
11.184221 10.623992 1.837060 11697996
10.358622 8.847475 3.722632 11697996
9.290043 9.733695 3.147600 11697996
10.330080 9.032579 0.873651 11697996
9.548108 9.458787 0.055994 11697996
10.083784 8.900908 3.160673 11697996
10.808153 10.396089 3.046906 11697996
8.753720 9.111440 3.493510 11697996
9.999219 9.560307 1.104945 11697996
10.337775 9.421117 2.355537 11697996
11.131939 9.612183 3.427025 11697996
9.896255 11.162518 3.230186 11697996
10.980792 10.543022 2.641059 11697996
10.673101 10.393682 0.623296 11697996
9.016159 9.100883 2.269773 11697996
10.196765 9.497508 3.775157 11697996
10.785239 10.727215 0.698372 11697996
11.247743 8.829397 0.953762 11697996
9.265521 9.570730 3.796395 11697996
11.254119 10.224242 1.595041 11697996
10.935704 9.400441 1.661958 11697996
11.009399 10.168059 2.426306 11697996
8.870040 10.794322 1.229353 11697996
9.621679 9.841083 0.342106 11697996
10.307410 8.990038 3.250294 11697996
9.558289 8.852984 1.241622 11697996
11.047275 9.087811 1.174582 11697996
10.335173 8.817846 0.415369 11697996
9.899277 9.667018 2.819570 11697996
10.828963 9.760541 3.964875 11697996
9.079352 9.289357 3.410471 11697996
10.012101 10.872033 0.738690 11697996
10.124412 8.778412 3.088439 11697996
10.841208 9.281202 3.645360 11697996
9.512672 9.769580 3.415227 11697996
9.491966 8.956218 3.427608 11697996
10.150239 9.217109 1.291201 11697996
10.583007 9.084583 1.794774 11697996
9.845114 10.906651 3.642648 11697996
11.070857 9.663898 3.515822 11697996
9.797112 10.912147 3.262267 11697996
10.063103 9.523473 0.523598 11697996
9.195447 9.300228 2.860704 11697996
10.448341 8.967352 3.155970 11697996
9.835910 9.579338 0.442032 11697996
8.797742 10.872441 3.288682 11697996
10.327915 9.626484 0.666843 11697996
10.482015 10.898411 1.657614 11697996
9.755523 10.724538 1.968000 11697996
9.261754 10.187938 2.050198 11697996
10.557834 10.671838 3.625752 11697996
10.099228 9.872703 3.151143 11697996
9.970593 9.637731 1.606401 11697996
9.323470 9.873089 3.429577 11697996
9.881709 11.130929 3.828597 11697996
8.987510 11.197416 0.983170 11697996
10.557074 10.094986 0.168726 11697996
10.516094 10.304652 1.758147 11697996
10.083599 9.096530 0.807126 11697996
9.399812 9.546219 2.568307 11697996
11.108301 10.944384 0.995043 11697996
10.660537 11.149864 1.044574 11697996
9.592903 10.420659 0.986670 11697996
8.838155 11.197577 1.630821 11697996
10.167480 10.078190 2.926887 11697996
8.952707 9.284932 1.982447 11697996
11.042213 9.007703 0.618100 11697996
9.823539 8.737777 0.767981 11697996
9.150958 10.408703 1.661452 11697996
10.836974 9.237030 0.566614 11697996
9.848157 9.616111 2.780114 11697996
9.769799 10.215770 0.259756 11697996
11.024887 10.454717 0.389075 11697996
9.509689 10.123411 1.533661 11697996
8.773886 11.124686 2.507992 11697996
10.319056 9.472338 0.545271 11697996
10.684510 8.869933 0.189662 11697996
11.231061 9.410090 2.638731 11697996
9.512437 10.713778 1.209554 11697996
10.218113 9.014211 0.995569 11697996
10.719525 10.858718 1.697670 11697996
9.508502 9.977333 2.374932 11697996
10.371566 9.149381 0.495877 11697996
10.598798 9.028070 2.438125 11697996
10.727965 10.160580 1.208910 11697996
9.365335 9.215752 1.765622 11697996
9.847606 10.266008 2.032973 11697996
9.179909 9.065434 1.658542 11697996
9.615030 8.953553 2.459044 11697996
9.502863 11.219926 1.569154 11697996
11.157606 9.634775 1.530983 11697996
9.662077 8.853868 0.398773 11697996
10.335777 10.640620 2.657033 11697996
10.998930 8.764846 2.027505 11697996
9.512551 9.040618 0.055916 11697996
9.969990 10.353216 2.670136 11697996
9.438721 9.634033 1.603121 11697996
9.418325 10.702558 2.875815 11697996
9.944795 9.792062 1.026582 11697996
9.135839 10.295878 2.883690 11697996
9.422976 10.673727 0.800691 11697996
10.093189 9.751987 3.930250 11697996
9.108725 10.618882 2.237311 11697996
8.809737 8.945916 1.139314 11697996
10.614009 9.221691 1.330547 11697996
10.078719 9.732233 2.243186 11697996
11.139887 10.358438 0.221351 11697996
11.096216 10.360595 3.529925 11697996
9.080847 10.215813 1.809220 11697996
9.875121 10.846340 3.222722 11697996
10.692193 10.692698 1.197437 11697996
11.200138 10.112401 1.943043 11697996
10.906064 11.201100 1.339777 11697996
10.733984 11.040152 3.816670 11697996
9.853216 10.260563 1.964628 11697996
11.249587 10.351913 0.439760 11697996
10.543456 10.062654 2.071146 11697996
10.107382 9.796881 3.667099 11697996
9.365359 10.694806 2.049078 11697996
9.573711 10.303355 2.711524 11697996
9.785603 9.659842 0.942245 11697996
9.111498 8.896383 3.362351 11697996
9.497058 8.939416 0.040532 11697996
10.743560 10.050194 2.288836 11697996
9.499617 9.146414 3.806360 11697996
9.959113 9.902713 2.138065 11697996
9.366863 10.510160 0.434277 11697996
9.676777 10.194352 2.071072 11697996
9.384882 11.098806 3.838850 11697996
9.888606 9.945327 2.256311 11697996
8.964738 10.296707 0.961784 11697996
9.615837 9.615483 2.332288 11697996
11.117949 10.488263 1.161491 11697996
10.886332 10.403962 1.608452 11697996
9.395106 9.376302 0.085025 11697996
9.902900 10.024978 1.252195 11697996
11.160876 9.850438 1.100616 11697996
9.794877 9.282135 -0.000881 11697996
9.038541 9.506704 1.818174 11697996
10.854091 9.428193 0.649479 11697996
9.641549 10.037144 1.484314 11697996
9.698275 10.821981 0.258313 11697996
11.188563 10.297971 3.989345 11697996
8.776922 9.715975 2.624189 11697996
10.002727 10.783555 3.164841 11697996
10.074121 9.996260 2.275017 11697996
11.148941 9.841141 2.121222 11697996
9.825882 10.192891 3.504114 11697996
8.929855 9.179541 2.368505 11697996
9.700830 10.389983 2.809651 11697996
10.522875 9.817622 3.806016 11697996
10.568100 9.591628 2.860687 11697996
9.009545 9.472161 2.918746 11697996
10.817082 11.234328 2.775279 11697996
11.205571 10.697000 0.460577 11697996
11.230771 8.751225 1.768727 11697996
9.818610 9.944344 2.498664 11697996
10.427406 8.899474 3.598892 11697996
10.673220 9.618371 1.681441 11697996
10.328474 8.927630 1.241529 11697996
9.734349 10.450125 3.831958 11697996
10.623301 10.486839 1.278497 11697996
10.147634 10.302795 3.645657 11697996
10.144328 9.194190 0.613363 11697996
9.833581 9.101956 1.052437 11697996
10.593828 10.635182 1.786402 11697996
9.964827 10.156949 0.469429 11697996
10.078030 10.423093 3.711608 11697996
10.213539 9.619900 1.541044 11697996
11.068965 9.479272 3.313792 11697996
9.760363 8.779497 3.524261 11697996
9.383940 9.804000 1.288494 11697996
8.939690 8.977468 3.408790 11697996
10.504064 10.528333 1.257631 11697996
10.230738 10.100055 0.193778 11697996
9.013056 10.447237 2.992927 11697996
10.730512 8.811548 1.105536 11697996
8.980236 9.047102 3.304840 11697996
9.738944 11.108339 2.907537 11697996
9.787882 10.925955 0.189781 11697996
11.029565 9.510571 2.025856 11697996
10.504426 10.120116 3.053659 11697996
9.247432 10.597496 2.770316 11697996
11.168257 10.933516 0.184327 11697996
10.087327 9.173394 1.899933 11697996
10.654766 10.274416 2.282018 11697996
11.221934 9.839614 3.111483 11697996
9.048195 10.065745 2.477286 11697996
10.915916 9.108609 1.226313 11697996
11.140386 10.808074 0.144442 11697996
10.419271 10.968577 3.263655 11697996
10.659350 10.816847 3.047094 11697996
9.466401 9.319468 1.089418 11697996
8.899597 9.905312 2.701553 11697996
10.006681 10.576494 3.696512 11697996
10.291960 10.463544 0.922351 11697996
10.299883 9.413315 2.784269 11697996
11.140989 10.994180 2.702155 11697996
9.564073 8.800302 1.129581 11697996
9.477426 9.582988 1.485684 11697996
10.150970 11.118821 2.577545 11697996
9.139526 9.237726 1.694303 11697996
9.381087 8.968269 2.935987 11697996
9.670197 9.730287 1.995153 11697996
10.722821 11.063458 3.644223 11697996
11.098591 10.397400 3.789536 11697996
10.949609 9.179939 0.021222 11697996
11.115635 10.426384 3.197328 11697996
8.985939 9.042788 1.239690 11697996
8.898281 10.260581 3.067320 11697996
8.999423 9.512647 0.953677 11697996
9.305232 9.582983 2.675212 11697996
10.046551 9.127389 3.150723 11697996
8.758393 8.934257 0.438314 11697996
10.127687 10.316805 1.271515 11697996
8.810940 10.270560 0.897591 11697996
9.486289 10.154356 0.413282 11697996
9.604655 9.887072 1.770033 11697996
9.298136 9.156700 1.355628 11697996
9.978507 9.018026 0.952605 11697996
9.383931 9.537821 0.372847 11697996
9.285397 9.608197 0.310154 11697996
9.537644 10.353333 1.885121 11697996
9.071169 9.828331 3.751831 11697996
9.476137 10.006809 0.512221 11697996
9.792778 10.384364 0.705277 11697996
10.816896 11.194301 1.675155 11697996
10.984528 10.231730 0.759511 11697996
9.340904 9.089437 2.493237 11697996
10.033740 9.431086 1.690489 11697996
9.508251 10.061377 2.809364 11697996
10.089298 10.560587 2.653935 11697996
10.934706 9.712669 2.183707 11697996
10.856642 9.566738 0.732341 11697996
9.459014 11.212104 3.646893 11697996
11.189027 10.308260 0.563424 11697996
10.947073 10.529202 3.547639 11697996
11.002447 10.089511 2.390125 11697996
9.417799 8.811545 1.784269 11697996
10.426940 11.069545 0.528857 11697996
9.690411 9.012250 2.019431 11697996
9.627501 9.559732 2.050519 11697996
10.297248 9.618847 1.266770 11697996
10.008295 10.520069 1.343749 11697996
10.369415 9.687614 3.552709 11697996
11.224067 8.870511 0.837211 11697996
10.164156 9.169399 2.824342 11697996
9.547771 9.266552 2.141595 11697996
8.767183 9.355757 0.364784 11697996
9.700153 9.487919 0.659477 11697996
9.017857 10.142185 1.904413 11697996
11.095278 10.244937 1.514897 11697996
9.381686 10.079988 0.687015 11697996
10.114511 8.787119 0.031169 11697996
9.973682 10.481030 3.015745 11697996
9.124683 9.227252 2.527112 11697996
9.321844 9.316168 0.494108 11697996
10.783502 11.162025 3.952877 11697996
9.212541 10.310984 1.544240 11697996
9.893209 9.488307 3.542197 11697996
8.772724 9.421674 2.255651 11697996
10.354215 9.664172 2.773089 11697996
9.743569 11.174006 3.817977 11697996
10.347136 10.575207 3.023077 11697996
10.563128 11.001307 3.957982 11697996
11.206107 9.088056 2.770749 11697996
9.831900 9.377567 2.485658 11697996
10.289215 10.715137 3.253043 11697996
9.507001 10.211314 3.505097 11697996
9.272641 9.937224 0.085056 11697996
10.235721 10.841165 1.679197 11697996
10.716043 10.253752 2.009650 11697996
10.938313 10.598593 1.042660 11697996
10.143390 8.884336 1.835048 11697996
10.001779 10.317477 1.235618 11697996
11.120265 9.634385 1.931149 11697996
10.463167 9.470867 3.627743 11697996
9.977248 10.089627 0.933197 11697996
10.871043 10.989742 1.217672 11697996
10.230055 9.806589 2.550757 11697996
9.729703 9.178483 3.320092 11697996
9.730651 10.902149 2.208401 11697996
9.469662 10.392263 0.884182 11697996
10.877789 10.655136 3.441786 11697996
9.250789 9.615698 2.363191 11697996
9.023354 10.752028 0.009420 11697996
9.407394 10.935575 1.937556 11697996
9.874452 8.847502 3.058473 11697996
8.819841 9.798623 2.021562 11697996
8.970207 10.606461 0.333237 11697996
8.804795 9.276202 1.243827 11697996
10.840449 9.390354 1.053328 11697996
10.884532 10.431446 3.023068 11697996
9.050584 10.885044 3.813783 11697996
10.910766 9.493806 2.976764 11697996
10.867147 8.773046 0.303023 11697996
8.993630 10.359817 1.045204 11697996
10.426186 8.840367 1.926139 11697996
9.369015 9.316846 0.056276 11697996
9.594006 9.932614 1.220420 11697996
10.719801 8.921951 1.084920 11697996
9.085546 10.538447 0.977926 11697996
10.538389 10.183897 0.399102 11697996
11.002061 9.305851 1.875379 11697996
9.059039 9.886275 1.992893 11697996
10.111186 11.109574 2.761980 11697996
8.840681 9.191203 0.650892 11697996
9.525128 10.829827 3.777617 11697996
9.252035 9.629977 2.236653 11697996
9.252553 10.438289 0.165036 11697996
10.699604 9.857728 2.479136 11697996
9.541329 8.845715 3.742722 11697996
10.913643 10.026309 1.480120 11697996
9.060551 10.354271 1.668490 11697996
9.325188 9.390745 2.045124 11697996
10.246384 8.841865 3.904728 11697996
10.039333 9.161535 3.288618 11697996
10.688149 10.080358 3.202991 11697996
11.227855 10.626447 3.790983 11697996
9.271132 9.283752 2.138204 11697996
9.529495 10.968531 3.280280 11697996
10.032935 9.328003 0.486931 11697996
9.514735 10.466804 2.376856 11697996
10.937168 8.871899 1.170488 11697996
9.661348 10.374311 1.556819 11697996
10.505718 10.427313 1.550065 11697996
9.894408 9.081339 2.539457 11697996
9.292866 10.535564 2.077116 11697996
9.228892 10.027919 0.662344 11697996
9.633140 10.446513 3.771310 11697996
10.299965 9.823699 3.610958 11697996
9.983486 9.307268 2.006705 11697996
10.620203 9.827057 0.431779 11697996
11.241447 10.589207 3.171892 11697996
10.706357 9.631881 3.264673 11697996
10.240901 10.381758 0.763872 11697996
9.606477 10.310852 2.655172 11697996
11.026068 11.139996 3.943495 11697996
11.121905 11.182364 1.998883 11697996
9.209740 9.031202 0.248738 11697996
9.750838 9.792432 3.593458 11697996
9.300445 11.087544 1.606085 11697996
8.896379 10.593610 0.416834 11697996
11.186192 10.990273 2.730000 11697996
8.841926 10.676286 1.598607 11697996
10.671407 9.444666 1.061201 11697996
10.824148 9.572488 3.146140 11697996
10.178193 10.240778 0.913225 11697996
9.097224 9.659369 2.354191 11697996
11.066545 9.131524 0.544347 11697996
9.401953 8.830456 2.183680 11697996
10.898967 10.851624 2.322745 11697996
10.438605 10.730213 3.778441 11697996
9.442503 10.951533 1.019004 11697996
9.276215 10.235278 3.505653 11697996
10.338092 9.450928 2.921316 11697996
10.595524 10.451827 3.620367 11697996
8.865970 11.110160 1.225875 11697996
9.540992 10.228991 1.116557 11697996
9.615743 10.028923 3.176401 11697996
10.690293 10.357216 3.185667 11697996
10.153184 9.552684 0.162131 11697996
9.078357 8.884418 0.052659 11697996
9.506827 10.261937 1.395119 11697996
10.640518 9.561166 3.553203 11697996
9.127653 11.184935 0.584746 11697996
9.563164 11.147150 0.483208 11697996
10.727455 8.847656 1.563140 11697996
10.420651 10.786832 2.141260 11697996
11.224792 10.953069 3.053529 11697996
11.125771 8.905784 2.577310 11697996
9.903660 10.786530 3.893377 11697996
9.472130 10.403507 3.932999 11697996
9.112052 9.176204 3.163320 11697996
9.156764 10.555257 3.439255 11697996
10.956848 11.022310 2.833112 11697996
9.589920 10.459033 2.067033 11697996
9.342430 9.993802 3.745693 11697996
10.953694 9.741506 3.803171 11697996
9.620112 9.060520 0.392339 11697996
9.076673 9.184695 0.573869 11697996
9.530921 9.051138 1.344586 11697996
9.712906 10.326507 3.291543 11697996
10.810843 9.325957 0.740860 11697996
9.071767 10.183670 2.005733 11697996
9.536217 10.534714 1.093595 11697996
10.107326 9.264419 2.751754 11697996
9.474847 10.193100 -0.018768 11697996
9.392693 9.177459 0.256869 11697996
10.820578 9.866237 1.488885 11697996
9.859093 10.773839 0.158140 11697996
8.999826 9.710495 0.875987 11697996
10.183823 9.442984 2.030284 11697996
10.891372 9.221624 1.050954 11697996
8.834360 10.265292 1.836771 11697996
8.833388 11.017386 3.579710 11697996
10.573495 9.105606 2.348842 11697996
9.318565 10.929578 1.821253 11697996
10.590216 9.898666 0.517173 11697996
9.472320 9.152798 3.722084 11697996
10.333449 10.288546 0.016075 11697996
10.713118 8.995183 3.712388 11697996
9.105662 11.098516 3.951526 11697996
10.248231 9.296605 1.945238 11697996
8.784996 8.986527 3.659890 11697996
10.297316 9.226979 2.682327 11697996
9.719454 9.998821 3.921147 11697996
8.759260 9.811140 1.499923 11697996
9.234326 10.489001 2.119937 11697996
9.646602 10.678859 2.773749 11697996
9.294385 9.849839 2.139379 11697996
8.783077 10.241395 3.215524 11697996
9.304579 10.961606 0.117466 11697996
8.799226 9.448546 2.479673 11697996
10.882271 9.793983 1.539562 11697996
10.228531 9.775162 1.766217 11697996
10.432796 10.043221 2.329713 11697996
10.171061 9.173143 2.950569 11697996
10.103701 10.329958 3.487808 11697996
9.166243 10.100386 1.018118 11697996
9.383075 8.846999 2.600877 11697996
11.247512 11.140379 1.206240 11697996
9.094075 10.192056 2.603532 11697996
9.660259 9.696932 2.752654 11697996
9.382972 9.747113 1.691326 11697996
9.382990 10.830247 3.578339 11697996
10.695681 8.857508 2.785557 11697996
10.169331 9.342622 1.595408 11697996
10.910158 10.699324 3.844552 11697996
9.123090 9.441796 3.367560 11697996
10.073779 9.645454 0.893847 11697996
9.236083 10.960070 0.420724 11697996
9.034142 11.044843 1.968217 11697996
10.940058 10.830442 1.329988 11697996
9.867727 9.255423 3.193475 11697996
10.375902 9.841257 1.360641 11697996
10.293673 9.869314 3.919291 11697996
9.455124 9.075209 3.574787 11697996
9.774076 10.453866 3.209370 11697996
9.010136 9.806020 2.812473 11697996
10.346918 10.994019 0.434579 11697996
10.124075 10.936646 3.015706 11697996
9.012879 9.467848 0.251686 11697996
8.757539 10.148950 0.969365 11697996
9.702256 10.635674 0.554870 11697996
10.363713 10.199153 3.290437 11697996
9.119804 10.239988 3.640795 11697996
11.216779 10.323318 2.518295 11697996
10.924476 10.024925 2.843947 11697996
10.186625 10.009973 0.136946 11697996
10.519524 9.445211 1.670401 11697996
9.060336 9.128672 0.482929 11697996
8.902103 10.890697 0.492047 11697996
9.103313 10.203725 2.230309 11697996
9.802999 10.613122 2.018432 11697996
10.895981 9.412936 3.377895 11697996
9.011406 10.740438 2.043161 11697996
8.842099 10.149499 2.755162 11697996
9.708029 10.046221 0.650303 11697996
10.764101 10.712447 0.466894 11697996
9.346933 10.092501 3.224449 11697996
8.747455 8.954012 1.702740 11697996
9.613522 9.710773 1.450519 11697996
9.603443 11.135334 2.526375 11697996
11.065055 9.833514 2.865569 11697996
9.464123 9.396035 2.572727 11697996
9.338221 9.615863 1.674142 11697996
10.536987 11.203516 0.384044 11697996
9.257005 8.906958 3.396197 11697996
10.566378 9.793109 2.327545 11697996
9.984930 10.648317 1.588104 11697996
9.804756 11.181794 2.190664 11697996
10.623136 11.016268 2.304158 11697996
9.745557 11.101027 3.420045 11697996
10.112211 8.958509 0.087783 11697996
9.772937 10.462977 1.623375 11697996
8.874478 9.757360 2.804253 11697996
10.111083 9.890976 2.376465 11697996
10.954128 9.936814 1.837423 11697996
10.116206 10.654839 1.078116 11697996
9.272977 8.991763 3.206420 11697996
9.609290 9.625808 0.816839 11697996
9.792366 10.173019 1.009172 11697996
10.016062 9.917278 2.429539 11697996
11.223090 10.533100 3.316022 11697996
9.626037 9.949190 1.887008 11697996
10.662835 8.836539 0.213457 11697996
11.127503 9.311916 0.024273 11697996
11.124964 9.338507 0.846820 11697996
9.744529 10.272546 1.568237 11697996
10.367847 8.973068 0.681961 11697996
11.152660 8.891318 2.770010 11697996
11.245921 9.393321 3.279231 11697996
11.109872 9.188043 2.116732 11697996
11.171673 10.745049 3.909731 11697996
10.538099 9.705333 2.558118 11697996
10.114632 10.146025 0.346005 11697996
10.808800 10.485730 1.360284 11697996
9.511060 8.825938 1.554126 11697996
9.313926 9.966646 3.422751 11697996
10.717367 10.524360 2.096311 11697996
10.876227 8.815759 2.301859 11697996
9.056292 8.871712 3.368748 11697996
10.198321 10.758924 0.403947 11697996
11.149011 10.914978 3.490721 11697996
10.627356 10.434103 3.027550 11697996
9.328609 10.003057 3.435360 11697996
10.401506 11.067755 0.738217 11697996
10.074755 9.399270 0.863821 11697996
10.550669 10.358851 1.698213 11697996
10.023016 10.165647 3.379713 11697996
9.635113 10.016333 2.747784 11697996
10.516155 9.139528 1.194761 11697996
9.955731 9.559053 1.756334 11697996
10.754520 10.230300 1.754939 11697996
10.672621 11.027296 0.906877 11697996
11.064663 9.849058 2.096586 11697996
10.496723 10.153999 1.528718 11697996
11.038889 9.278531 3.925112 11697996
9.152306 9.740201 2.558280 11697996
10.523047 10.298167 2.302561 11697996
9.559803 10.817321 1.719996 11697996
10.505776 9.487820 3.949643 11697996
10.293535 10.327136 1.586026 11697996
9.291493 9.758957 0.323868 11697996
9.027636 10.645105 2.509808 11697996
11.054729 10.996399 2.993214 11697996
9.279143 9.506165 0.121995 11697996
9.426161 10.502298 2.629206 11697996
9.250389 10.083676 0.002537 11697996
10.370344 9.613858 0.317112 11697996
9.889445 11.048963 1.102828 11697996
10.066375 9.892253 0.991008 11697996
9.977841 9.876745 1.775747 11697996
8.909176 9.048992 0.472779 11697996
10.206197 10.395272 3.619856 11697996
10.792443 10.478720 1.553952 11697996
9.290218 10.532874 3.027651 11697996
8.951883 9.338190 3.932622 11697996
9.308808 9.363059 3.756440 11697996
10.508622 10.332269 0.128898 11697996
11.200494 11.072290 2.781789 11697996
10.140083 10.411118 4.000167 11697996
9.043767 11.018787 2.457718 11697996
9.993916 10.614717 1.096779 11697996
10.707205 10.407379 1.007029 11697996
10.280148 9.904465 1.930662 11697996
9.281381 9.854171 3.106239 11697996
10.843816 9.996017 1.296981 11697996
11.253917 8.848561 0.156224 11697996
9.291275 9.557350 1.908830 11697996
9.448077 10.239518 3.917691 11697996
10.601707 10.965670 2.738549 11697996
9.777442 9.428289 2.235615 11697996
11.204252 10.704880 1.608450 11697996
9.075531 10.806439 0.266069 11697996
9.670713 9.682781 0.167670 11697996
9.721917 9.001147 2.260390 11697996
9.841881 11.058752 3.571691 11697996
10.654975 9.125090 3.458894 11697996
9.454308 10.157817 1.852212 11697996
9.667736 9.863552 3.414384 11697996
10.224164 9.557755 3.195898 11697996
10.902138 8.823509 0.590859 11697996
10.142823 9.777196 1.629521 11697996
9.430772 9.021557 3.399174 11697996
10.118850 10.819397 2.294459 11697996
10.120798 9.910095 3.396822 11697996
9.779183 9.077002 3.016177 11697996
11.155478 9.546771 1.212051 11697996
9.185015 9.637173 2.746883 11697996
9.149585 10.081266 1.836191 11697996
11.045877 10.262947 3.421895 11697996
9.066771 9.580902 0.181134 11697996
10.608515 9.826956 1.415707 11697996
11.004066 10.132528 0.059908 11697996
10.448338 10.192170 2.308035 11697996
10.397579 10.590165 2.570770 11697996
10.948816 9.785930 3.760982 11697996
9.442223 10.760265 3.131144 11697996
8.799667 9.777230 3.764010 11697996
10.414900 9.055262 0.437934 11697996
8.902883 9.577558 0.119817 11697996
10.958035 9.901276 1.918254 11697996
10.380810 10.320513 1.382810 11697996
9.001562 9.193618 1.522599 11697996
11.039404 8.958817 1.397199 11697996
9.233435 10.457591 1.181514 11697996
9.561769 11.027349 0.752918 11697996
10.628380 10.960422 2.837156 11697996
11.129394 10.730720 0.134071 11697996
9.171601 8.852014 0.248270 11697996
9.888632 10.013980 3.839580 11697996
10.438321 9.562047 2.658103 11697996
11.034055 10.848530 2.930246 11697996
9.963413 10.758857 0.110050 11697996
10.291642 9.043736 0.307515 11697996
10.392621 10.939198 0.966302 11697996
8.748958 9.470703 0.755039 11697996
9.335501 11.088179 1.250508 11697996
10.713919 8.980630 1.544125 11697996
9.994578 10.606541 0.412372 11697996
10.696476 9.835301 1.720629 11697996
10.235188 10.085772 3.928046 11697996
10.620549 9.430645 3.073682 11697996
10.142324 11.161639 0.323566 11697996
9.022354 9.904454 1.697129 11697996
9.558738 10.121495 3.822426 11697996
9.763526 10.773057 1.250770 11697996
11.075300 11.017076 0.429559 11697996
10.274996 9.164443 2.139658 11697996
8.747340 9.130738 1.821540 11697996
8.783854 9.215733 1.252797 11697996
8.839729 9.555781 2.101657 11697996
9.376047 10.822219 1.799075 11697996
8.992508 10.305337 2.087211 11697996
8.958582 10.642579 2.000258 11697996
9.160447 10.567636 0.331553 11697996
10.083018 11.182734 2.695947 11697996
9.291100 10.172037 3.488659 11697996
11.120510 10.549024 2.660214 11697996
10.699613 9.766818 0.697846 11697996
9.628832 9.013671 2.028384 11697996
10.373511 10.302861 3.011266 11697996
10.194889 9.197592 1.907948 11697996
11.227078 9.836858 1.987366 11697996
11.071147 9.224807 2.198718 11697996
9.948111 11.009017 1.775841 11697996
11.220804 9.504474 1.495808 11697996
9.978355 9.146586 1.399819 11697996
10.664015 10.579513 3.142292 11697996
11.113908 11.170566 3.766572 11697996
9.923028 9.180201 3.650306 11697996
11.198417 11.185152 0.618960 11697996
9.170389 9.252661 3.898782 11697996
10.813331 10.241754 2.565710 11697996
10.176847 10.164310 0.331039 11697996
9.840317 10.224273 0.636758 11697996
10.365130 8.738715 0.296005 11697996
10.449486 9.621759 2.673075 11697996
9.457129 9.140699 2.337095 11697996
8.787912 10.491068 3.919243 11697996
10.860448 10.103016 2.898473 11697996
10.572926 11.045143 3.465750 11697996
9.080329 9.732079 3.641665 11697996
8.816662 9.445123 0.878275 11697996
9.285161 10.824645 2.037725 11697996
10.208181 9.525001 2.915456 11697996
9.633246 9.839964 0.674489 11697996
11.067761 9.825020 2.131136 11697996
10.095658 10.297062 2.302600 11697996
10.777709 11.096662 1.879869 11697996
10.195470 9.651896 3.236022 11697996
8.820404 9.203058 0.249105 11697996
10.767406 9.784719 3.102332 11697996
11.179778 8.821863 0.989664 11697996
9.704432 10.477877 2.705848 11697996
10.930003 10.543545 1.853999 11697996
9.786046 10.821349 3.950896 11697996
10.675844 10.434985 0.139661 11697996
11.033528 9.004478 1.041308 11697996
10.202040 9.155659 0.981574 11697996
10.210310 11.159143 2.437781 11697996
9.514198 11.013840 0.768627 11697996
9.582055 10.611320 0.793768 11697996
9.049554 8.968512 1.424493 11697996
10.738806 9.797403 2.745503 11697996
10.445045 10.019641 2.166804 11697996
10.570561 8.857186 2.496618 11697996
9.032665 11.185168 1.088905 11697996
9.604085 10.163621 3.580043 11697996
9.665178 10.930699 2.908815 11697996
10.583633 9.160377 0.949214 11697996
8.827356 9.165858 1.168129 11697996
11.078429 10.672435 1.711876 11697996
8.947078 9.643706 3.313341 11697996
10.692443 9.093497 2.212239 11697996
10.664423 9.881881 3.848670 11697996
8.865692 9.404953 1.906142 11697996
9.991068 9.271954 1.351071 11697996
10.621608 9.899993 0.735018 11697996
9.561863 10.752566 3.137342 11697996
9.228145 9.568532 3.057618 11697996
10.177754 9.420725 2.897041 11697996
11.201803 9.840474 0.496346 11697996
10.857006 9.501133 0.459248 11697996
10.014684 11.160976 0.786676 11697996
9.605555 9.353718 0.586995 11697996
9.463040 9.608894 3.609474 11697996
9.740560 9.382075 3.481512 11697996
9.856569 9.996675 3.140437 11697996
9.235762 9.745768 2.431840 11697996
9.604172 9.356822 1.797199 11697996
8.777053 10.001072 0.776237 11697996
10.820107 10.559921 0.123325 11697996
8.892364 10.706628 0.369751 11697996
11.096474 11.202201 3.648546 11697996
10.442793 9.271028 1.218007 11697996
10.375320 8.860911 3.479033 11697996
11.195952 11.235067 3.772124 11697996
10.987292 9.781295 1.161798 11697996
11.048613 9.334322 2.879074 11697996
10.018538 10.902385 3.824752 11697996
9.995762 9.923552 2.958404 11697996
10.665988 11.032535 1.462460 11697996
9.915654 10.905035 0.935315 11697996
9.779037 9.640066 2.275110 11697996
10.787053 9.290532 3.256786 11697996
9.498498 9.694476 0.280844 11697996
10.502110 9.106420 2.403809 11697996
8.833239 9.325235 1.308989 11697996
10.548378 9.537158 3.659084 11697996
11.082239 9.075423 1.253465 11697996
10.317312 8.794174 1.678530 11697996
10.924941 10.728551 2.715370 11697996
9.614327 9.005762 1.308020 11697996
8.783166 9.668979 0.354583 11697996
8.844330 9.064153 3.166292 11697996
10.569618 10.727416 2.107893 11697996
10.467222 9.833473 1.359718 11697996
10.391945 8.998408 3.708977 11697996
10.348987 10.735853 2.383887 11697996
11.014802 8.819369 0.166665 11697996
9.014015 9.517471 2.684921 11697996
10.507399 9.723424 2.982751 11697996
10.766725 10.274771 3.110130 11697996
10.407053 8.982283 1.377738 11697996
10.106533 9.681652 2.016512 11697996
9.538027 11.044161 1.904083 11697996
9.771134 9.508910 1.382397 11697996
9.287127 10.520370 3.845100 11697996
10.890034 9.645389 0.677221 11697996
9.794615 10.565378 2.627999 11697996
8.835775 9.867160 1.557301 11697996
10.254320 10.305750 3.736459 11697996
8.777469 9.754656 1.685807 11697996
9.415543 10.195726 1.834202 11697996
9.442615 9.531557 0.063538 11697996
9.875786 10.181110 1.829219 11697996
9.448320 8.752617 2.152993 11697996
9.463962 10.107101 0.408389 11697996
9.311293 8.797570 3.948337 11697996
8.908507 10.380245 2.390239 11697996
9.640002 10.049850 1.687479 11697996
9.257321 9.866981 0.912225 11697996
10.737219 10.838841 1.406458 11697996
11.182323 9.857546 3.206517 11697996
10.501565 10.259105 1.249723 11697996
8.940042 10.597012 3.703798 11697996
10.532647 10.251122 2.691650 11697996
9.725791 9.292767 3.523169 11697996
10.965697 11.130435 0.945942 11697996
10.386209 10.657375 2.591637 11697996
10.148465 10.640659 1.200534 11697996
10.470972 9.421493 2.189276 11697996
9.902407 9.349797 0.058561 11697996
9.567757 10.678141 0.570071 11697996
10.343748 9.259396 0.232719 11697996
9.011120 10.759845 0.492481 11697996
10.389722 10.935858 2.012442 11697996
10.037864 9.083694 2.658736 11697996
10.202467 9.211029 3.782557 11697996
10.867659 9.848128 2.881405 11697996
10.358700 11.155345 1.102092 11697996
10.980142 9.062140 0.513559 11697996
11.126736 10.044061 1.429904 11697996
9.395956 10.223259 3.546212 11697996
9.046341 8.783063 1.241796 11697996
10.345981 10.561343 1.345003 11697996
8.933569 8.922991 3.270953 11697996
10.243258 9.188827 3.913213 11697996
9.066251 10.316113 2.604643 11697996
9.250273 9.840096 0.695095 11697996
9.831366 11.059883 3.307426 11697996
9.005041 10.308310 3.212952 11697996
8.797198 11.266498 2.905829 11697996
9.349480 10.319976 3.541151 11697996
11.151177 11.195117 0.490324 11697996
8.949724 9.262927 0.657857 11697996
10.267563 8.994152 3.666229 11697996
10.458285 11.065229 0.607663 11697996
8.757641 9.846494 3.642895 11697996
10.143888 10.373592 3.551482 11697996
9.560169 10.182947 1.115021 11697996
9.699244 8.798918 3.119554 11697996
10.014917 9.503041 3.118275 11697996
10.538951 9.835293 2.852336 11697996
9.349299 8.993982 1.064575 11697996
10.802516 11.093286 1.574426 11697996
9.944850 9.315081 3.093433 11697996
10.353901 9.412463 1.303903 11697996
10.389015 10.905538 3.344690 11697996
8.835818 9.671874 1.893640 11697996
9.253209 10.808230 3.025309 11697996
9.384026 10.790655 1.301378 11697996
9.314869 9.911312 2.369136 11697996
11.123528 9.028413 0.207932 11697996
10.119021 9.016745 1.852938 11697996
10.696135 9.889350 1.106560 11697996
10.334277 10.161301 0.609095 11697996
10.984838 9.657058 3.116667 11697996
8.896646 10.626080 1.614762 11697996
10.213904 9.640038 3.031812 11697996
9.055654 10.507991 3.414845 11697996
10.228930 10.487914 0.007561 11697996
9.066525 10.385153 2.138874 11697996
9.834208 10.475720 1.657760 11697996
10.076783 9.854197 1.485712 11697996
10.859599 9.913886 1.268986 11697996
9.493011 8.972940 1.821877 11697996
10.593151 9.216875 2.183408 11697996
11.213342 10.341018 3.101093 11697996
11.215050 9.399573 3.455746 11697996
9.974709 9.039787 1.584422 11697996
10.943521 9.803046 1.113301 11697996
11.206490 10.080640 0.420202 11697996
9.876897 8.780151 2.268302 11697996
10.045201 9.472019 2.309303 11697996
10.013583 10.724937 1.737342 11697996
9.929427 9.966112 2.862258 11697996
9.928855 10.698469 3.809509 11697996
10.711240 9.308572 2.466805 11697996
9.472600 8.940240 0.248665 11697996
9.342927 8.850500 0.502899 11697996
9.082287 10.593231 3.235670 11697996
8.937962 9.570683 3.331965 11697996
10.145062 10.979928 0.096648 11697996
8.758595 10.513475 3.771328 11697996
10.316396 8.824953 3.526455 11697996
9.299765 10.554634 1.838136 11697996
9.419557 10.891215 1.910913 11697996
8.959532 9.929830 0.206516 11697996
10.408559 9.474790 2.728957 11697996
10.500491 9.601487 3.277204 11697996
10.281417 9.743027 0.823156 11697996
9.243529 10.128760 0.240954 11697996
8.820859 10.329333 0.926275 11697996
10.462217 11.234717 3.591410 11697996
9.033641 8.936404 2.876083 11697996
9.528929 10.400250 3.723294 11697996
8.762138 10.054252 2.457999 11697996
10.780207 10.580171 3.414070 11697996
11.023870 11.223742 3.604194 11697996
10.469313 8.810371 0.941986 11697996
8.916262 10.297891 0.045555 11697996
9.076940 9.405683 0.742403 11697996
9.251333 8.953958 0.318732 11697996
9.597169 9.178620 0.240387 11697996
10.889297 10.311911 1.707720 11697996
9.854562 10.224238 3.612041 11697996
9.138714 9.800078 1.780841 11697996
9.918277 9.469922 1.230721 11697996
9.398824 9.194723 1.528610 11697996
10.120494 10.507019 3.089415 11697996
10.142655 9.919452 0.735118 11697996
11.026564 9.106483 1.665913 11697996
8.764928 10.497679 0.239123 11697996
10.438370 11.118179 2.011791 11697996
9.886939 9.535199 1.724653 11697996
11.231494 10.186732 0.792098 11697996
9.828058 9.169856 1.784929 11697996
9.790425 9.619906 2.928492 11697996
10.710849 9.467302 3.008194 11697996
10.566649 8.734662 2.915328 11697996
10.629854 10.568574 2.337937 11697996
9.372664 9.827291 3.231707 11697996
10.396528 10.703243 2.604578 11697996
10.364412 10.518236 2.545112 11697996
8.786628 8.862906 0.464019 11697996
10.178678 9.010948 2.602304 11697996
9.954614 10.305477 2.013160 11697996
9.814830 11.218508 2.467732 11697996
8.774887 9.439935 0.003335 11697996
10.617929 9.452022 0.361182 11697996
-9.785339 -10.476486 0.673095 6730418
-10.253202 -10.947449 1.080742 6730418
-10.581986 -9.856643 2.188609 6730418
-10.432015 -9.382821 0.318084 6730418
-9.625906 -9.557655 1.822012 6730418
-9.921890 -9.369349 2.403409 6730418
-9.972065 -10.283431 2.933542 6730418
-9.629596 -9.378837 0.196746 6730418
-9.593260 -9.691883 2.389161 6730418
-9.435305 -10.314745 0.294860 6730418
-10.733943 -9.726869 1.190024 6730418
-9.433487 -10.362829 1.965986 6730418
-9.636982 -10.855778 2.910392 6730418
-10.218277 -10.154775 1.416273 6730418
-9.502789 -10.135038 0.792997 6730418
-9.304038 -10.572155 1.747001 6730418
-10.473812 -9.780786 0.172495 6730418
-9.328620 -10.702979 1.786065 6730418
-9.549147 -10.789052 1.306497 6730418
-9.873240 -10.490402 1.594757 6730418
-9.393916 -10.551754 1.801563 6730418
-9.810965 -9.243944 1.242315 6730418
-9.838695 -8.995919 2.117780 6730418
-9.728804 -10.749394 0.108430 6730418
-10.278507 -10.056722 0.325823 6730418
-10.116453 -9.690489 0.850014 6730418
-10.280187 -10.511636 0.441408 6730418
-9.940431 -9.572298 0.895524 6730418
-10.383106 -10.455319 0.960325 6730418
-9.595813 -10.427464 2.082717 6730418
-10.216532 -10.619624 2.052494 6730418
-9.482077 -9.319898 2.828681 6730418
-9.966412 -10.865970 1.231034 6730418
-10.832793 -9.451986 1.750768 6730418
-9.591228 -9.410151 2.097095 6730418
-10.463545 -9.826076 0.339880 6730418
-9.900237 -9.767825 1.193539 6730418
-9.580359 -10.561611 1.037501 6730418
-9.783944 -10.727495 1.876066 6730418
-9.354555 -9.470032 1.126030 6730418
-9.133770 -10.296973 0.423864 6730418
-9.921090 -10.771664 0.213044 6730418
-10.016589 -9.146093 2.613637 6730418
-9.525846 -10.179816 2.709080 6730418
-9.910987 -9.401899 2.520084 6730418
-10.344801 -9.787266 1.847056 6730418
-9.817816 -10.360515 0.863918 6730418
-9.396037 -9.398048 1.212130 6730418
-10.574297 -10.483149 1.876174 6730418
-9.452657 -9.456829 2.328912 6730418
-10.830410 -10.295340 2.731259 6730418
-9.307096 -9.881249 2.699703 6730418
-10.589234 -10.041955 1.934089 6730418
-9.906276 -10.135314 1.167409 6730418
-10.358397 -10.496670 2.559089 6730418
-9.931878 -10.456305 0.739516 6730418
-9.814586 -9.839387 1.406608 6730418
-9.524393 -10.251290 2.593573 6730418
-9.791025 -9.310755 1.791595 6730418
-9.793018 -10.534073 2.900351 6730418
-10.284468 -10.216340 1.269416 6730418
-9.137035 -9.773856 1.243804 6730418
-9.386942 -9.991704 2.115305 6730418
-10.236518 -9.091928 2.094158 6730418
-9.310882 -9.717061 2.703312 6730418
-10.180401 -9.356167 1.049086 6730418
-9.701280 -9.624493 1.212419 6730418
-10.077916 -9.085756 1.172654 6730418
-9.790337 -9.908362 0.917163 6730418
-10.555233 -10.598186 0.650879 6730418
-9.190146 -10.602274 0.743400 6730418
-10.058007 -10.904829 1.789896 6730418
-10.001695 -9.579236 2.842509 6730418
-9.669955 -10.117284 0.352654 6730418
-9.991536 -10.066423 1.528337 6730418
-9.487041 -9.333552 1.893894 6730418
-9.167814 -9.555619 1.134097 6730418
-10.036533 -9.155239 0.101136 6730418
-9.614098 -9.919427 0.732952 6730418
-9.773356 -9.897447 2.297940 6730418
-9.386622 -10.718433 1.976244 6730418
-10.468844 -9.441429 1.207595 6730418
-10.371881 -9.669437 2.665331 6730418
-9.155408 -9.920565 2.769155 6730418
-9.432323 -10.376302 0.124829 6730418
-10.207168 -9.477036 1.622458 6730418
-10.750703 -9.845320 1.455905 6730418
-10.142748 -9.827436 2.198914 6730418
-10.482483 -9.459620 1.220323 6730418
-10.009312 -9.377361 0.606581 6730418
-10.833319 -10.214292 2.653999 6730418
-9.917197 -9.717727 2.339017 6730418
-10.813747 -9.850399 1.506413 6730418
-10.700127 -9.713360 0.831416 6730418
-9.679479 -10.507610 2.740823 6730418
-10.692437 -10.605854 1.417645 6730418
-10.056073 -10.346987 1.546752 6730418
-9.734569 -10.952584 0.375997 6730418
-10.032337 -10.349842 1.127153 6730418
-9.419374 -10.283204 1.120126 6730418
-9.629324 -10.216769 2.159642 6730418
-9.087029 -9.856317 0.353966 6730418
-10.617987 -10.151624 0.441312 6730418
-9.502221 -10.494951 1.536398 6730418
-9.800369 -10.388185 1.974694 6730418
-9.975912 -10.254422 2.783713 6730418
-10.022854 -10.237360 2.406639 6730418
-9.443373 -9.569746 0.750965 6730418
-9.466809 -9.899300 2.676102 6730418
-9.698110 -10.510058 2.088557 6730418
-9.395812 -10.223975 0.573887 6730418
-9.041728 -10.290072 1.058580 6730418
-9.756066 -9.101574 0.952203 6730418
-9.221747 -10.475029 2.472602 6730418
-9.693491 -9.746217 2.760740 6730418
-9.117198 -10.302295 0.117732 6730418
-9.603865 -10.384476 0.991259 6730418
-10.404126 -10.470687 2.310270 6730418
-9.630936 -9.122628 1.868919 6730418
-9.294902 -10.126901 1.539593 6730418
-9.141939 -9.586430 1.735323 6730418
-9.329823 -9.554685 2.228500 6730418
-10.353593 -10.639132 0.675205 6730418
-9.237745 -10.374387 1.008755 6730418
-9.225215 -9.469058 0.346925 6730418
-9.264194 -10.034489 1.383286 6730418
-9.152900 -10.204261 1.844291 6730418
-10.366449 -9.309970 0.747578 6730418
-10.910265 -10.105743 2.202831 6730418
-9.888708 -9.382291 2.663854 6730418
-10.822010 -9.502043 1.618128 6730418
-9.214196 -10.206923 2.019711 6730418
-9.494740 -10.841402 2.822453 6730418
-9.441246 -10.477505 2.791069 6730418
-10.511285 -10.382195 2.112782 6730418
-9.989358 -10.543034 1.572230 6730418
-9.572894 -9.183018 2.694806 6730418
-9.965761 -10.508215 2.548044 6730418
-10.911068 -10.245876 1.740127 6730418
-10.280996 -9.522109 1.471095 6730418
-9.623260 -10.651382 2.421835 6730418
-9.425593 -9.919848 1.823563 6730418
-9.901033 -10.243148 0.065483 6730418
-10.605569 -10.346901 0.233095 6730418
-9.206123 -10.010344 0.061699 6730418
-10.795453 -10.305434 0.312625 6730418
-9.471339 -9.756504 1.823099 6730418
-10.507747 -9.816910 0.941667 6730418
-9.510009 -10.053020 1.481537 6730418
-9.903547 -10.294146 0.928701 6730418
-9.800899 -10.927938 0.115261 6730418
-10.018831 -9.543381 2.250361 6730418
-9.741241 -10.098553 2.026131 6730418
-9.123679 -10.446453 2.765867 6730418
-10.193279 -9.940586 2.001267 6730418
-10.384129 -9.949799 2.498084 6730418
-9.671875 -10.184702 2.508703 6730418
-10.159736 -9.958282 2.557694 6730418
-9.231610 -10.419763 1.154856 6730418
-10.338158 -10.707594 2.814923 6730418
-10.047560 -9.593372 2.832763 6730418
-9.253429 -10.638876 0.797073 6730418
-10.221825 -9.435048 1.232871 6730418
-10.020224 -9.256018 1.020575 6730418
-10.311910 -9.197730 2.715586 6730418
-9.375659 -10.539542 0.674404 6730418
-10.800661 -10.019688 0.945044 6730418
-9.926236 -10.648755 0.086228 6730418
-9.341107 -9.947354 1.818660 6730418
-9.402086 -9.256166 1.577949 6730418
-10.896810 -9.573437 0.622241 6730418
-9.503563 -9.877910 1.149347 6730418
-10.168977 -9.975848 1.351253 6730418
-10.046715 -9.900594 1.571850 6730418
-10.224019 -10.115623 2.171622 6730418
-9.620816 -9.403094 1.102505 6730418
-10.444814 -9.730760 0.874958 6730418
-10.314488 -9.403537 1.678471 6730418
-10.405877 -10.512213 2.922591 6730418
-10.264246 -10.956900 2.885541 6730418
-9.968401 -10.860736 2.313941 6730418
-9.922413 -9.532733 1.230315 6730418
-9.860609 -9.863072 2.553617 6730418
-9.535959 -9.391770 1.164655 6730418
-10.517414 -10.269797 1.039744 6730418
-9.802988 -9.958867 1.097985 6730418
-9.829540 -10.308121 2.097471 6730418
-9.653713 -9.571799 2.327977 6730418
-9.615871 -10.624269 2.321352 6730418
-9.819831 -9.184731 2.033705 6730418
-10.493284 -10.356239 0.606201 6730418
-10.011955 -10.973391 1.993341 6730418
-9.248318 -10.122251 0.078568 6730418
-10.428437 -9.500793 2.961074 6730418
-9.227638 -9.442486 2.293133 6730418
-10.131771 -9.189439 0.156696 6730418
-9.875463 -9.172161 2.211200 6730418
-9.035525 -9.830147 1.466776 6730418
-10.209335 -10.493212 0.437251 6730418
-9.703305 -9.083927 1.452438 6730418
-9.206794 -9.722427 1.666503 6730418
-9.285336 -9.563542 0.835962 6730418
-9.458582 -10.114246 0.672960 6730418
-9.442591 -10.390483 2.575992 6730418
-10.801543 -10.006557 0.446298 6730418
-10.720397 -9.860406 1.906635 6730418
-9.055281 -9.698128 0.682881 6730418
-9.765039 -9.707196 1.568878 6730418
-10.358579 -10.451123 1.534667 6730418
-9.227142 -9.476371 1.086454 6730418
-10.270932 -9.203953 2.271608 6730418
-10.796240 -9.631870 0.979352 6730418
-9.238667 -9.672876 0.435916 6730418
-9.669152 -9.745324 2.996426 6730418
-10.784692 -10.232282 2.403247 6730418
-9.266514 -9.820619 0.082994 6730418
-10.020364 -9.195230 2.146536 6730418
-9.748631 -10.256967 2.741706 6730418
-10.202097 -10.832343 1.909762 6730418
-9.484386 -10.088695 1.067855 6730418
-10.200346 -10.292862 1.211441 6730418
-10.136908 -9.800244 2.578988 6730418
-10.897707 -9.959652 1.764040 6730418
-9.214397 -9.591766 1.963528 6730418
-9.219459 -9.487141 2.022621 6730418
-9.883877 -10.251626 2.649290 6730418
-10.798820 -10.484600 2.461580 6730418
-9.305977 -10.386683 1.757257 6730418
-10.405910 -9.682954 1.220347 6730418
-10.198104 -10.158481 2.927233 6730418
-9.620866 -9.330528 1.757205 6730418
-9.469148 -10.810969 1.410756 6730418
-9.765876 -10.368624 0.615672 6730418
-9.561623 -10.331396 1.372426 6730418
-9.342730 -10.127147 1.226082 6730418
-9.363202 -9.265883 0.290684 6730418
-10.218159 -10.672014 0.932774 6730418
-10.522292 -10.510417 1.463398 6730418
-10.464163 -10.507891 2.444298 6730418
-10.600779 -9.965436 0.905298 6730418
-9.599076 -10.918495 1.933234 6730418
-9.243288 -10.467583 1.869604 6730418
-10.461553 -9.741358 2.695010 6730418
-10.350746 -10.227880 0.467868 6730418
-9.779111 -10.679725 2.629745 6730418
-10.876575 -10.044147 2.557510 6730418
-9.532923 -9.142830 0.815558 6730418
-10.035455 -10.339816 0.658609 6730418
-10.281937 -9.887338 0.366502 6730418
-9.948549 -9.873404 0.724864 6730418
-9.368299 -10.580139 0.707033 6730418
-10.726397 -10.158994 2.590404 6730418
-9.442817 -9.228024 2.960167 6730418
-9.959309 -9.443280 2.250363 6730418
-10.847517 -9.479895 2.563394 6730418
-10.020808 -10.446946 2.555337 6730418
-10.562427 -10.505363 2.381511 6730418
-9.525566 -9.844625 2.238213 6730418
-10.783899 -10.437716 0.614572 6730418
-10.567366 -9.234245 0.279597 6730418
-9.669747 -9.207586 1.735154 6730418
-9.251292 -9.998696 0.983012 6730418
-10.143189 -10.398590 2.360633 6730418
-10.810634 -10.172817 1.664026 6730418
-9.968837 -9.442216 1.351829 6730418
-9.249144 -10.152698 1.256488 6730418
-9.755961 -10.564761 0.333448 6730418
-10.096987 -10.273866 1.573636 6730418
-10.816793 -10.034142 1.551023 6730418
-10.018734 -10.602602 0.143728 6730418
-10.705439 -9.798063 2.613824 6730418
-9.145597 -10.084647 2.643953 6730418
-9.820755 -10.336459 2.646612 6730418
-10.926552 -10.212362 2.620837 6730418
-10.527005 -9.201165 0.926070 6730418
-10.000627 -9.525779 2.456222 6730418
-9.446580 -10.473837 0.863321 6730418
-10.591134 -9.181899 2.239869 6730418
-10.081804 -10.219401 1.169147 6730418
-9.480756 -9.173437 2.018439 6730418
-9.390359 -9.616805 2.135951 6730418
-10.003403 -9.895745 2.351877 6730418
-10.264983 -9.271867 0.005923 6730418
-10.118785 -9.515080 1.566193 6730418
-10.699128 -10.545305 1.040961 6730418
-10.660316 -9.872545 1.940731 6730418
-9.096606 -9.948338 1.894181 6730418
-9.373691 -9.821555 1.205268 6730418
-9.812853 -9.190593 1.342736 6730418
-9.835894 -9.174973 0.072447 6730418
-9.030839 -9.971745 0.064461 6730418
-9.393213 -10.696503 0.523644 6730418
-10.663706 -9.860239 0.448391 6730418
-10.496434 -10.225976 2.528032 6730418
-9.669429 -10.283337 1.096546 6730418
-9.485747 -9.461996 0.595501 6730418
-9.488708 -10.754236 1.620313 6730418
-9.975201 -9.556017 0.226557 6730418
-10.683775 -9.989626 1.248076 6730418
-9.843463 -10.643819 0.648156 6730418
-9.218007 -9.558218 0.779485 6730418
-9.589111 -9.446414 2.158877 6730418
-9.829431 -10.915533 0.183812 6730418
-10.156399 -9.230012 2.424713 6730418
-10.378749 -9.515027 1.060891 6730418
-10.729917 -10.294831 1.967590 6730418
-10.891559 -10.409008 2.219721 6730418
-10.321572 -10.557039 1.105842 6730418
-10.116630 -10.705324 1.022591 6730418
-9.718582 -9.756233 1.478850 6730418
-10.559137 -10.320909 1.178952 6730418
-10.582285 -10.787974 2.152992 6730418
-10.910525 -10.221142 2.586460 6730418
-10.751224 -10.466865 2.211585 6730418
-10.094738 -9.387824 1.200992 6730418
-9.495635 -10.315732 0.513349 6730418
-10.150133 -10.678722 0.686552 6730418
-9.389112 -10.741284 0.108996 6730418
-9.471770 -9.468335 1.593578 6730418
-10.560681 -9.338360 1.565983 6730418
-10.520770 -10.544271 2.097918 6730418
-10.140578 -9.671138 2.033762 6730418
-10.784168 -9.608097 0.651609 6730418
-10.539679 -9.983410 2.855024 6730418
-10.863860 -9.904227 2.926701 6730418
-9.718872 -9.750195 1.145865 6730418
-10.901750 -9.691408 0.193770 6730418
-9.901575 -9.750420 2.560956 6730418
-9.479800 -9.263375 2.623357 6730418
-9.265049 -9.353337 0.284169 6730418
-9.886585 -9.697873 2.388567 6730418
-10.419291 -9.671082 0.332407 6730418
-10.819502 -9.968131 0.605381 6730418
-9.984732 -9.155722 1.667188 6730418
-9.754025 -9.069663 2.254082 6730418
-10.458920 -9.230004 1.232669 6730418
-10.109152 -10.049741 1.978508 6730418
-9.570291 -10.072548 0.147446 6730418
-9.368445 -9.243019 2.638870 6730418
-10.390849 -10.096524 1.013120 6730418
-10.213380 -10.215676 1.100634 6730418
-10.641737 -10.248432 0.564701 6730418
-10.476891 -10.176081 2.198542 6730418
-9.874580 -9.438025 2.259502 6730418
-9.252482 -9.363958 0.674529 6730418
-9.990961 -10.191532 1.470997 6730418
-10.357281 -9.650470 1.728783 6730418
-10.478472 -10.144106 2.492277 6730418
-9.795661 -10.372190 2.347908 6730418
-9.589666 -9.520657 2.975036 6730418
-10.673201 -9.978509 2.805553 6730418
-9.514441 -10.317981 2.324203 6730418
-9.974228 -10.037050 2.618651 6730418
-10.321917 -10.611197 1.172988 6730418
-10.087960 -9.928749 1.277821 6730418
-10.318432 -9.163822 1.332928 6730418
-9.591157 -10.207043 0.617370 6730418
-9.840288 -10.634560 0.180515 6730418
-9.768414 -10.254011 0.806291 6730418
-10.682646 -10.650149 2.912179 6730418
-9.626233 -9.394996 0.743397 6730418
-10.932667 -10.289657 1.355036 6730418
-10.342405 -9.897031 2.214397 6730418
