# .PCD v0.7 - Point Cloud Data file format
VERSION 0.7
FIELDS x y z rgb
SIZE 4 4 4 4
TYPE F F F U
COUNT 1 1 1 1
WIDTH 1291
HEIGHT 1
VIEWPOINT 0 0 0 1 0 0 0
POINTS 1291
DATA ascii
28.563854 -5.266502 0.663395 5033036
28.300842 -5.179912 1.258154 5033036
28.055426 -5.482068 0.256044 5033036
28.643206 -5.262235 0.437592 5033036
10.402955 10.880636 0.599029 11697996
9.385597 10.491901 0.550562 11697996
10.341949 9.878433 3.168917 11697996
9.889006 10.774241 3.835555 11697996
10.727941 9.944395 0.377000 11697996
8.957727 8.820594 3.302617 11697996
10.570704 10.785608 3.395705 11697996
11.154748 9.775593 1.803346 11697996
10.382381 9.936273 0.683658 11697996
10.959845 11.000493 3.437270 11697996
10.826686 10.982906 3.310563 11697996
11.076339 9.836136 1.129319 11697996
10.627840 10.350660 0.233625 11697996
10.022449 9.098302 1.525539 11697996
8.877604 9.906396 0.250492 11697996
10.227073 10.585109 2.938527 11697996
9.107848 9.877614 1.599672 11697996
10.210644 9.760299 0.600704 11697996
8.815841 8.793253 3.757814 11697996
9.174306 11.150540 3.829665 11697996
9.327219 10.338289 0.995997 11697996
9.264215 9.034482 3.748852 11697996
10.760641 9.256289 2.974701 11697996
10.125082 10.292911 3.334179 11697996
9.024720 10.036951 3.525502 11697996
9.328986 10.755043 1.496955 11697996
10.982129 10.798610 1.917716 11697996
10.244631 9.794086 1.777570 11697996
9.372309 11.128962 3.209343 11697996
8.945499 10.110918 3.938862 11697996
8.823522 10.317625 1.473207 11697996
9.412304 8.783168 0.192230 11697996
9.290222 10.120838 2.613261 11697996
10.720383 9.798028 0.768618 11697996
10.145527 10.787325 0.156747 11697996
9.459594 10.813291 2.768072 11697996
10.123444 9.788829 1.874139 11697996
9.678854 11.183733 3.669900 11697996
9.949761 8.813593 1.733209 11697996
9.281083 9.864742 3.378056 11697996
10.348725 9.654850 2.827223 11697996
10.566250 10.542513 1.493052 11697996
10.718259 8.824447 1.176782 11697996
10.174520 9.692918 2.987600 11697996
9.646342 9.785489 0.857694 11697996
10.777669 10.260717 1.566715 11697996
10.951531 10.382769 2.821755 11697996
10.461305 10.947250 0.936121 11697996
10.551741 11.228072 3.415466 11697996
9.840341 9.867072 2.136710 11697996
8.910495 10.315165 3.496382 11697996
9.599845 9.876361 1.610623 11697996
9.525988 9.265623 3.741855 11697996
10.908116 9.285289 3.573579 11697996
11.204660 9.465842 0.826725 11697996
9.997101 10.223190 2.901699 11697996
10.940480 10.301526 1.078590 11697996
9.734223 10.207411 2.159374 11697996
11.030061 10.400226 2.890385 11697996
9.068233 10.940067 -0.005728 11697996
9.128285 8.769730 3.470113 11697996
10.341150 9.727151 3.902387 11697996
9.188988 9.751497 1.177643 11697996
10.767035 10.889575 1.407247 11697996
10.914786 10.352451 3.582401 11697996
10.524042 9.604930 2.862934 11697996
9.150421 9.056153 1.421639 11697996
10.787948 10.053677 2.576248 11697996
10.673681 10.297837 1.660808 11697996
9.713098 11.025993 0.962116 11697996
9.444347 9.694258 3.331555 11697996
11.068090 9.627329 2.011218 11697996
8.849154 8.811738 3.049077 11697996
10.810391 9.946495 1.372083 11697996
9.064963 11.089558 2.116267 11697996
9.829422 9.904669 1.161000 11697996
9.068631 9.394753 0.610608 11697996
10.297539 10.468795 3.043787 11697996
8.923470 10.847616 1.506397 11697996
10.614447 9.439609 0.314118 11697996
9.537268 11.091131 0.956292 11697996
8.775544 10.347819 3.875187 11697996
11.160391 10.367850 2.888053 11697996
10.536508 10.509970 0.048623 11697996
10.371130 10.901244 1.806190 11697996
8.996361 11.069430 0.570917 11697996
9.491721 9.271456 0.237112 11697996
11.059450 9.385311 0.192690 11697996
9.044067 9.603050 1.792297 11697996
9.391943 9.216805 0.011478 11697996
9.724801 10.237337 2.363640 11697996
9.110697 10.048863 3.961846 11697996
9.312160 9.192431 3.974347 11697996
10.474110 11.078656 1.864352 11697996
10.433514 10.518367 2.916612 11697996
10.671227 10.999798 3.167324 11697996
9.584112 11.056997 0.522893 11697996
9.781140 9.542091 0.597359 11697996
11.046971 9.828427 1.301088 11697996
8.817576 9.790163 0.316769 11697996
10.329117 9.026964 2.370534 11697996
9.230764 11.103095 2.077304 11697996
10.710369 10.995538 1.140694 11697996
10.773033 9.825185 2.784334 11697996
10.099170 10.707990 1.654393 11697996
9.604149 11.237373 2.125818 11697996
10.488584 9.824997 0.556387 11697996
9.650098 11.042056 0.433292 11697996
11.088672 10.384470 0.178670 11697996
9.945750 8.927958 2.386206 11697996
9.599502 10.277330 3.510554 11697996
9.708455 9.388372 3.179504 11697996
10.332134 9.592193 0.907680 11697996
10.143577 9.701514 3.064633 11697996
9.053768 9.771837 1.576685 11697996
9.531806 8.901788 1.855684 11697996
10.248090 9.585967 2.371207 11697996
10.604113 10.340397 3.401637 11697996
11.082321 10.167638 0.258176 11697996
10.219963 8.763093 1.859383 11697996
10.741578 11.053707 1.110664 11697996
9.895370 9.266593 0.333094 11697996
9.092501 8.831141 0.396077 11697996
9.649743 10.103080 1.090112 11697996
11.149800 10.940123 2.079068 11697996
9.756368 10.363523 3.639299 11697996
9.816143 9.649514 3.611834 11697996
10.365989 9.515040 1.067301 11697996
8.776449 10.542711 3.555657 11697996
10.451757 10.226663 3.854660 11697996
10.078478 9.875532 0.327123 11697996
9.056039 9.523696 2.972406 11697996
9.786358 9.534839 2.340292 11697996
9.848113 10.257104 2.186195 11697996
10.218575 9.222763 1.075193 11697996
11.074426 9.146372 0.571520 11697996
10.636158 9.755054 1.615404 11697996
10.777898 11.170961 1.051554 11697996
9.924903 10.182384 3.661483 11697996
10.168078 10.836809 1.458450 11697996
9.589680 8.923945 3.375781 11697996
9.727419 10.839374 3.066875 11697996
9.321324 10.044650 3.954240 11697996
10.827794 9.659300 1.430464 11697996
10.502210 10.419909 3.651563 11697996
9.420359 10.241775 0.857222 11697996
10.024343 9.055728 3.112882 11697996
10.692634 9.064746 1.800720 11697996
9.388001 10.988443 2.323787 11697996
10.865385 11.008792 0.537421 11697996
9.465413 9.622692 3.007125 11697996
9.015453 9.401792 2.342557 11697996
10.154219 9.005285 3.719085 11697996
9.070716 10.828769 1.622054 11697996
10.883001 10.063982 1.474655 11697996
9.205495 9.145006 2.030625 11697996
11.260356 9.296549 2.097779 11697996
9.116054 11.158546 1.272194 11697996
10.163067 9.965855 1.649193 11697996
9.104866 10.481977 1.230462 11697996
8.805032 9.437928 3.023290 11697996
10.784250 11.086839 2.453365 11697996
10.478410 10.929128 1.051034 11697996
9.185844 8.968618 3.901336 11697996
11.199767 8.848552 3.039844 11697996
9.097485 9.608194 1.988987 11697996
9.207486 9.955627 1.324092 11697996
9.930891 8.933455 1.620611 11697996
10.668397 10.825584 1.242500 11697996
9.130484 10.395615 1.136112 11697996
9.223001 8.753241 2.812979 11697996
10.925953 10.214291 1.296753 11697996
9.804930 9.852755 3.108182 11697996
10.306269 8.820789 0.824733 11697996
9.627265 11.048302 0.219766 11697996
10.848655 9.628587 2.429801 11697996
8.724151 10.890334 2.785047 11697996
9.243559 10.854051 2.586896 11697996
10.196052 9.523601 0.595978 11697996
9.641921 9.771082 2.352558 11697996
8.938495 8.905122 1.705016 11697996
9.642701 9.072946 1.995025 11697996
9.116199 9.384506 2.692464 11697996
9.382026 8.907104 1.403447 11697996
9.496574 8.809642 2.763106 11697996
9.662226 8.997696 2.114808 11697996
11.008212 10.357591 3.490840 11697996
9.986350 10.168559 0.497688 11697996
10.496874 10.920804 0.732967 11697996
9.978210 10.683167 1.116949 11697996
9.113100 9.553099 3.812307 11697996
8.822786 9.116809 3.391972 11697996
8.934360 8.813587 0.563666 11697996
11.075718 10.458574 2.102963 11697996
9.388063 8.761724 3.467240 11697996
10.602687 9.664280 2.041193 11697996
8.894938 11.101553 0.808812 11697996
8.781974 9.786688 3.980449 11697996
10.341805 9.659649 2.578442 11697996
10.083698 10.380560 3.382219 11697996
10.659348 10.530090 1.043409 11697996
10.522391 11.226517 0.685835 11697996
10.677191 8.931555 1.521226 11697996
10.971673 11.056520 3.306201 11697996
11.030624 10.878058 0.253350 11697996
11.152871 8.978930 0.615909 11697996
10.131538 11.051900 1.467109 11697996
8.816404 10.493847 0.800728 11697996
9.241190 8.795774 2.484338 11697996
8.962550 9.672898 0.850258 11697996
9.128414 10.838674 2.303853 11697996
9.105311 9.099528 1.524864 11697996
10.036783 9.186049 0.389635 11697996
9.804343 10.159809 1.533177 11697996
9.374206 10.380674 1.665792 11697996
11.124658 10.068680 2.748754 11697996
10.283383 9.585036 0.230856 11697996
9.331264 9.218349 0.214563 11697996
10.850810 10.750221 0.443699 11697996
11.025346 10.971292 3.472601 11697996
10.609115 9.534586 3.565654 11697996
10.538455 9.197887 4.010580 11697996
9.703580 10.467932 2.588253 11697996
10.410213 10.752370 0.984016 11697996
10.465310 9.720903 0.762799 11697996
10.878956 10.767822 0.770053 11697996
10.809494 9.688321 1.193690 11697996
10.219377 10.091081 0.804053 11697996
10.521118 9.696279 0.301092 11697996
9.024734 8.981930 3.150137 11697996
10.166152 10.817809 0.660139 11697996
9.938911 9.892315 1.948345 11697996
9.101993 11.207962 1.771104 11697996
8.774988 10.144489 2.793148 11697996
8.994949 11.186227 1.964685 11697996
9.976151 10.663635 3.865259 11697996
10.178681 9.214122 0.985202 11697996
10.444079 9.590060 1.754514 11697996
9.731883 9.047012 2.753754 11697996
10.600334 8.813514 3.751611 11697996
9.415754 10.071180 1.881759 11697996
8.908927 8.858824 0.346172 11697996
11.072980 10.732707 3.608378 11697996
9.965069 10.315785 2.320535 11697996
9.449269 10.928352 0.680610 11697996
9.240009 9.428182 1.462369 11697996
8.783946 10.409428 2.156269 11697996
9.542052 11.043074 3.397184 11697996
9.230254 9.664835 2.712368 11697996
10.796307 9.791940 1.815964 11697996
9.583347 10.807622 1.174421 11697996
11.186604 8.999876 1.319256 11697996
10.680435 9.228182 1.494063 11697996
9.784698 10.912080 2.196010 11697996
10.921454 8.813570 1.120890 11697996
10.187560 11.202221 2.061371 11697996
10.863756 9.974397 2.944951 11697996
10.251941 10.651593 3.591093 11697996
10.039124 10.442966 2.809692 11697996
8.813889 8.979734 3.182223 11697996
11.000026 10.572503 1.139662 11697996
9.668200 10.297923 3.918557 11697996
10.111188 9.660366 0.896823 11697996
10.259199 10.056484 2.897094 11697996
8.810244 10.174964 2.931130 11697996
10.819811 9.301406 1.643537 11697996
10.434133 9.606456 1.089774 11697996
9.119253 8.914068 2.762109 11697996
9.342792 8.938747 2.763625 11697996
10.107921 8.838009 1.302610 11697996
10.818693 9.301281 0.011330 11697996
10.068756 10.581663 3.295920 11697996
10.788877 10.050370 3.317758 11697996
9.891068 10.444668 2.043642 11697996
9.208950 9.237385 2.118026 11697996
8.962371 10.867896 3.911139 11697996
10.665180 9.568359 1.273174 11697996
9.220716 10.231541 1.261877 11697996
10.076813 10.793516 2.018870 11697996
11.053843 11.061770 1.213222 11697996
9.142687 10.374887 2.458234 11697996
9.544016 9.077535 1.778268 11697996
10.915082 9.558452 0.543319 11697996
9.610862 8.943264 2.813210 11697996
10.437279 11.227576 0.582584 11697996
11.132417 10.041162 1.904166 11697996
11.190249 9.714597 2.420816 11697996
10.579256 8.798089 1.189035 11697996
10.448656 11.003751 1.767707 11697996
11.183168 9.291934 0.386494 11697996
10.618340 10.607829 1.921245 11697996
9.730740 9.618074 1.424871 11697996
10.664168 9.755740 0.475625 11697996
10.767342 9.722081 0.224628 11697996
9.529882 11.230985 2.462755 11697996
9.583320 11.047136 2.387900 11697996
9.355311 8.776906 3.192308 11697996
10.881644 9.808767 1.085043 11697996
9.866707 10.624940 1.593974 11697996
9.915177 9.205328 3.310910 11697996
10.464990 10.967852 0.855523 11697996
8.758558 11.108315 0.072228 11697996
10.588653 8.934401 1.489293 11697996
10.602255 8.961795 2.440705 11697996
9.753709 9.290468 3.668878 11697996
11.052756 10.210579 2.013585 11697996
11.059854 11.058594 -0.007882 11697996
11.094854 9.055239 1.986717 11697996
10.206248 9.762303 2.067336 11697996
10.040585 9.267225 0.194379 11697996
8.867136 9.150919 2.067968 11697996
9.673190 9.675772 0.181884 11697996
8.810104 9.543311 1.888015 11697996
10.517070 8.807950 1.757440 11697996
9.137675 9.584146 0.319962 11697996
11.010697 8.805468 3.770815 11697996
10.552682 8.979301 1.854635 11697996
10.183384 9.224313 2.565078 11697996
9.272940 8.967481 0.196949 11697996
9.875777 10.676041 2.465772 11697996
9.201591 10.577502 3.009042 11697996
9.928180 10.415215 1.869083 11697996
9.064564 9.704080 1.735089 11697996
9.691521 10.418601 0.384625 11697996
10.037814 10.882930 2.378669 11697996
10.714940 9.950360 2.166651 11697996
9.727799 10.426040 3.639448 11697996
9.568270 10.290581 3.968065 11697996
8.855933 10.710407 1.077011 11697996
10.045730 10.822794 1.502028 11697996
8.731944 9.732108 0.371214 11697996
8.909310 9.899686 1.379954 11697996
10.432977 8.975885 2.577285 11697996
10.620387 10.811296 0.072176 11697996
11.180553 10.232562 1.775469 11697996
10.690940 10.134514 0.540363 11697996
11.167588 8.743545 2.277392 11697996
10.944135 9.292498 0.402382 11697996
9.009274 10.440032 1.617952 11697996
10.586740 10.653492 1.000202 11697996
10.759726 9.985113 2.754351 11697996
10.734570 10.134167 1.642390 11697996
10.234398 10.724629 3.583470 11697996
10.241513 11.110018 3.133050 11697996
9.228989 10.747715 1.162799 11697996
11.157086 9.495659 0.030785 11697996
10.357514 8.776073 0.695486 11697996
9.890457 10.069623 3.794577 11697996
9.812562 10.000741 3.335038 11697996
10.834807 11.159100 1.417703 11697996
10.133492 8.892028 0.110248 11697996
10.155676 10.612799 1.221088 11697996
10.607442 9.340224 2.026653 11697996
10.899047 9.852326 1.295355 11697996
8.757494 10.580215 1.202576 11697996
10.688021 9.652526 1.787534 11697996
10.887791 9.701959 3.623618 11697996
9.672448 9.131505 3.461241 11697996
9.738984 8.882026 3.182644 11697996
11.204677 9.070345 3.898833 11697996
9.270603 9.177259 2.734797 11697996
10.359721 10.663836 1.020543 11697996
10.276253 10.133127 0.892956 11697996
11.111865 11.120946 3.626747 11697996
9.438169 11.013913 3.374129 11697996
10.460394 9.512579 2.871642 11697996
11.110816 9.652488 0.686560 11697996
9.991241 9.162612 2.436208 11697996
10.789928 9.828791 0.107619 11697996
10.424944 11.119581 0.710286 11697996
9.242633 9.393375 2.065651 11697996
10.738797 11.054793 0.798176 11697996
9.750380 8.912436 1.951234 11697996
11.130832 9.062417 2.889493 11697996
10.955063 9.815879 0.432401 11697996
10.657357 11.237057 2.738373 11697996
9.265325 10.982359 0.358607 11697996
9.021037 9.495855 0.719085 11697996
10.230490 9.429545 1.664457 11697996
9.919481 8.983269 -0.009627 11697996
9.707879 9.037638 0.703279 11697996
10.778709 8.991416 0.517568 11697996
9.803719 11.043131 0.940597 11697996
11.134036 10.934014 1.893131 11697996
10.053596 8.792756 3.376966 11697996
8.912755 10.709793 2.172338 11697996
10.108151 8.939782 1.573228 11697996
10.588966 10.184818 2.169199 11697996
10.577370 10.146544 2.166729 11697996
10.932406 9.594168 3.899620 11697996
10.564088 10.733151 3.876232 11697996
8.982325 9.611020 2.304352 11697996
9.877206 10.246021 2.224727 11697996
9.929729 10.876402 2.890810 11697996
10.306652 9.280553 0.048157 11697996
9.797362 8.775151 3.445793 11697996
9.861455 8.825756 1.804053 11697996
10.601544 9.437551 0.968606 11697996
10.355886 10.230578 1.383435 11697996
9.860556 10.629409 0.952347 11697996
10.751349 8.893931 2.503979 11697996
10.834850 11.228132 3.664911 11697996
11.029959 10.735462 1.331379 11697996
10.593130 11.057001 3.517688 11697996
11.222481 10.852066 3.817232 11697996
10.872808 10.156000 2.218285 11697996
9.822843 10.571554 0.123202 11697996
10.697525 9.671059 3.050414 11697996
9.130675 10.214421 3.389204 11697996
11.169085 10.441751 3.703827 11697996
10.098819 10.850019 0.163695 11697996
9.452447 9.455746 0.215085 11697996
10.442319 10.200890 0.735533 11697996
10.226580 10.691539 -0.004532 11697996
8.954787 11.068032 1.836813 11697996
9.327935 9.672209 0.151797 11697996
9.460722 8.805305 3.859537 11697996
10.330987 10.199225 3.805631 11697996
9.618722 10.991075 3.392965 11697996
11.182089 9.809308 0.804064 11697996
9.532759 9.734568 0.800709 11697996
10.565919 10.525545 2.061653 11697996
10.179951 8.874196 2.201110 11697996
10.009999 10.677567 1.621782 11697996
10.329623 9.815678 0.695024 11697996
9.803864 11.195118 0.415553 11697996
10.752053 9.770634 1.109397 11697996
10.483023 9.700497 3.566045 11697996
9.856836 10.554738 2.305480 11697996
11.225616 9.898086 0.326442 11697996
9.720545 9.309081 1.420362 11697996
8.985470 10.378212 3.619650 11697996
9.943363 9.043485 2.223377 11697996
11.215804 9.554414 1.020214 11697996
9.034971 9.884753 1.564939 11697996
11.190489 10.004711 0.264233 11697996
9.226783 11.149589 2.539214 11697996
10.819548 9.643331 1.813305 11697996
10.497901 10.562414 0.260447 11697996
10.715613 10.700940 2.401862 11697996
10.513337 10.080020 1.803040 11697996
11.175522 9.071306 0.966020 11697996
9.612548 11.142537 0.144977 11697996
9.575249 10.091304 3.743404 11697996
10.141924 9.739876 2.376143 11697996
9.388995 10.842737 2.755364 11697996
11.058726 10.524394 1.301836 11697996
9.042354 9.063687 0.958998 11697996
9.002706 10.340205 2.569395 11697996
10.820254 9.305699 0.028894 11697996
10.228261 10.629246 2.699652 11697996
9.631424 8.797995 3.556399 11697996
10.660209 10.472504 0.582930 11697996
10.702538 8.906361 2.170177 11697996
9.766761 10.088452 1.079100 11697996
10.114120 9.181550 2.337528 11697996
9.512612 9.705203 1.429001 11697996
9.002831 9.264520 0.262681 11697996
10.322255 9.865276 2.268442 11697996
10.801205 10.573313 3.752595 11697996
9.550590 9.248719 0.116175 11697996
9.605201 10.283463 0.524062 11697996
10.450548 9.260871 1.145061 11697996
9.441520 9.302502 2.770930 11697996
10.061947 9.149077 3.888395 11697996
11.115248 9.978964 2.708259 11697996
10.872519 9.613165 1.457468 11697996
10.137593 10.679208 3.792027 11697996
10.294497 10.781583 2.002623 11697996
10.981643 10.469515 1.402095 11697996
11.135268 10.815596 0.693094 11697996
9.723267 10.521073 1.101910 11697996
8.951823 9.835431 3.416220 11697996
11.077103 9.511316 3.177709 11697996
9.468860 10.734722 2.732462 11697996
10.203329 9.600909 1.969341 11697996
10.434624 9.153618 2.832178 11697996
11.224149 8.767503 3.280326 11697996
11.221661 9.945700 1.417109 11697996
10.381923 10.961150 0.395654 11697996
9.682230 11.111101 3.055557 11697996
9.627511 10.631737 1.506668 11697996
10.708934 9.462691 2.477762 11697996
10.229224 10.478363 3.919505 11697996
10.143480 10.851630 3.594080 11697996
9.186820 10.208884 2.107366 11697996
11.175026 10.985969 0.404567 11697996
10.297293 9.423862 3.721579 11697996
11.210164 9.622258 1.491942 11697996
10.373586 11.239053 3.779034 11697996
9.997909 9.597540 3.594720 11697996
11.117827 9.899431 0.674778 11697996
9.407413 9.059589 1.058268 11697996
10.180213 10.729081 0.386417 11697996
11.226224 10.321877 0.776492 11697996
9.721369 9.524204 1.440198 11697996
10.664906 9.049048 0.835861 11697996
9.319435 9.879742 3.665342 11697996
11.030474 9.646777 0.732995 11697996
9.543882 8.789998 3.797240 11697996
10.542032 9.215173 0.829902 11697996
8.978352 9.954877 3.925654 11697996
8.786008 11.169497 3.360668 11697996
8.781861 11.069633 1.010503 11697996
9.810371 10.024471 3.288074 11697996
9.863905 9.757690 1.709368 11697996
11.134909 10.749097 2.541568 11697996
9.104988 9.790570 2.284876 11697996
10.571919 9.294492 0.194574 11697996
10.946967 9.440499 0.018433 11697996
9.322172 9.395281 2.533052 11697996
11.202239 10.424215 1.028987 11697996
10.886842 10.191971 3.640691 11697996
10.484076 10.216171 3.473521 11697996
10.965897 9.483142 3.224069 11697996
9.945422 9.489134 3.863042 11697996
10.354033 10.604310 1.385982 11697996
9.016370 9.191899 2.714958 11697996
10.729568 9.363611 3.022433 11697996
10.909224 9.915946 1.370484 11697996
10.440390 8.830997 1.166538 11697996
10.705709 10.060764 1.338647 11697996
9.784472 9.805281 2.785823 11697996
11.093978 9.187779 0.684611 11697996
10.975882 11.236528 0.882626 11697996
9.164406 8.789894 1.630491 11697996
9.499387 11.127830 2.117985 11697996
10.755396 9.509196 1.077895 11697996
9.051353 9.356166 2.136790 11697996
10.387410 9.024094 1.301728 11697996
9.595166 9.621250 0.076635 11697996
10.348721 10.090073 1.605342 11697996
10.539268 9.541483 2.812946 11697996
11.103441 10.868038 1.667682 11697996
10.778056 11.091497 3.557130 11697996
9.445765 9.071939 0.056653 11697996
9.565115 8.999577 2.090300 11697996
10.042428 9.779481 3.291563 11697996
9.357464 10.282370 1.477444 11697996
8.918623 11.199441 2.837889 11697996
9.727639 9.358863 1.665897 11697996
9.291393 9.567491 3.866843 11697996
9.632253 8.868710 3.230508 11697996
10.313119 10.895534 2.054075 11697996
9.796581 9.426162 0.821316 11697996
9.334910 11.163287 1.976627 11697996
10.943683 9.259933 3.369475 11697996
9.554255 9.681790 3.044416 11697996
9.358669 9.862669 1.938120 11697996
9.007310 9.408044 1.650769 11697996
8.896298 10.327973 3.513593 11697996
9.013515 9.343803 2.421126 11697996
9.331697 9.920632 3.695596 11697996
10.476027 10.889459 3.684146 11697996
10.064835 10.351342 2.907435 11697996
10.086197 10.719751 0.083198 11697996
10.576474 9.188449 2.120045 11697996
8.731563 11.207208 0.433516 11697996
9.707134 10.814618 0.026304 11697996
10.951321 9.068791 0.968664 11697996
9.325419 8.960811 1.204155 11697996
10.890629 9.055753 3.813926 11697996
10.907584 10.869008 1.215299 11697996
9.876793 9.099951 3.923693 11697996
8.777386 9.298658 3.108603 11697996
10.425426 9.264063 0.752365 11697996
10.252592 9.295032 1.185920 11697996
10.941160 9.130284 0.405785 11697996
9.092986 9.950088 1.524796 11697996
9.800704 11.152842 2.212912 11697996
10.492721 10.878634 2.274620 11697996
9.511181 10.642879 1.252184 11697996
10.192749 9.771620 3.935896 11697996
9.491701 10.168248 1.367539 11697996
9.878552 10.689809 0.382246 11697996
10.144145 9.289983 3.668196 11697996
11.037786 9.951866 1.062757 11697996
10.694978 10.119594 2.439687 11697996
9.497227 10.027488 1.735184 11697996
11.045766 9.816398 2.179348 11697996
11.248979 11.092491 1.073096 11697996
11.132531 11.076980 3.720575 11697996
11.127182 10.896459 3.056113 11697996
9.358259 9.667315 2.976990 11697996
8.850935 10.270913 2.746296 11697996
10.572313 8.960386 1.521167 11697996
11.103454 11.094086 2.260754 11697996
8.825096 10.784613 1.954996 11697996
10.420089 9.447027 1.479961 11697996
9.802275 10.183752 0.133699 11697996
8.882323 10.762268 3.865887 11697996
10.508117 9.118823 3.238074 11697996
10.962346 10.206020 3.542012 11697996
11.219152 8.886795 1.539142 11697996
10.958578 11.061436 0.749879 11697996
10.961140 9.710748 3.060127 11697996
10.578818 10.401961 3.614282 11697996
10.811477 10.293401 3.879064 11697996
9.545064 9.635412 0.629669 11697996
10.142999 10.539505 2.081906 11697996
9.996029 9.259156 0.609671 11697996
9.845212 8.909177 1.346737 11697996
8.740912 10.349003 1.032008 11697996
9.235303 11.075758 2.102973 11697996
10.452255 9.899367 1.979643 11697996
9.762280 9.797019 0.716227 11697996
9.471631 9.901099 2.379857 11697996
10.674511 9.491469 0.322094 11697996
10.547909 9.352490 1.856938 11697996
10.363672 11.158901 2.715144 11697996
10.375431 11.017432 2.461314 11697996
10.018021 10.241214 3.013660 11697996
9.671644 9.913635 1.238692 11697996
9.497640 10.622615 1.529584 11697996
9.051955 9.855484 2.687876 11697996
10.160580 9.531152 0.886911 11697996
10.841743 10.645179 1.999072 11697996
11.118961 10.600735 1.210797 11697996
10.211660 10.605035 3.696655 11697996
9.472511 9.421129 3.639522 11697996
10.431754 8.840317 2.603111 11697996
9.061073 10.186659 3.897952 11697996
10.905828 10.109714 3.930953 11697996
10.461668 10.833271 0.078218 11697996
11.047760 9.417522 3.896677 11697996
10.383643 10.286471 0.809333 11697996
11.168228 10.605530 3.754884 11697996
10.597355 9.432076 3.022358 11697996
10.750845 8.895709 3.509049 11697996
11.010812 9.802183 1.027735 11697996
9.338132 10.824512 0.563120 11697996
9.852394 9.978595 3.165496 11697996
8.966695 8.805414 3.648765 11697996
11.236285 10.285534 2.835094 11697996
9.672149 10.995511 2.400070 11697996
10.501888 9.821043 2.685869 11697996
10.251656 10.744933 2.978914 11697996
8.864837 8.824826 2.759859 11697996
10.637963 11.053116 1.948221 11697996
8.787303 9.070879 2.699265 11697996
9.300980 10.460824 2.102540 11697996
9.442451 9.020956 0.712762 11697996
9.174172 9.272325 2.221914 11697996
10.765293 9.229591 3.706034 11697996
11.142072 9.632132 0.257871 11697996
9.932721 10.389416 3.558492 11697996
9.291034 10.383096 2.232710 11697996
9.563492 9.079868 2.213140 11697996
10.651467 10.675076 0.003332 11697996
11.053375 11.156807 2.831729 11697996
10.689812 11.235012 0.042071 11697996
10.777641 9.994315 3.988331 11697996
10.170362 10.777208 3.806048 11697996
9.914235 8.814244 1.266723 11697996
10.915942 8.982820 3.171114 11697996
8.815253 9.504779 1.453117 11697996
9.958921 8.968204 1.268535 11697996
9.076673 10.311338 0.449587 11697996
10.792638 9.145848 3.311292 11697996
10.140072 9.576466 2.071652 11697996
9.681917 10.056839 3.974867 11697996
11.199416 11.201994 3.975694 11697996
9.821743 9.222963 3.463844 11697996
11.122127 9.743677 1.394552 11697996
9.070025 9.864438 2.933174 11697996
8.798167 10.459696 3.208232 11697996
10.358146 9.280870 3.372696 11697996
10.668586 9.508021 1.762831 11697996
10.417861 8.817455 1.776975 11697996
10.668147 9.901445 2.272211 11697996
8.851818 9.312137 2.991553 11697996
9.774321 10.885285 3.080540 11697996
9.517344 9.596478 3.533000 11697996
9.925537 9.767903 1.478477 11697996
8.891046 11.149032 3.030980 11697996
9.007788 10.311870 1.962132 11697996
8.767062 10.694881 0.102195 11697996
9.822612 9.290558 2.518709 11697996
11.210737 9.363972 1.271818 11697996
9.251700 9.862836 2.001894 11697996
8.940846 10.996900 0.547969 11697996
10.071669 9.996007 2.224284 11697996
9.803220 10.270659 3.065407 11697996
11.038326 10.586341 3.563949 11697996
8.826861 9.067984 1.985737 11697996
9.809390 8.937616 0.525639 11697996
10.382508 8.969168 3.378934 11697996
9.911330 10.249785 1.550935 11697996
10.270143 8.868202 1.427384 11697996
11.020111 9.255520 1.382132 11697996
10.215776 10.209975 3.176782 11697996
9.931796 9.198533 2.515866 11697996
10.448304 10.336785 1.370660 11697996
11.000555 10.927361 1.360616 11697996
8.977507 10.385133 0.683136 11697996
9.104727 10.282228 1.659248 11697996
9.015429 9.285480 0.132683 11697996
10.863355 9.151654 1.162608 11697996
10.382615 10.182906 2.209953 11697996
9.422762 10.858241 1.032391 11697996
8.916955 10.678443 1.386789 11697996
10.995222 10.723830 0.383225 11697996
10.003874 10.203812 2.648828 11697996
9.338605 10.698779 2.835369 11697996
10.868743 8.966487 3.828771 11697996
10.884668 10.054346 2.543786 11697996
9.737766 9.904500 3.925755 11697996
11.174940 11.035135 2.176657 11697996
10.500938 10.298520 1.377200 11697996
10.563698 9.264589 1.171538 11697996
10.766879 9.190086 2.775654 11697996
8.872934 10.804934 0.593236 11697996
10.387239 8.932488 2.993626 11697996
9.542606 9.876323 1.414076 11697996
9.363363 9.568695 0.398556 11697996
10.806438 10.488951 3.645036 11697996
10.620400 9.798200 3.911656 11697996
8.821606 10.891128 2.174535 11697996
9.671487 9.789047 3.007850 11697996
9.053334 8.804379 2.571255 11697996
11.022266 9.644079 1.545506 11697996
10.729892 10.843101 0.141421 11697996
9.394603 11.120043 2.678983 11697996
10.330868 10.175241 2.533799 11697996
9.561136 9.505772 2.059423 11697996
8.843484 10.014175 1.968553 11697996
9.091481 10.741618 0.911494 11697996
8.801832 10.820823 1.707854 11697996
9.780911 9.973990 2.092905 11697996
10.311316 8.964137 1.745066 11697996
9.505069 9.906603 0.540374 11697996
9.339014 9.657268 0.691284 11697996
8.800519 10.253969 3.129063 11697996
10.439192 10.278379 3.675865 11697996
10.776307 10.812788 0.025982 11697996
10.275745 10.128363 0.486713 11697996
11.036303 9.847023 1.897035 11697996
9.818838 9.270871 2.234550 11697996
10.072552 9.041961 0.096003 11697996
9.701224 10.046866 0.954138 11697996
10.575269 10.057137 1.614270 11697996
9.238186 11.099644 2.423421 11697996
9.675649 10.086997 0.747638 11697996
9.905241 10.894307 0.184613 11697996
10.418202 10.489724 2.092999 11697996
9.129036 10.019834 0.495400 11697996
8.860882 11.041148 0.903922 11697996
11.107502 9.362017 0.803996 11697996
10.148684 9.224726 2.590042 11697996
10.968675 10.841335 0.479040 11697996
10.437549 11.010468 2.151950 11697996
9.018709 10.272153 3.557374 11697996
9.428993 9.603409 0.165240 11697996
11.063727 9.037008 3.000063 11697996
11.151904 8.975267 3.873349 11697996
8.866149 10.542819 0.415582 11697996
8.913230 9.525801 0.745903 11697996
10.294868 11.140053 2.999780 11697996
8.761738 10.181013 0.867946 11697996
8.782776 8.832368 3.802795 11697996
11.220817 10.555492 2.115344 11697996
10.404605 9.008568 3.218264 11697996
9.315559 9.209119 0.526516 11697996
10.935719 9.730941 3.350325 11697996
10.614784 10.423775 0.420254 11697996
9.784967 8.962410 3.752212 11697996
9.306057 9.420810 2.398522 11697996
9.078370 9.240956 3.883714 11697996
9.804045 9.751486 2.007245 11697996
10.463981 10.566713 0.033089 11697996
9.548298 10.856136 1.253638 11697996
10.377075 10.437765 2.592882 11697996
11.002356 10.971013 0.620731 11697996
9.192860 9.492503 1.081154 11697996
9.553306 9.323279 2.848656 11697996
9.641062 10.352800 1.383357 11697996
10.065779 10.933743 3.151634 11697996
11.177201 9.768180 0.022206 11697996
9.463717 9.566687 0.961437 11697996
8.934506 10.693005 1.242039 11697996
9.068913 9.108928 3.668037 11697996
10.844350 9.820200 2.446144 11697996
11.216453 8.913474 4.008371 11697996
9.989590 10.812964 1.866477 11697996
8.911065 9.007180 0.996833 11697996
9.689039 10.185829 1.036132 11697996
10.324183 9.548101 1.563592 11697996
10.798644 10.360231 1.324093 11697996
10.272526 9.383788 3.953894 11697996
10.070835 9.567079 3.292651 11697996
9.007610 10.387985 0.946199 11697996
9.869303 9.201636 3.715348 11697996
11.145248 8.979609 2.072847 11697996
10.800035 10.797603 0.409712 11697996
9.179618 10.296665 0.872297 11697996
9.380198 11.104769 3.143868 11697996
9.830378 9.012191 0.163904 11697996
10.018875 9.654025 0.421861 11697996
8.826610 10.030226 2.472163 11697996
9.940883 11.120909 0.897956 11697996
10.426339 9.968640 0.063410 11697996
10.325310 9.628615 2.988607 11697996
10.035683 9.223468 3.331452 11697996
10.329826 9.817466 3.831790 11697996
9.312068 11.104535 1.588452 11697996
9.056151 10.512006 1.371375 11697996
8.875871 9.947238 2.249766 11697996
9.840976 10.253325 2.367337 11697996
10.846677 10.568241 1.367858 11697996
10.976589 9.916529 3.720531 11697996
10.283281 10.026934 2.680248 11697996
8.897565 9.621367 2.011725 11697996
10.935384 10.780525 1.430784 11697996
10.818357 8.856205 3.014719 11697996
9.066578 10.278972 3.204686 11697996
10.785176 8.922795 1.579100 11697996
9.230358 10.924800 0.476046 11697996
10.792080 9.961663 0.051496 11697996
10.715230 10.360069 3.565261 11697996
10.883301 10.970270 2.316803 11697996
10.029449 9.551972 3.339973 11697996
10.979208 10.246608 0.238775 11697996
8.886949 9.306334 2.627486 11697996
9.433286 8.821414 3.013363 11697996
9.399373 10.153669 1.943415 11697996
10.759710 10.811322 3.235552 11697996
8.995528 8.949624 0.457020 11697996
10.827603 10.668614 3.095131 11697996
9.945487 10.065139 3.287865 11697996
11.185201 10.655013 2.875395 11697996
11.089962 10.053934 1.961270 11697996
9.181379 9.992905 2.786925 11697996
10.610743 10.804313 3.209963 11697996
9.382916 10.741506 1.753767 11697996
11.181296 9.445789 3.551755 11697996
10.964992 9.604337 1.027538 11697996
8.914783 11.029778 0.435407 11697996
8.810985 10.927577 0.116397 11697996
10.180712 10.044718 1.309101 11697996
10.643077 10.277292 1.476808 11697996
8.964828 9.984271 3.811266 11697996
10.450131 10.591974 1.789231 11697996
9.629876 11.166957 2.689536 11697996
10.857840 9.667946 3.134722 11697996
8.886372 10.923609 3.940636 11697996
10.851772 10.447455 1.879116 11697996
10.720129 9.704886 1.134905 11697996
9.773431 9.398115 0.385978 11697996
10.076273 10.067571 2.735420 11697996
9.769142 11.121587 0.752382 11697996
8.998982 10.018165 3.992785 11697996
10.487684 9.839798 3.127280 11697996
9.397817 9.771702 0.713497 11697996
8.959035 11.161021 3.088367 11697996
9.270961 9.067636 3.740798 11697996
11.118421 9.004622 2.121523 11697996
11.264366 10.796941 0.931540 11697996
10.848920 10.608867 3.700650 11697996
9.107179 9.674462 3.956268 11697996
10.767134 10.602454 2.201511 11697996
10.640677 10.556797 0.445757 11697996
9.185299 9.027911 1.649962 11697996
9.302057 9.933091 3.772036 11697996
8.903058 9.637593 1.857666 11697996
10.678948 8.972720 1.590718 11697996
10.651128 10.520655 2.359428 11697996
10.637829 9.789541 1.858142 11697996
10.882059 10.060838 4.001115 11697996
9.043701 9.455974 2.773010 11697996
10.469575 9.699397 3.162479 11697996
10.768680 9.008914 2.168377 11697996
9.090603 10.815213 0.124029 11697996
9.275108 11.048698 3.202269 11697996
9.903621 10.936525 0.812085 11697996
10.847676 10.764060 0.844226 11697996
9.197662 9.436768 1.064704 11697996
10.442827 9.643517 3.639187 11697996
10.866578 11.190197 0.726349 11697996
9.206747 11.135181 2.199370 11697996
9.598043 10.672513 1.806691 11697996
10.037094 9.886020 3.963916 11697996
9.371716 10.920225 2.717041 11697996
10.841787 10.516326 3.196245 11697996
10.800898 10.907507 3.050170 11697996
9.755597 10.555794 1.336057 11697996
10.827273 9.314901 1.141635 11697996
9.992557 9.341088 0.569509 11697996
9.004580 9.531798 1.086212 11697996
9.155751 9.166948 0.215137 11697996
9.295308 10.302415 3.862390 11697996
9.735757 8.931286 0.483613 11697996
9.201368 8.749731 2.283610 11697996
10.873136 9.159623 2.986159 11697996
8.918230 9.652164 3.873333 11697996
9.563156 10.151230 3.655537 11697996
11.064981 9.206424 0.920493 11697996
10.723987 9.478991 1.232273 11697996
9.855113 9.569931 1.581797 11697996
8.784417 11.157083 2.144560 11697996
11.137442 10.297932 2.360941 11697996
11.208102 9.601436 1.193771 11697996
11.200011 9.764217 0.722070 11697996
9.178901 9.811893 2.490237 11697996
9.101214 10.290005 3.250391 11697996
9.496679 9.377845 2.849824 11697996
8.836569 9.556907 3.745111 11697996
10.169672 10.852909 2.578752 11697996
10.573287 10.312076 3.835536 11697996
10.010909 10.110766 3.910485 11697996
8.822712 8.902601 1.722120 11697996
10.216908 8.945526 0.259041 11697996
9.110182 10.962499 0.781449 11697996
8.796266 8.923909 3.114263 11697996
9.918719 8.924658 3.145988 11697996
11.145457 10.954556 2.193907 11697996
9.251255 8.760974 0.906804 11697996
8.977571 9.103876 1.619222 11697996
9.307091 10.223254 1.392573 11697996
10.468070 8.751635 3.297628 11697996
10.742640 9.847118 3.718565 11697996
9.585376 9.727427 0.421839 11697996
9.370130 8.763921 3.316774 11697996
10.687520 9.547503 2.401311 11697996
10.166714 9.514100 4.004210 11697996
9.589323 9.818010 1.641082 11697996
9.777828 10.132607 3.062970 11697996
10.037149 9.383820 1.840319 11697996
10.719899 10.936684 1.433297 11697996
9.967167 8.817113 1.504609 11697996
9.205399 10.401751 1.887774 11697996
9.163506 11.058266 2.097858 11697996
9.993002 9.803850 3.644841 11697996
11.022133 10.062427 0.180874 11697996
9.333235 10.977508 1.373756 11697996
9.895452 10.174701 3.382393 11697996
11.232691 10.676308 0.200533 11697996
10.023564 9.580409 1.272677 11697996
10.886075 9.386547 2.365040 11697996
10.605582 8.751482 1.644273 11697996
8.907428 10.818594 2.360958 11697996
9.051772 9.469270 1.766056 11697996
9.230875 8.827003 3.753159 11697996
9.760320 9.062653 1.090188 11697996
9.618105 8.831989 3.042652 11697996
10.589170 8.789273 2.818082 11697996
11.167727 9.459853 0.265068 11697996
11.234485 9.894211 2.900213 11697996
10.152527 11.204304 0.650382 11697996
10.009488 10.785099 1.979009 11697996
9.775036 10.474125 1.118158 11697996
10.724088 9.835644 2.512616 11697996
10.743689 8.881711 1.718896 11697996
10.673616 9.185724 0.579302 11697996
10.413655 10.742519 0.644658 11697996
8.791579 9.247024 3.443230 11697996
9.927604 10.361590 1.033026 11697996
10.031749 10.834129 1.660699 11697996
8.893147 10.275614 3.871869 11697996
9.421030 10.055328 1.565491 11697996
10.856210 9.840841 1.625710 11697996
8.829638 8.859054 1.051184 11697996
9.402637 11.095772 1.669985 11697996
10.916076 9.472795 1.640831 11697996
8.826406 11.191598 2.964443 11697996
8.857993 10.082236 0.893328 11697996
10.611798 10.750894 0.848676 11697996
9.094834 8.830324 2.638299 11697996
10.034687 9.560465 2.604910 11697996
8.811532 10.109801 3.371150 11697996
10.579867 9.491730 2.533440 11697996
8.893427 9.843137 0.508910 11697996
9.565681 10.180405 3.951536 11697996
8.803046 9.939741 1.311188 11697996
9.228284 10.338052 3.105320 11697996
11.217511 11.042389 0.874324 11697996
9.786277 9.902669 0.369146 11697996
9.657974 9.875686 0.284417 11697996
11.021476 9.942653 1.373665 11697996
9.247312 11.176337 0.627730 11697996
11.054582 11.069916 2.978241 11697996
11.069882 10.680161 1.333671 11697996
10.481491 10.487464 0.234100 11697996
10.025923 11.197924 1.515601 11697996
10.530429 10.209787 3.815885 11697996
9.391479 10.518212 0.563272 11697996
10.599760 9.392895 3.151689 11697996
10.280035 10.702489 0.769201 11697996
8.829438 10.026517 1.659232 11697996
11.140379 9.740155 1.524728 11697996
8.938316 9.310939 3.425528 11697996
10.319937 8.830582 3.568445 11697996
10.430564 8.814147 3.896440 11697996
9.280161 9.124280 2.129982 11697996
10.470387 10.825578 0.620987 11697996
10.650732 9.742756 0.420947 11697996
10.635073 9.882434 1.900693 11697996
9.433988 9.789335 3.612877 11697996
8.926986 9.152197 2.875875 11697996
10.322628 9.183878 2.851461 11697996
10.045969 11.054170 3.077316 11697996
10.356057 10.577785 3.473538 11697996
10.108263 10.094041 0.840867 11697996
9.927342 9.581394 0.436989 11697996
9.523421 11.004605 1.487446 11697996
10.094967 8.883485 1.175681 11697996
10.073718 11.199057 2.665628 11697996
10.104376 9.398911 2.238681 11697996
9.003268 8.870488 0.243776 11697996
9.271031 9.254940 2.065420 11697996
9.299266 10.880690 0.820405 11697996
11.177432 9.716237 1.968414 11697996
10.506408 11.240401 1.961398 11697996
9.176043 11.030343 0.610713 11697996
8.817158 11.218306 0.070201 11697996
9.427010 10.122307 0.730451 11697996
10.600984 10.506781 2.662823 11697996
10.769844 10.349953 1.038293 11697996
9.565031 11.008757 1.492488 11697996
9.025675 9.025844 1.570313 11697996
9.687397 10.991388 1.275921 11697996
9.765987 9.073814 0.596177 11697996
9.258506 8.976012 2.027440 11697996
10.921678 10.368213 0.038002 11697996
10.587651 9.250273 1.777582 11697996
10.029596 9.912879 1.128445 11697996
10.281253 10.495980 3.172407 11697996
9.939954 10.994616 0.369295 11697996
9.104586 10.556204 3.426054 11697996
9.660091 11.201574 3.392860 11697996
8.976934 10.553153 0.450901 11697996
10.122544 8.869935 3.231459 11697996
10.777279 10.323956 0.797206 11697996
10.095813 8.874481 2.469669 11697996
11.246226 9.064809 0.486737 11697996
9.541660 9.226027 0.618935 11697996
11.233683 9.025220 3.316047 11697996
9.174867 9.744920 0.752407 11697996
9.341001 9.258327 4.008175 11697996
10.489853 9.271704 2.585788 11697996
9.825108 9.408207 1.006783 11697996
10.047662 11.196882 2.918749 11697996
11.104167 10.374407 0.275604 11697996
10.838840 9.254458 1.046935 11697996
10.598363 10.668274 3.135229 11697996
10.571300 10.964653 1.444729 11697996
9.949893 9.053841 0.770805 11697996
10.722632 9.758589 0.201056 11697996
9.039425 9.947410 0.480110 11697996
10.792017 9.659314 1.412883 11697996
10.640760 11.234351 3.938451 11697996
10.641706 9.597040 3.769387 11697996
11.168193 9.925606 2.948755 11697996
11.079894 9.961643 3.055056 11697996
8.808466 10.870200 2.771050 11697996
11.056114 9.846341 2.757401 11697996
9.270747 9.775410 3.416986 11697996
9.303275 9.008307 3.418265 11697996
9.873791 10.708127 2.529339 11697996
10.907208 9.198138 0.200260 11697996
10.683082 10.509127 1.255909 11697996
9.911259 10.681631 2.364965 11697996
9.162160 10.439034 1.800934 11697996
10.169975 9.329805 2.208018 11697996
11.052977 10.179303 0.222497 11697996
10.048419 11.169267 2.965255 11697996
10.602908 10.982564 3.823275 11697996
9.771150 8.828411 1.558258 11697996
9.596485 9.466946 1.400501 11697996
10.689127 10.761662 1.627818 11697996
9.610262 10.433361 2.716542 11697996
10.176954 11.260540 0.276862 11697996
9.625134 8.838664 3.313857 11697996
9.542316 10.301556 3.148145 11697996
10.347010 9.083099 3.336153 11697996
9.389296 10.335470 2.982884 11697996
9.639919 10.654670 1.751092 11697996
9.086644 10.800956 2.120106 11697996
10.810712 10.507693 0.919897 11697996
10.836955 10.938023 3.729971 11697996
10.698558 10.958170 1.685726 11697996
11.203853 9.276834 3.273988 11697996
9.889343 11.245391 1.754637 11697996
8.835029 8.772832 2.463305 11697996
9.168297 10.110233 3.120657 11697996
10.550481 10.059705 0.208202 11697996
8.851255 10.195251 3.401027 11697996
10.284632 9.527248 0.838240 11697996
10.237076 8.972788 1.430612 11697996
9.604594 8.866901 3.590999 11697996
9.767076 9.821586 1.574018 11697996
10.867895 9.980157 3.055371 11697996
10.666598 10.307319 3.281044 11697996
10.807151 10.464727 0.668486 11697996
10.752092 10.243635 3.856433 11697996
11.083834 9.489287 1.699897 11697996
9.509009 10.817166 2.611009 11697996
10.240558 8.776389 3.104238 11697996
11.169077 9.460299 2.690901 11697996
10.312505 10.054454 2.067064 11697996
10.341918 10.053382 0.957469 11697996
8.880081 10.997630 3.424734 11697996
10.656983 9.895347 1.770117 11697996
9.486739 9.994754 2.196872 11697996
10.139277 10.713729 3.260991 11697996
9.282966 10.480408 1.860955 11697996
9.274143 9.727450 2.734416 11697996
9.780982 9.138224 3.519723 11697996
9.607759 11.053670 2.001182 11697996
10.611331 8.885066 1.295670 11697996
8.893072 11.113676 0.026447 11697996
11.016262 10.403437 2.090939 11697996
8.884922 11.206415 0.027891 11697996
9.277001 11.094203 1.604689 11697996
10.129179 9.175959 1.478744 11697996
9.201040 10.587445 0.546100 11697996
10.790437 10.936981 3.772904 11697996
10.184381 9.828246 2.675853 11697996
10.971197 10.453773 2.305155 11697996
11.166100 9.907747 2.115655 11697996
9.982871 10.219853 2.180774 11697996
9.986047 10.180210 2.032191 11697996
8.873655 9.542736 0.976011 11697996
10.380051 11.015367 2.193721 11697996
10.995524 10.922989 1.675557 11697996
9.973724 8.788196 0.509961 11697996
9.319281 10.401372 3.304986 11697996
11.158976 9.214985 3.205733 11697996
11.114772 10.634034 2.376778 11697996
10.847763 11.154689 1.205603 11697996
10.730204 9.591949 2.706239 11697996
10.017804 10.821458 1.101503 11697996
11.064800 10.026022 1.253440 11697996
8.968536 10.060029 2.588019 11697996
10.092183 10.405839 0.454453 11697996
10.830336 9.898063 3.431325 11697996
9.864015 10.391720 3.076717 11697996
10.132203 11.191031 1.578153 11697996
9.577225 9.954091 1.542951 11697996
10.291974 10.223536 3.217152 11697996
10.892684 10.694582 3.200185 11697996
10.718414 10.667365 0.913073 11697996
10.723817 10.057640 1.557680 11697996
9.721723 10.683558 3.999317 11697996
10.860247 9.547921 1.420441 11697996
9.095881 10.119183 3.902996 11697996
9.171748 9.544737 0.267937 11697996
10.967172 10.899752 1.630710 11697996
10.123406 10.257301 2.345562 11697996
9.573921 10.951292 1.814331 11697996
10.159616 10.725289 0.224150 11697996
10.872328 8.874648 0.797192 11697996
9.114778 10.869708 0.704492 11697996
11.040859 10.972603 0.528831 11697996
10.091095 10.151278 3.172439 11697996
10.373395 9.953434 0.180288 11697996
10.218291 8.932585 1.575901 11697996
9.281517 8.915889 1.458585 11697996
8.959604 10.357873 3.103859 11697996
10.501229 9.369145 1.503683 11697996
9.141648 9.353853 3.687820 11697996
9.468292 9.198916 0.586938 11697996
10.331968 11.059756 1.149477 11697996
10.503417 9.158253 1.488831 11697996
11.173697 10.383879 1.886482 11697996
10.621935 8.970842 3.681244 11697996
10.934045 10.834798 0.805008 11697996
10.852164 9.183206 1.490222 11697996
9.568496 11.189640 1.838493 11697996
8.942940 10.194032 1.813432 11697996
11.225174 10.139195 0.241746 11697996
10.029850 11.003472 3.608487 11697996
10.601686 10.319759 0.271077 11697996
8.836757 10.563715 0.598661 11697996
8.988648 8.840448 1.439025 11697996
10.884552 9.442101 0.189542 11697996
10.397316 9.465616 3.715834 11697996
10.227607 10.453623 0.737568 11697996
10.393015 10.747005 0.174448 11697996
10.794580 9.170256 1.227486 11697996
10.946105 9.803996 3.751360 11697996
10.467944 9.564635 1.575288 11697996
8.843091 8.945342 0.552242 11697996
10.168408 10.284363 3.675982 11697996
9.272638 11.020859 0.634130 11697996
10.805012 8.834002 0.552518 11697996
8.963696 10.715287 2.543098 11697996
10.708984 9.480916 3.114842 11697996
9.570764 9.774201 0.815801 11697996
10.957394 11.176183 2.361934 11697996
9.597606 10.557379 2.854775 11697996
9.666111 11.103146 1.301112 11697996
9.827191 11.161733 2.739513 11697996
10.322602 10.273168 3.015550 11697996
10.428157 10.654017 3.524740 11697996
10.917984 10.681727 1.448732 11697996
9.118914 10.881123 2.674883 11697996
10.859900 9.633569 0.353710 11697996
10.986404 10.540685 3.109156 11697996
8.812676 9.097575 3.959054 11697996
9.482314 9.410327 2.506769 11697996
10.742849 10.222260 2.468736 11697996
8.841822 9.492733 0.676034 11697996
10.249136 9.237868 3.714403 11697996
10.137465 9.134885 2.566924 11697996
10.388236 11.011714 2.575367 11697996
9.075645 9.502313 1.922429 11697996
10.071875 9.394756 2.229102 11697996
9.192196 9.394695 0.691663 11697996
11.045815 9.575813 3.955542 11697996
10.256351 10.731018 1.836649 11697996
11.036885 10.001097 2.391662 11697996
10.276886 10.961519 1.687471 11697996
9.638088 9.790793 3.330624 11697996
10.573232 8.887878 1.965572 11697996
9.269749 10.731953 1.506887 11697996
9.362531 9.275043 2.117419 11697996
9.123342 9.092877 3.235152 11697996
9.380748 10.506606 2.020286 11697996
11.073121 9.063936 2.313004 11697996
11.129278 9.889267 2.409854 11697996
9.337551 11.184282 2.922330 11697996
9.617536 11.198447 1.202108 11697996
9.109651 9.546463 3.197533 11697996
11.149610 8.935137 1.392596 11697996
10.236032 9.969788 1.678581 11697996
10.090817 10.493594 2.655852 11697996
9.356924 9.155262 0.693139 11697996
9.968293 9.425750 0.392159 11697996
9.100960 8.918600 1.412137 11697996
8.800961 10.335287 2.409120 11697996
9.767909 8.969331 2.948512 11697996
10.153112 10.940767 0.851483 11697996
11.059179 9.251641 3.997910 11697996
10.765434 8.985093 1.260363 11697996
9.632496 9.947252 2.838041 11697996
10.060406 9.335871 2.817962 11697996
10.080663 11.119547 3.061346 11697996
11.041507 10.889667 3.217125 11697996
9.414325 10.925681 1.015170 11697996
9.521131 10.755105 1.078331 11697996
8.747729 9.326725 0.082325 11697996
10.502114 10.757298 2.034862 11697996
10.445428 10.674116 2.442927 11697996
10.202112 9.081109 2.934903 11697996
10.328374 9.643784 3.723790 11697996
9.171865 10.717084 3.714386 11697996
9.702118 10.858820 2.572977 11697996
10.999353 9.880791 0.426679 11697996
10.598366 10.834173 3.344122 11697996
10.745249 10.266007 2.068127 11697996
10.385874 10.421008 0.335565 11697996
11.019969 10.439764 2.678052 11697996
9.705723 9.692466 2.603070 11697996
11.135666 10.938522 1.309140 11697996
9.369029 9.465225 3.155846 11697996
10.931538 8.912122 3.572280 11697996
11.215835 9.814503 1.970905 11697996
10.429373 10.322967 2.650616 11697996
9.658060 9.132162 0.419863 11697996
11.231767 10.436931 0.297693 11697996
9.981223 9.267590 0.969180 11697996
10.441851 10.344545 2.364458 11697996
10.809066 8.786581 1.213129 11697996
9.996339 9.058895 0.535649 11697996
9.697666 11.165154 0.841840 11697996
10.100163 9.160590 1.192181 11697996
8.879153 9.499039 1.570484 11697996
9.723038 8.918635 1.691477 11697996
9.803790 9.835755 1.021230 11697996
10.094487 10.846614 3.363699 11697996
10.278941 8.954016 1.154875 11697996
9.074365 10.198209 1.330326 11697996
11.104856 8.868307 2.020838 11697996
11.068388 9.320756 2.180943 11697996
11.050814 9.166800 3.958310 11697996
8.894423 10.407966 2.278535 11697996
8.878692 10.397540 0.531585 11697996
9.058040 11.126285 3.740277 11697996
9.190447 9.705714 0.822728 11697996
9.206496 10.759326 1.401033 11697996
9.336808 10.735126 1.328140 11697996
11.006749 10.227598 1.998214 11697996
10.367303 10.515528 2.553242 11697996
8.875203 10.221995 3.259156 11697996
9.460181 10.238870 3.581072 11697996
9.055818 10.932854 3.192565 11697996
11.123318 10.319254 0.731924 11697996
