# .PCD v0.7 - Point Cloud Data file format
VERSION 0.7
FIELDS x y z rgb
SIZE 4 4 4 4
TYPE F F F U
COUNT 1 1 1 1
WIDTH 1291
HEIGHT 1
VIEWPOINT 0 0 0 1 0 0 0
POINTS 1291
DATA ascii
9.606988 8.961063 2.795912 11697996
10.464808 11.217675 0.582874 11697996
11.118169 10.054768 1.926653 11697996
11.181876 9.743113 2.438138 11697996
10.582435 8.805527 1.203433 11697996
10.434370 11.016569 1.771859 11697996
11.193606 9.289137 0.396729 11697996
10.631606 10.630412 1.944687 11697996
9.721964 9.594160 1.422922 11697996
10.617397 9.773883 0.488185 11697996
10.781060 9.729120 0.212338 11697996
9.528750 11.213397 2.469768 11697996
9.548545 11.024495 2.365093 11697996
9.332582 8.751698 3.173938 11697996
10.855042 9.805698 1.074105 11697996
9.882116 10.634175 1.581321 11697996
9.914850 9.173474 3.315955 11697996
10.434093 10.981259 0.872230 11697996
8.793353 11.067426 0.100679 11697996
10.628972 8.941892 1.504826 11697996
10.602160 8.940957 2.474689 11697996
9.761034 9.294107 3.672107 11697996
11.079864 10.191962 2.010065 11697996
11.026608 11.080039 0.020695 11697996
11.103119 9.058625 1.997366 11697996
10.246511 9.768115 2.070691 11697996
10.042245 9.301579 0.210816 11697996
8.871903 9.173111 2.098653 11697996
9.651018 9.690168 0.201722 11697996
8.798870 9.529240 1.896170 11697996
10.509057 8.798215 1.758670 11697996
9.120460 9.581058 0.305736 11697996
11.017529 8.804147 3.808876 11697996
10.555725 8.992730 1.864982 11697996
10.147823 9.194814 2.570042 11697996
9.280604 8.973767 0.169337 11697996
9.902102 10.719777 2.461212 11697996
9.217488 10.609367 3.005901 11697996
9.907646 10.410708 1.865515 11697996
9.095042 9.673793 1.751201 11697996
9.688344 10.412850 0.371471 11697996
10.012364 10.868176 2.379062 11697996
10.726084 9.907164 2.177249 11697996
9.730254 10.416363 3.633549 11697996
9.562870 10.295519 3.942487 11697996
8.843884 10.695162 1.032860 11697996
10.060468 10.843818 1.498971 11697996
8.762402 9.675472 0.350609 11697996
8.902649 9.876146 1.384378 11697996
10.457500 8.943827 2.596742 11697996
10.644402 10.820252 0.091319 11697996
11.187733 10.214656 1.802339 11697996
10.708661 10.096079 0.543096 11697996
11.192016 8.772172 2.273248 11697996
10.973898 9.291716 0.429106 11697996
8.969522 10.436444 1.623385 11697996
10.573604 10.659397 0.990746 11697996
10.741221 9.994662 2.756339 11697996
10.767563 10.135670 1.634046 11697996
10.247055 10.703767 3.560777 11697996
10.280042 11.121959 3.114737 11697996
9.220710 10.740585 1.156303 11697996
11.194633 9.505086 0.037296 11697996
10.347638 8.806578 0.669379 11697996
9.857364 10.077978 3.785196 11697996
9.790643 9.981585 3.292473 11697996
10.844388 11.147303 1.446325 11697996
10.103799 8.919045 0.113337 11697996
10.152491 10.595891 1.199585 11697996
10.605317 9.287748 2.016155 11697996
10.894263 9.839042 1.295340 11697996
8.766282 10.596730 1.198975 11697996
10.654550 9.659352 1.823866 11697996
10.878630 9.716337 3.622782 11697996
9.673923 9.147067 3.465740 11697996
9.775928 8.896359 3.210823 11697996
11.203129 9.052148 3.917217 11697996
9.273133 9.152823 2.738773 11697996
10.359839 10.649990 1.011756 11697996
10.275987 10.110328 0.933911 11697996
11.137723 11.150322 3.645788 11697996
9.467303 11.014380 3.398733 11697996
10.498889 9.510749 2.857160 11697996
11.131539 9.708569 0.661457 11697996
9.998813 9.157353 2.443085 11697996
10.809573 9.848380 0.125473 11697996
10.415644 11.115599 0.730648 11697996
9.241900 9.408417 2.058830 11697996
10.713691 11.018042 0.798630 11697996
9.717981 8.924911 1.929094 11697996
11.141734 9.102580 2.906043 11697996
10.942322 9.785955 0.424092 11697996
10.659053 11.222035 2.734192 11697996
9.249853 10.956131 0.355023 11697996
9.033771 9.497306 0.693937 11697996
10.226733 9.446234 1.643906 11697996
9.935358 8.991261 0.000485 11697996
9.728198 9.048999 0.691219 11697996
10.764767 8.970808 0.520094 11697996
9.781260 11.068509 0.908634 11697996
11.153992 10.922891 1.851549 11697996
10.015417 8.788603 3.392215 11697996
8.890429 10.700539 2.174149 11697996
10.109662 8.907108 1.557252 11697996
10.562220 10.208259 2.160373 11697996
10.597778 10.141830 2.141977 11697996
10.960045 9.614589 3.895739 11697996
10.565705 10.765135 3.850957 11697996
8.996344 9.556770 2.323824 11697996
9.870698 10.225552 2.249017 11697996
9.953708 10.887574 2.894951 11697996
10.336786 9.284915 0.054905 11697996
9.800014 8.780647 3.450963 11697996
9.881245 8.793223 1.820831 11697996
10.595837 9.440155 0.948943 11697996
10.367039 10.204233 1.376361 11697996
9.859089 10.620711 0.911663 11697996
10.819604 8.889251 2.551778 11697996
10.847766 11.257716 3.674119 11697996
11.025702 10.746383 1.343069 11697996
10.583409 11.034675 3.503492 11697996
11.196733 10.865623 3.824118 11697996
10.886066 10.154946 2.259902 11697996
9.802731 10.593837 0.101996 11697996
10.644927 9.715488 3.073737 11697996
9.137363 10.196078 3.410183 11697996
11.184613 10.471214 3.696605 11697996
10.102269 10.826400 0.165319 11697996
9.425962 9.454205 0.204821 11697996
10.437505 10.243961 0.784428 11697996
10.253951 10.708275 0.013854 11697996
8.988830 11.069746 1.830383 11697996
9.322376 9.679133 0.131166 11697996
9.493059 8.800170 3.867337 11697996
10.314000 10.247592 3.765190 11697996
9.604883 11.013411 3.373169 11697996
11.166233 9.807040 0.825445 11697996
9.509451 9.732886 0.806794 11697996
10.569880 10.543768 2.061055 11697996
10.197539 8.841734 2.209122 11697996
10.003921 10.645037 1.636038 11697996
10.362741 9.824013 0.676722 11697996
9.822607 11.202424 0.431399 11697996
10.715231 9.753221 1.109290 11697996
10.464892 9.720226 3.578477 11697996
9.863496 10.530086 2.304396 11697996
11.233262 9.880322 0.341879 11697996
9.730778 9.299748 1.407890 11697996
9.021390 10.395413 3.615968 11697996
9.934587 9.075401 2.168167 11697996
11.233197 9.548594 1.020436 11697996
9.004537 9.932631 1.550129 11697996
11.200809 9.982124 0.307015 11697996
9.206050 11.118954 2.540258 11697996
10.827580 9.651436 1.817873 11697996
10.543667 10.542213 0.263700 11697996
10.703567 10.721735 2.415573 11697996
10.521066 10.085562 1.799198 11697996
11.187591 9.074902 0.982505 11697996
9.627098 11.121418 0.146443 11697996
9.583591 10.089877 3.731484 11697996
10.128377 9.701566 2.413848 11697996
9.416892 10.811625 2.708906 11697996
11.068267 10.523244 1.319530 11697996
9.043072 9.026642 0.966047 11697996
8.984489 10.332088 2.550117 11697996
10.803061 9.309355 0.049116 11697996
10.231427 10.620669 2.723074 11697996
9.622487 8.758516 3.559222 11697996
10.662308 10.464738 0.586277 11697996
10.665860 8.927292 2.195455 11697996
9.765219 10.065888 1.073914 11697996
10.113982 9.168797 2.358706 11697996
9.522511 9.720485 1.466528 11697996
8.999079 9.287910 0.248213 11697996
10.308164 9.874552 2.286152 11697996
10.776246 10.562939 3.726531 11697996
9.545660 9.253284 0.105566 11697996
9.571410 10.263698 0.480638 11697996
10.460648 9.274091 1.149083 11697996
9.448149 9.297049 2.786353 11697996
10.065742 9.190088 3.869564 11697996
11.144615 9.968852 2.699123 11697996
10.876362 9.592921 1.437796 11697996
10.123645 10.659772 3.788579 11697996
10.280518 10.749791 1.964324 11697996
10.973667 10.472854 1.417340 11697996
11.158093 10.809026 0.679078 11697996
9.752487 10.505673 1.073626 11697996
8.975691 9.868314 3.462995 11697996
11.073309 9.498206 3.160680 11697996
9.491103 10.723936 2.746805 11697996
10.184925 9.613191 1.957589 11697996
10.457641 9.149973 2.795994 11697996
11.233514 8.788866 3.287189 11697996
11.199966 9.957636 1.416238 11697996
10.390013 10.984750 0.420766 11697996
9.714491 11.121089 3.080286 11697996
9.631058 10.581669 1.495318 11697996
10.705025 9.468953 2.469245 11697996
10.212894 10.471270 3.934795 11697996
10.148015 10.873769 3.600916 11697996
9.173379 10.188948 2.138916 11697996
11.174788 11.004841 0.375437 11697996
10.319176 9.399620 3.722348 11697996
11.225149 9.629484 1.500930 11697996
10.339995 11.245378 3.771852 11697996
10.004527 9.610961 3.576338 11697996
11.140028 9.916639 0.666316 11697996
9.400793 9.103386 1.081156 11697996
10.155216 10.745893 0.416551 11697996
11.237774 10.316435 0.724832 11697996
9.723996 9.506988 1.452389 11697996
10.658987 9.051764 0.830869 11697996
9.321546 9.878505 3.615061 11697996
11.050396 9.631682 0.726492 11697996
9.551257 8.799041 3.810178 11697996
10.502319 9.232715 0.821746 11697996
8.988588 9.937778 3.919579 11697996
8.801976 11.168351 3.378524 11697996
8.806958 11.067579 1.008665 11697996
9.815092 10.019748 3.258861 11697996
9.856871 9.787010 1.656985 11697996
11.138753 10.777006 2.541527 11697996
9.132729 9.762957 2.286905 11697996
10.579933 9.298316 0.188454 11697996
10.905759 9.428965 0.047758 11697996
9.320857 9.395543 2.506839 11697996
11.168543 10.369917 1.035834 11697996
10.885814 10.185616 3.623603 11697996
10.501256 10.241618 3.473505 11697996
10.999659 9.514937 3.253616 11697996
9.946016 9.478640 3.827324 11697996
10.347753 10.590816 1.431800 11697996
8.997260 9.187226 2.715599 11697996
10.709801 9.387585 3.062893 11697996
10.915172 9.932183 1.389338 11697996
10.451872 8.830245 1.179475 11697996
10.723055 10.056118 1.321263 11697996
9.766491 9.836954 2.793298 11697996
11.109533 9.195431 0.640835 11697996
10.985738 11.243549 0.852687 11697996
9.140021 8.765772 1.655468 11697996
9.500738 11.139702 2.103258 11697996
10.740730 9.491800 1.084965 11697996
9.029283 9.342759 2.122578 11697996
10.369968 8.980256 1.285479 11697996
9.572639 9.608379 0.065793 11697996
10.356586 10.114528 1.591300 11697996
10.517424 9.551620 2.794526 11697996
11.058359 10.885863 1.746737 11697996
10.768329 11.115187 3.540836 11697996
9.434960 9.078174 0.060837 11697996
9.586961 9.005825 2.094931 11697996
10.037829 9.791939 3.304520 11697996
9.321642 10.270132 1.509756 11697996
8.889019 11.214030 2.853472 11697996
9.686536 9.365602 1.637134 11697996
9.255368 9.584248 3.874673 11697996
9.654631 8.868231 3.194660 11697996
10.322099 10.875748 2.031149 11697996
9.815120 9.379793 0.826348 11697996
9.309463 11.139002 1.984634 11697996
10.938893 9.248535 3.371920 11697996
9.580828 9.666749 3.061224 11697996
9.332103 9.851832 1.934578 11697996
9.012953 9.390637 1.654244 11697996
8.861100 10.376358 3.496946 11697996
9.003442 9.294454 2.452703 11697996
9.324407 9.891405 3.710873 11697996
10.497689 10.901807 3.669745 11697996
10.053985 10.344535 2.948984 11697996
10.077876 10.726302 0.045207 11697996
10.610479 9.225269 2.070155 11697996
8.767168 11.201983 0.415357 11697996
9.700795 10.806347 0.026479 11697996
10.931447 9.037026 0.995369 11697996
9.335778 8.945653 1.230513 11697996
10.927607 9.062634 3.800191 11697996
10.923764 10.884845 1.227571 11697996
9.874959 9.118844 3.934394 11697996
8.784345 9.307628 3.113795 11697996
10.428840 9.296783 0.788231 11697996
10.279566 9.303869 1.160416 11697996
10.936275 9.149167 0.382424 11697996
9.144622 9.941092 1.530267 11697996
9.811809 11.138480 2.219792 11697996
10.488269 10.920100 2.288020 11697996
9.524774 10.612778 1.248600 11697996
10.233591 9.754913 3.930675 11697996
9.457759 10.157378 1.382581 11697996
9.890098 10.711735 0.382690 11697996
10.105039 9.293855 3.644410 11697996
11.037907 9.925747 1.055445 11697996
10.685975 10.121795 2.399739 11697996
9.500403 10.002509 1.710583 11697996
11.046669 9.844962 2.153019 11697996
11.239955 11.099627 1.086369 11697996
11.121871 11.122713 3.707808 11697996
11.162437 10.910761 3.059934 11697996
9.338326 9.637774 3.013089 11697996
8.870966 10.291296 2.775060 11697996
10.589782 8.953988 1.546847 11697996
11.134706 11.096152 2.237486 11697996
8.800938 10.777336 1.967525 11697996
10.442128 9.458493 1.453326 11697996
9.826876 10.189328 0.157661 11697996
8.895617 10.776937 3.842304 11697996
10.498916 9.114873 3.238658 11697996
10.972147 10.188751 3.536286 11697996
11.199083 8.867142 1.518048 11697996
10.936022 11.046732 0.757046 11697996
10.958978 9.731565 3.092427 11697996
10.585637 10.401824 3.597107 11697996
10.811728 10.271303 3.866435 11697996
9.515443 9.631064 0.634836 11697996
10.158397 10.547529 2.059842 11697996
9.992923 9.258493 0.606885 11697996
9.849261 8.916731 1.375044 11697996
8.762417 10.327848 1.050167 11697996
9.255733 11.093765 2.108428 11697996
10.433481 9.915080 1.964820 11697996
9.758415 9.821511 0.727445 11697996
9.441092 9.857648 2.373992 11697996
10.636542 9.452811 0.327919 11697996
10.570956 9.354147 1.847267 11697996
10.380183 11.142436 2.734343 11697996
10.396826 11.022253 2.465216 11697996
10.028200 10.234999 2.994593 11697996
9.688245 9.915520 1.224362 11697996
9.488404 10.670053 1.526671 11697996
9.037745 9.881233 2.711855 11697996
10.186777 9.540061 0.856172 11697996
10.775058 10.625793 2.010187 11697996
11.111653 10.561644 1.205440 11697996
10.217984 10.629439 3.695878 11697996
9.517474 9.418926 3.634854 11697996
10.470932 8.819842 2.592124 11697996
9.040274 10.149720 3.887497 11697996
10.869260 10.103575 3.934556 11697996
10.431233 10.811296 0.070820 11697996
11.059464 9.400020 3.854222 11697996
10.426536 10.263031 0.846269 11697996
11.180114 10.580537 3.761750 11697996
10.597579 9.459395 3.029818 11697996
10.744643 8.919456 3.472498 11697996
11.013591 9.804172 1.047538 11697996
9.311374 10.816362 0.616192 11697996
9.837279 9.962446 3.151324 11697996
8.971906 8.807813 3.672471 11697996
11.265864 10.281788 2.790806 11697996
9.664491 10.987907 2.398123 11697996
10.509487 9.808138 2.689656 11697996
10.236403 10.739508 2.986359 11697996
8.844142 8.868057 2.778925 11697996
10.616782 11.095749 1.927210 11697996
8.787051 9.045008 2.682050 11697996
9.297272 10.472264 2.142656 11697996
9.459148 9.002954 0.710531 11697996
9.208611 9.272189 2.191972 11697996
10.782524 9.250276 3.677699 11697996
11.159543 9.616311 0.285668 11697996
9.943860 10.397529 3.560834 11697996
9.307856 10.406210 2.235400 11697996
9.606191 9.068744 2.234135 11697996
10.645450 10.648129 0.045828 11697996
11.064526 11.168521 2.813847 11697996
10.676680 11.228092 0.039073 11697996
10.797274 9.995867 3.985143 11697996
10.170194 10.776595 3.851503 11697996
9.889251 8.772964 1.259838 11697996
10.919581 8.957332 3.205604 11697996
8.829033 9.486055 1.474334 11697996
9.971991 8.936698 1.274803 11697996
9.081720 10.322057 0.439665 11697996
10.761265 9.155456 3.299043 11697996
10.157822 9.557872 2.053595 11697996
9.688663 10.061831 3.965168 11697996
11.194357 11.188131 3.970023 11697996
9.810373 9.230066 3.472562 11697996
11.099883 9.756531 1.380495 11697996
9.071537 9.892524 2.941623 11697996
8.790533 10.474282 3.240262 11697996
10.374094 9.272516 3.383541 11697996
10.671942 9.547263 1.768094 11697996
10.395763 8.800292 1.748215 11697996
10.695541 9.887699 2.273192 11697996
8.831674 9.316175 2.991437 11697996
9.819126 10.852980 3.075826 11697996
9.517007 9.606534 3.549717 11697996
9.950588 9.756095 1.470818 11697996
8.888399 11.109694 3.030463 11697996
9.014967 10.341662 1.956414 11697996
8.731692 10.713166 0.143079 11697996
9.825599 9.305376 2.511638 11697996
11.165636 9.373263 1.272686 11697996
9.229874 9.876541 2.028422 11697996
8.951818 11.005130 0.531551 11697996
10.104187 10.017760 2.239372 11697996
9.803629 10.276772 3.078250 11697996
11.050098 10.603456 3.597622 11697996
8.817160 9.063903 2.025636 11697996
9.805708 8.916433 0.520401 11697996
10.401104 8.993930 3.381126 11697996
9.893398 10.251926 1.540957 11697996
10.285512 8.884535 1.466553 11697996
11.040314 9.277687 1.367259 11697996
10.219219 10.217800 3.174783 11697996
9.930771 9.194719 2.507025 11697996
10.437749 10.361780 1.360901 11697996
11.007545 10.924834 1.364975 11697996
9.030918 10.400875 0.693672 11697996
9.119792 10.264078 1.640367 11697996
8.996247 9.294896 0.119096 11697996
10.849435 9.147363 1.170084 11697996
10.402843 10.180804 2.240714 11697996
9.433713 10.823532 1.017414 11697996
8.944358 10.668526 1.386425 11697996
10.997759 10.733910 0.358858 11697996
9.999164 10.173814 2.646446 11697996
9.317924 10.705736 2.811401 11697996
10.870338 8.974389 3.841610 11697996
10.904872 10.069049 2.560761 11697996
9.755527 9.929663 3.935574 11697996
11.170310 11.023329 2.139832 11697996
10.451253 10.341518 1.364735 11697996
10.572277 9.278063 1.157965 11697996
10.763450 9.184083 2.786746 11697996
8.900478 10.796511 0.584636 11697996
10.392316 8.943927 2.962067 11697996
9.513855 9.889980 1.428778 11697996
9.387928 9.632671 0.389566 11697996
10.844108 10.471478 3.633605 11697996
10.613832 9.795130 3.867926 11697996
8.795195 10.856660 2.198941 11697996
9.666402 9.810227 2.981375 11697996
9.038584 8.786139 2.588857 11697996
11.070170 9.662394 1.599751 11697996
10.742790 10.852674 0.133525 11697996
9.386158 11.114055 2.726101 11697996
10.296066 10.160498 2.560346 11697996
9.547886 9.550732 2.028828 11697996
8.883004 9.984684 1.962087 11697996
9.120241 10.737901 0.902522 11697996
8.816939 10.801520 1.719227 11697996
9.808902 9.961490 2.032449 11697996
10.314516 8.954000 1.751931 11697996
9.516634 9.900415 0.555244 11697996
9.326348 9.632071 0.739181 11697996
8.845126 10.260448 3.170615 11697996
10.461816 10.274079 3.685220 11697996
10.780620 10.770018 0.043189 11697996
10.263084 10.165533 0.490906 11697996
11.021700 9.874766 1.908635 11697996
9.794269 9.264351 2.229741 11697996
10.071838 9.036810 0.070692 11697996
9.682819 10.045054 0.921896 11697996
10.585554 10.070420 1.583934 11697996
9.259120 11.101907 2.438717 11697996
9.692880 10.098286 0.763489 11697996
9.919821 10.887631 0.172170 11697996
10.413943 10.496765 2.075628 11697996
9.163445 10.026002 0.481453 11697996
8.850347 11.020353 0.867857 11697996
11.090545 9.391260 0.789687 11697996
10.153434 9.242107 2.605322 11697996
10.971891 10.856946 0.497263 11697996
10.460144 11.014280 2.141101 11697996
8.984632 10.301517 3.563587 11697996
9.413972 9.606384 0.138268 11697996
11.090790 9.008090 3.044287 11697996
11.111223 8.959949 3.901978 11697996
8.845604 10.510955 0.385331 11697996
8.885461 9.475183 0.777781 11697996
10.299779 11.148232 3.008379 11697996
8.782124 10.216880 0.860471 11697996
8.796099 8.791427 3.822623 11697996
11.223294 10.554731 2.116555 11697996
10.405954 9.013209 3.176792 11697996
9.336897 9.216017 0.512587 11697996
10.939341 9.730937 3.368323 11697996
10.618360 10.419008 0.426462 11697996
9.774012 8.963802 3.769369 11697996
9.280456 9.399177 2.399414 11697996
9.096744 9.242064 3.890355 11697996
9.795446 9.775157 2.005054 11697996
10.475077 10.554250 0.025824 11697996
9.545567 10.843282 1.260043 11697996
10.347207 10.418202 2.620669 11697996
11.005065 10.969727 0.624983 11697996
9.237463 9.489628 1.113746 11697996
9.554621 9.295294 2.827810 11697996
9.621514 10.381420 1.412175 11697996
10.103164 10.938753 3.174537 11697996
11.170524 9.781613 0.023749 11697996
9.458959 9.525263 0.967400 11697996
8.962839 10.685174 1.251494 11697996
9.086360 9.084755 3.666065 11697996
10.867785 9.797668 2.444468 11697996
11.201069 8.912818 3.980853 11697996
9.969496 10.819086 1.878413 11697996
8.916123 9.001507 1.009688 11697996
9.684008 10.173704 1.030094 11697996
10.324960 9.575644 1.533993 11697996
10.832956 10.385085 1.356854 11697996
10.262629 9.371637 3.979867 11697996
10.104149 9.543312 3.289709 11697996
9.016497 10.402842 0.938162 11697996
9.873640 9.220404 3.750897 11697996
11.118135 8.989519 2.116778 11697996
10.792939 10.799306 0.370127 11697996
9.162254 10.337907 0.878849 11697996
9.374754 11.065750 3.184204 11697996
9.807354 9.003614 0.136892 11697996
10.022557 9.658360 0.407921 11697996
8.846911 10.051612 2.492258 11697996
9.943991 11.086435 0.896519 11697996
10.446999 9.951247 0.054878 11697996
10.300084 9.601292 3.015393 11697996
10.067430 9.233391 3.331976 11697996
10.315212 9.823810 3.838197 11697996
9.300721 11.118550 1.627057 11697996
9.076169 10.547361 1.410705 11697996
8.861383 9.941199 2.247829 11697996
9.859921 10.232772 2.331025 11697996
10.843203 10.567864 1.410318 11697996
10.923347 9.914918 3.687170 11697996
10.297251 10.020212 2.697052 11697996
8.858109 9.637848 1.983307 11697996
10.945270 10.783086 1.447464 11697996
10.813641 8.826614 3.009611 11697996
9.075344 10.280729 3.209789 11697996
10.810386 8.971414 1.601625 11697996
9.221066 10.897734 0.486152 11697996
10.801630 9.927626 0.053864 11697996
10.726244 10.357589 3.572192 11697996
10.871935 10.983357 2.308395 11697996
10.033162 9.535823 3.332568 11697996
10.967102 10.263657 0.250125 11697996
8.896294 9.306075 2.665602 11697996
9.437763 8.823868 2.990996 11697996
9.400226 10.160688 1.942874 11697996
10.765146 10.807848 3.223012 11697996
8.952600 8.917669 0.469661 11697996
10.841487 10.673326 3.107943 11697996
9.944720 10.085678 3.289626 11697996
11.173479 10.627095 2.852345 11697996
11.058089 10.048066 1.952077 11697996
9.233047 9.992904 2.805255 11697996
10.584896 10.773357 3.207970 11697996
9.371338 10.746267 1.745340 11697996
11.189758 9.418755 3.537678 11697996
10.966557 9.618286 1.005328 11697996
8.899563 11.033360 0.434716 11697996
8.809371 10.902834 0.114165 11697996
10.216017 10.033399 1.320964 11697996
10.629887 10.271877 1.490016 11697996
8.948545 9.995800 3.800833 11697996
10.474785 10.604329 1.805227 11697996
9.632425 11.128784 2.694623 11697996
10.891450 9.687164 3.120487 11697996
8.843929 10.905032 3.898348 11697996
10.849323 10.448328 1.867794 11697996
10.719588 9.680787 1.111362 11697996
9.820492 9.433157 0.381938 11697996
10.088056 10.074471 2.729564 11697996
9.773229 11.165966 0.746570 11697996
8.967159 10.009973 3.965284 11697996
10.505327 9.820015 3.125513 11697996
9.389173 9.768825 0.675042 11697996
8.974801 11.194850 3.078160 11697996
9.264025 9.063437 3.727146 11697996
11.134266 9.024166 2.121999 11697996
11.196167 10.813019 0.949033 11697996
10.857272 10.595912 3.716266 11697996
9.093837 9.663426 3.984144 11697996
10.747382 10.589253 2.170297 11697996
10.623296 10.580724 0.468710 11697996
9.206481 9.027994 1.660053 11697996
9.305956 9.931120 3.821263 11697996
8.883952 9.641191 1.839361 11697996
10.689482 8.947067 1.584915 11697996
10.698065 10.480055 2.353274 11697996
10.644431 9.814530 1.865390 11697996
10.879412 10.073195 4.002160 11697996
9.047942 9.459827 2.791364 11697996
10.431290 9.710955 3.181612 11697996
10.773442 9.016562 2.155563 11697996
9.097402 10.814664 0.128185 11697996
9.260731 11.085349 3.208075 11697996
9.909609 10.937027 0.803210 11697996
10.868443 10.757851 0.874195 11697996
9.171921 9.456206 1.059446 11697996
10.415936 9.625298 3.626849 11697996
10.897582 11.190273 0.736271 11697996
9.235376 11.131885 2.222773 11697996
9.606118 10.655684 1.785108 11697996
10.047709 9.906392 3.966806 11697996
9.383541 10.945904 2.701650 11697996
10.839347 10.513065 3.175050 11697996
10.774507 10.897599 3.089375 11697996
9.728437 10.535032 1.329688 11697996
10.804180 9.331264 1.134340 11697996
9.963686 9.322048 0.538129 11697996
9.018021 9.597801 1.075413 11697996
9.164446 9.165369 0.202762 11697996
9.282775 10.293644 3.860329 11697996
9.745173 8.923311 0.463182 11697996
9.170208 8.731739 2.289107 11697996
10.879556 9.154154 2.959563 11697996
8.900116 9.701049 3.882057 11697996
9.582570 10.132440 3.680040 11697996
11.060419 9.217467 0.939692 11697996
10.703001 9.469557 1.239823 11697996
9.831607 9.603425 1.586053 11697996
8.773002 11.137378 2.169212 11697996
11.158384 10.249445 2.369791 11697996
11.192874 9.606864 1.188337 11697996
11.230625 9.794215 0.726271 11697996
9.160807 9.779223 2.520885 11697996
9.145416 10.318542 3.228492 11697996
9.508577 9.421195 2.865153 11697996
8.788610 9.525974 3.753825 11697996
10.167983 10.850481 2.587053 11697996
10.598400 10.282840 3.815289 11697996
10.042422 10.122185 3.906274 11697996
8.824427 8.905345 1.717039 11697996
10.238553 8.972397 0.244625 11697996
9.120595 10.979059 0.776181 11697996
8.786244 8.885070 3.107969 11697996
9.917665 8.911613 3.168848 11697996
11.162626 10.941479 2.238768 11697996
9.255797 8.753798 0.914447 11697996
8.972638 9.106298 1.590149 11697996
9.314570 10.264405 1.388013 11697996
10.501256 8.802232 3.271521 11697996
10.721949 9.825414 3.699375 11697996
9.570217 9.732269 0.406269 11697996
9.376075 8.827627 3.314067 11697996
10.697371 9.558824 2.393442 11697996
10.163758 9.509444 3.973368 11697996
9.577061 9.805122 1.640105 11697996
9.787804 10.127849 3.020889 11697996
10.006864 9.412679 1.875068 11697996
10.743487 10.942059 1.400558 11697996
9.964949 8.825742 1.508508 11697996
9.220593 10.397512 1.896930 11697996
9.136894 11.068871 2.057917 11697996
10.012385 9.817327 3.665616 11697996
11.037376 10.112370 0.195317 11697996
9.359237 11.010909 1.398043 11697996
9.861205 10.206535 3.392992 11697996
11.247313 10.667897 0.209377 11697996
10.010614 9.591637 1.257641 11697996
10.880030 9.401328 2.359483 11697996
10.600648 8.778819 1.601379 11697996
8.896712 10.820773 2.351235 11697996
9.055801 9.458162 1.785253 11697996
9.219821 8.855882 3.773202 11697996
9.828652 9.077912 1.106900 11697996
9.611717 8.828112 3.056853 11697996
10.603612 8.773073 2.817095 11697996
11.184275 9.444680 0.290713 11697996
11.246089 9.890171 2.882071 11697996
10.166860 11.208773 0.642992 11697996
10.019960 10.772048 1.976733 11697996
9.781567 10.523056 1.105590 11697996
10.713560 9.831533 2.508136 11697996
10.750214 8.857896 1.765379 11697996
10.703912 9.189588 0.587328 11697996
10.395839 10.736151 0.652123 11697996
8.766822 9.245927 3.450567 11697996
9.938754 10.388874 1.008846 11697996
10.031662 10.824764 1.660018 11697996
8.860203 10.290852 3.853345 11697996
9.443230 10.049593 1.562075 11697996
10.828021 9.806108 1.606951 11697996
8.802949 8.854993 1.055635 11697996
9.395845 11.070910 1.679963 11697996
10.888154 9.479441 1.610577 11697996
8.826617 11.224053 2.982171 11697996
8.873286 10.107923 0.924070 11697996
10.626601 10.733100 0.855778 11697996
9.075561 8.801173 2.632900 11697996
10.064758 9.542460 2.611111 11697996
8.824512 10.113425 3.378749 11697996
10.607125 9.479569 2.521398 11697996
8.888013 9.822129 0.517749 11697996
9.568385 10.186387 3.943452 11697996
8.792750 9.917048 1.283988 11697996
9.208872 10.309243 3.093467 11697996
11.199879 11.035443 0.882509 11697996
9.798684 9.871118 0.334443 11697996
9.638152 9.880202 0.240237 11697996
11.003910 9.965809 1.369596 11697996
9.231413 11.188419 0.612617 11697996
11.083117 11.132368 2.989583 11697996
11.091046 10.695891 1.320030 11697996
10.463653 10.494557 0.242363 11697996
10.034540 11.205248 1.500527 11697996
10.555949 10.228533 3.790100 11697996
9.403614 10.500959 0.567519 11697996
10.581992 9.405529 3.120765 11697996
10.237144 10.726214 0.755096 11697996
8.840163 10.060983 1.660570 11697996
11.125174 9.749292 1.509769 11697996
8.930445 9.307310 3.417686 11697996
10.282320 8.831086 3.588191 11697996
10.456530 8.815879 3.926409 11697996
9.254106 9.139068 2.103140 11697996
10.434217 10.825951 0.612539 11697996
10.683594 9.693615 0.441846 11697996
10.660987 9.859860 1.896806 11697996
9.408397 9.798225 3.606113 11697996
8.931984 9.178442 2.860964 11697996
10.332632 9.199944 2.870961 11697996
10.040264 11.052044 3.102343 11697996
10.338382 10.581258 3.458659 11697996
10.090506 10.118468 0.894053 11697996
9.934194 9.589993 0.424193 11697996
9.504716 11.008180 1.465265 11697996
10.158109 8.893765 1.155419 11697996
10.112689 11.142619 2.668660 11697996
10.103045 9.382084 2.257128 11697996
9.003649 8.846422 0.248170 11697996
9.245338 9.259233 2.059151 11697996
9.312628 10.886601 0.852025 11697996
11.194331 9.673315 1.945612 11697996
10.549776 11.229441 2.001553 11697996
9.201343 11.040547 0.592556 11697996
8.808742 11.221962 0.074668 11697996
9.421195 10.115188 0.752434 11697996
10.579617 10.535272 2.641418 11697996
10.757230 10.334913 1.031381 11697996
9.573294 11.041995 1.512285 11697996
9.051612 9.019609 1.557502 11697996
9.687204 11.005202 1.290751 11697996
9.775757 9.060585 0.611556 11697996
9.274744 8.990444 2.024438 11697996
10.932414 10.420691 0.065500 11697996
10.610874 9.234642 1.795022 11697996
9.998775 9.922724 1.123607 11697996
10.313110 10.484670 3.142379 11697996
9.948082 10.970226 0.360499 11697996
9.118996 10.555668 3.462795 11697996
9.639215 11.233968 3.379205 11697996
8.985371 10.566282 0.454658 11697996
10.127342 8.868187 3.255972 11697996
10.763479 10.305270 0.751930 11697996
10.100089 8.862060 2.487980 11697996
11.220569 9.070485 0.456134 11697996
9.530850 9.222364 0.633092 11697996
11.236412 9.020341 3.280979 11697996
9.152489 9.730209 0.767126 11697996
9.312580 9.219438 3.978142 11697996
10.466452 9.247168 2.523532 11697996
9.824069 9.356404 1.006552 11697996
10.064525 11.226935 2.942333 11697996
11.091013 10.357976 0.278190 11697996
10.822407 9.254149 1.008201 11697996
10.603197 10.677773 3.147226 11697996
10.556161 10.918703 1.446113 11697996
9.952003 9.053590 0.771217 11697996
10.711529 9.759089 0.210984 11697996
9.032408 9.983994 0.455501 11697996
10.824883 9.641090 1.419952 11697996
10.631609 11.221312 3.929077 11697996
10.642636 9.632957 3.788867 11697996
11.189055 9.919678 2.966769 11697996
11.097753 9.980362 3.047362 11697996
8.843104 10.866204 2.779839 11697996
11.088305 9.856627 2.776447 11697996
9.289786 9.768231 3.428586 11697996
9.300896 8.960783 3.414197 11697996
9.832809 10.703360 2.536630 11697996
10.913721 9.213418 0.159386 11697996
10.692486 10.524648 1.286772 11697996
9.911470 10.696724 2.342498 11697996
9.122066 10.406630 1.793744 11697996
10.214502 9.326478 2.213862 11697996
11.056468 10.168111 0.210906 11697996
10.060401 11.178069 2.974794 11697996
10.628935 11.031857 3.822007 11697996
9.744780 8.822326 1.522808 11697996
9.591166 9.493541 1.383047 11697996
10.682725 10.736336 1.624809 11697996
9.580604 10.489058 2.733752 11697996
10.242549 11.264905 0.284410 11697996
9.630425 8.855162 3.297547 11697996
9.530638 10.294827 3.152055 11697996
10.323178 9.109082 3.338243 11697996
9.395268 10.330229 2.970305 11697996
9.598236 10.655245 1.743421 11697996
9.105237 10.784138 2.145797 11697996
10.794162 10.506693 0.929230 11697996
10.811616 10.942485 3.700632 11697996
10.675399 10.957346 1.697417 11697996
11.215578 9.281233 3.301120 11697996
9.892110 11.244395 1.754940 11697996
8.845135 8.797646 2.494905 11697996
9.172188 10.109207 3.120187 11697996
10.574503 10.058650 0.206588 11697996
8.887822 10.175769 3.394973 11697996
10.292310 9.528665 0.832446 11697996
10.238787 8.975482 1.423129 11697996
9.619829 8.876763 3.593212 11697996
9.753927 9.829148 1.561118 11697996
10.894983 9.966945 3.058894 11697996
10.686649 10.328570 3.277591 11697996
10.796219 10.495747 0.691579 11697996
10.762776 10.243926 3.857240 11697996
11.083351 9.490768 1.689431 11697996
9.514359 10.800468 2.575466 11697996
10.245019 8.771351 3.127614 11697996
11.164315 9.493652 2.666713 11697996
10.304275 10.052783 2.067349 11697996
10.354377 10.037730 0.985538 11697996
8.875820 10.981434 3.438651 11697996
10.663115 9.919358 1.796792 11697996
9.489678 10.010983 2.181947 11697996
10.144539 10.715731 3.267618 11697996
9.293493 10.469921 1.887972 11697996
9.235072 9.693679 2.741867 11697996
9.807176 9.134792 3.577868 11697996
9.610721 11.031853 2.001030 11697996
10.591113 8.882774 1.324779 11697996
8.923979 11.125604 0.036183 11697996
11.037576 10.369336 2.087299 11697996
8.873833 11.161756 0.028038 11697996
9.266203 11.111554 1.583924 11697996
10.134513 9.198779 1.465167 11697996
9.196032 10.597197 0.528892 11697996
10.797064 10.963671 3.789149 11697996
10.155610 9.793152 2.653305 11697996
10.959480 10.434011 2.338442 11697996
11.159340 9.897435 2.106753 11697996
9.991271 10.215534 2.191958 11697996
9.998156 10.217403 2.044404 11697996
8.880887 9.529441 0.940018 11697996
10.378940 11.015065 2.166695 11697996
11.010584 10.933849 1.670179 11697996
9.959225 8.843825 0.496476 11697996
9.324790 10.355174 3.308686 11697996
11.134734 9.212873 3.212068 11697996
11.080750 10.617996 2.347725 11697996
10.843069 11.169251 1.169681 11697996
10.783841 9.582921 2.726747 11697996
9.999948 10.831881 1.070825 11697996
11.072605 10.026549 1.251930 11697996
8.982862 10.063708 2.556014 11697996
10.068617 10.440310 0.452739 11697996
10.839133 9.918542 3.406655 11697996
9.837551 10.377719 3.086934 11697996
10.090959 11.166341 1.622926 11697996
9.554972 9.954823 1.535715 11697996
10.317891 10.209672 3.225398 11697996
10.924303 10.699336 3.180110 11697996
10.699288 10.676813 0.923636 11697996
10.698909 10.052486 1.552808 11697996
9.720675 10.676147 3.975418 11697996
10.796349 9.563227 1.404778 11697996
9.091897 10.135214 3.886082 11697996
9.191810 9.533866 0.245054 11697996
10.947953 10.905709 1.630299 11697996
10.149261 10.249647 2.386960 11697996
9.573242 10.957336 1.790816 11697996
10.130836 10.700172 0.211971 11697996
10.896169 8.887225 0.773603 11697996
9.129035 10.875630 0.700169 11697996
11.002343 11.001177 0.490640 11697996
10.098502 10.180800 3.201415 11697996
10.405458 9.976221 0.194088 11697996
10.238035 8.919746 1.555867 11697996
9.313724 8.917271 1.463745 11697996
8.973644 10.315229 3.095287 11697996
10.494363 9.329082 1.534705 11697996
9.165939 9.318317 3.709066 11697996
9.479121 9.195897 0.595029 11697996
10.307343 11.057858 1.173106 11697996
10.509563 9.139748 1.486943 11697996
11.148501 10.376987 1.896178 11697996
10.607266 8.995761 3.684637 11697996
10.911115 10.833189 0.827639 11697996
10.880377 9.192911 1.493547 11697996
9.556954 11.193688 1.814946 11697996
8.939056 10.199028 1.800454 11697996
11.220760 10.118736 0.240488 11697996
10.011224 10.977118 3.626750 11697996
10.618418 10.327356 0.281367 11697996
8.849150 10.543034 0.598097 11697996
8.995570 8.860073 1.473311 11697996
10.925586 9.462618 0.172419 11697996
10.399856 9.472671 3.743513 11697996
10.224076 10.422044 0.760374 11697996
10.399528 10.770253 0.153664 11697996
10.785642 9.173641 1.212329 11697996
10.963904 9.808177 3.752957 11697996
10.486446 9.566814 1.575083 11697996
8.848426 8.935374 0.565027 11697996
10.155687 10.262711 3.665645 11697996
9.238585 10.985364 0.672150 11697996
10.791729 8.831246 0.562798 11697996
8.979746 10.724788 2.529219 11697996
10.707560 9.463717 3.114251 11697996
9.558806 9.765098 0.837791 11697996
10.972116 11.208923 2.357410 11697996
9.618178 10.549001 2.846449 11697996
9.658104 11.124526 1.276784 11697996
9.780930 11.124292 2.718807 11697996
10.327945 10.298711 3.017674 11697996
10.415361 10.659962 3.510126 11697996
10.948031 10.696509 1.428012 11697996
9.120084 10.901539 2.654597 11697996
10.843844 9.650593 0.381241 11697996
10.984003 10.509146 3.116111 11697996
8.798832 9.098157 3.981344 11697996
9.471853 9.454603 2.509243 11697996
10.730536 10.267126 2.464426 11697996
8.826952 9.477059 0.669048 11697996
10.263742 9.257534 3.723903 11697996
10.138756 9.112488 2.560891 11697996
10.364285 10.998433 2.571676 11697996
9.085308 9.508246 1.914793 11697996
10.053490 9.381343 2.244439 11697996
9.158784 9.381312 0.647681 11697996
11.049114 9.586877 3.981544 11697996
10.276100 10.767395 1.829993 11697996
10.997153 9.984269 2.423013 11697996
10.292044 10.925382 1.697955 11697996
9.661912 9.772522 3.318912 11697996
10.568183 8.872619 1.972574 11697996
9.243936 10.729750 1.545851 11697996
9.372802 9.253410 2.061444 11697996
9.138045 9.122273 3.265365 11697996
9.381786 10.487373 2.029346 11697996
11.110158 9.058517 2.291786 11697996
11.157008 9.901042 2.441881 11697996
9.322579 11.181860 2.953919 11697996
9.621378 11.215463 1.213585 11697996
9.099306 9.536342 3.176089 11697996
11.191004 8.928923 1.389670 11697996
10.235089 10.009440 1.713815 11697996
10.079072 10.463507 2.647271 11697996
9.352393 9.176203 0.729864 11697996
9.963017 9.409872 0.361740 11697996
9.077830 8.908144 1.398412 11697996
8.782727 10.323905 2.406619 11697996
9.757160 8.939945 2.978360 11697996
10.150308 10.978239 0.855079 11697996
11.041729 9.252639 3.983900 11697996
10.763999 9.002446 1.258335 11697996
9.642462 9.941155 2.845104 11697996
10.096285 9.368834 2.825197 11697996
10.078691 11.120887 3.075115 11697996
11.022081 10.871739 3.199316 11697996
9.438046 10.919499 1.025551 11697996
9.513850 10.765442 1.073596 11697996
8.773253 9.313893 0.065409 11697996
10.496576 10.786110 2.059680 11697996
10.465164 10.642510 2.434439 11697996
10.187949 9.083532 2.937475 11697996
10.301250 9.612748 3.710745 11697996
9.159774 10.711562 3.719549 11697996
9.719119 10.875280 2.565617 11697996
10.980879 9.884290 0.426136 11697996
10.596926 10.843154 3.371622 11697996
10.751837 10.236090 2.090509 11697996
10.363965 10.429708 0.334306 11697996
11.019488 10.456902 2.634483 11697996
9.686313 9.656988 2.613108 11697996
11.130967 10.921360 1.300901 11697996
9.374028 9.468879 3.183980 11697996
10.897719 8.916996 3.580310 11697996
11.208914 9.817662 1.953178 11697996
10.444738 10.316489 2.651393 11697996
9.653149 9.137664 0.447252 11697996
11.238403 10.413637 0.307805 11697996
9.973408 9.282969 0.996807 11697996
10.395401 10.352152 2.396884 11697996
10.811360 8.772296 1.211316 11697996
9.970613 9.036156 0.558180 11697996
9.675844 11.202992 0.809290 11697996
10.122739 9.192683 1.161660 11697996
8.911900 9.510786 1.553228 11697996
9.692818 8.891166 1.719146 11697996
9.818542 9.889853 1.062935 11697996
10.109724 10.847577 3.375206 11697996
10.254254 8.962227 1.113514 11697996
9.071404 10.201049 1.317162 11697996
11.090661 8.847629 1.994730 11697996
11.055645 9.325316 2.194543 11697996
11.064262 9.190764 3.981064 11697996
8.902166 10.421155 2.250139 11697996
8.872690 10.428711 0.498434 11697996
9.040331 11.081081 3.748859 11697996
9.207718 9.671701 0.829618 11697996
9.227640 10.800472 1.401670 11697996
9.346496 10.767745 1.337478 11697996
10.988507 10.267829 1.973708 11697996
10.362823 10.517641 2.553395 11697996
8.865056 10.245714 3.313301 11697996
9.507768 10.225875 3.561113 11697996
9.074736 10.949789 3.172309 11697996
11.125362 10.286207 0.712451 11697996
9.417835 9.041039 2.429888 11697996
9.118865 10.031416 1.059516 11697996
11.087637 9.467833 2.076680 11697996
10.799722 9.517296 0.310793 11697996
9.780891 10.382581 1.831014 11697996
10.264174 10.129620 1.179731 11697996
8.749248 10.456987 3.111187 11697996
10.320855 9.268538 1.394111 11697996
9.765792 9.277514 0.017307 11697996
9.266256 9.955262 2.836910 11697996
10.567170 9.564525 0.892716 11697996
10.208499 10.189504 3.557193 11697996
8.911811 11.100901 1.908408 11697996
11.030958 9.211368 1.331317 11697996
9.196817 9.760035 2.966619 11697996
8.918937 9.088961 2.147522 11697996
9.426401 10.227264 1.080310 11697996
11.063128 9.643899 3.509758 11697996
9.618531 10.073342 1.935288 11697996
10.586159 11.217301 0.054976 11697996
9.663445 9.628657 1.363262 11697996
10.796289 8.943343 3.625751 11697996
9.590062 10.422483 0.301323 11697996
10.797769 10.008983 2.863202 11697996
9.108696 10.065817 3.774756 11697996
9.005575 10.811413 3.479777 11697996
10.697440 8.939374 1.526872 11697996
9.107724 10.552892 2.784715 11697996
9.935621 10.028402 3.967189 11697996
10.165891 10.923256 2.298240 11697996
9.856788 10.155467 0.323226 11697996
8.881536 8.935814 2.179844 11697996
10.240958 9.780957 3.822886 11697996
10.622595 11.172168 2.210484 11697996
9.323723 10.112438 3.171213 11697996
9.862083 9.897773 2.620846 11697996
8.938704 10.244665 0.175863 11697996
10.772804 10.490763 1.933944 11697996
10.157671 9.667989 3.354827 11697996
10.987798 10.169179 3.394749 11697996
8.972466 9.204624 3.919778 11697996
9.332098 10.858866 3.341963 11697996
10.280380 10.725159 0.987325 11697996
10.778996 9.893796 2.260691 11697996
10.503117 8.741091 3.509549 11697996
10.838491 8.955858 0.841709 11697996
9.397755 10.218988 2.544083 11697996
9.118613 10.829424 1.118129 11697996
10.328988 8.823087 3.312208 11697996
9.690127 10.800626 2.944917 11697996
9.885915 10.568374 1.173567 11697996
11.136978 10.996474 1.451228 11697996
9.571626 8.833639 3.883688 11697996
10.739926 9.843601 2.270679 11697996
8.766661 9.331408 1.200080 11697996
10.859224 11.127077 3.758944 11697996
10.699118 10.961659 2.502943 11697996
9.519900 9.746293 1.211554 11697996
10.180144 9.262208 2.010007 11697996
9.764175 9.988767 2.725173 11697996
10.023113 9.684251 0.855510 11697996
10.332479 11.227031 1.903907 11697996
10.656990 9.169520 0.204540 11697996
9.503496 10.711753 1.224889 11697996
11.169447 11.019938 2.566820 11697996
10.493886 9.732987 2.051298 11697996
8.973947 10.416471 3.906665 11697996
9.204637 10.587578 0.123181 11697996
10.264314 10.027334 3.663009 11697996
10.763792 10.639063 3.089171 11697996
9.593575 11.229187 3.655317 11697996
9.349830 9.216030 2.992349 11697996
10.009509 9.274691 1.208578 11697996
9.142712 8.957485 0.825295 11697996
10.392664 9.652153 3.100372 11697996
10.582065 11.078188 2.253310 11697996
10.167811 8.904357 0.527300 11697996
10.714930 10.080677 3.480187 11697996
9.103270 10.977313 2.201749 11697996
10.988298 10.101404 1.556323 11697996
10.654099 10.389922 0.584652 11697996
8.828014 10.820801 2.856811 11697996
8.811005 10.480312 0.244032 11697996
9.387754 10.138893 3.540503 11697996
9.056485 9.327458 2.136654 11697996
9.672191 9.769555 2.060936 11697996
10.315773 10.035419 1.885581 11697996
9.247376 9.314883 2.321788 11697996
9.507957 10.853010 3.339183 11697996
10.058365 9.993170 3.345915 11697996
10.665214 8.813378 0.859592 11697996
9.167708 11.238891 3.918945 11697996
9.429115 9.890292 0.973108 11697996
8.881929 11.187264 2.719093 11697996
10.162476 9.618997 3.434971 11697996
11.232227 10.340294 0.216754 11697996
9.325144 9.024578 2.718153 11697996
8.952169 9.321971 1.295240 11697996
9.010874 9.782023 1.634524 11697996
8.910212 9.689888 2.199163 11697996
11.042272 11.091916 3.595694 11697996
10.395019 9.872538 3.026020 11697996
8.764020 9.703362 3.499740 11697996
10.291476 9.650722 0.338662 11697996
10.448899 10.552933 1.897939 11697996
10.760329 9.630349 0.067958 11697996
11.166186 8.927293 3.987938 11697996
10.556458 10.436197 2.017816 11697996
10.215496 10.235459 0.739128 11697996
10.024576 9.186906 1.455809 11697996
11.099653 9.260949 2.205329 11697996
9.074414 11.171027 0.937734 11697996
9.028409 9.451227 3.353089 11697996
10.501346 9.967475 2.739259 11697996
8.766867 11.193912 1.152954 11697996
10.514787 9.786973 3.049960 11697996
9.162181 10.655495 3.383340 11697996
9.114301 10.191108 3.999894 11697996
10.953433 10.273576 1.965003 11697996
10.909671 9.682368 1.040305 11697996
9.367993 8.951026 3.869487 11697996
8.751476 9.809061 2.458791 11697996
10.233531 10.453861 1.869047 11697996
11.032903 10.908841 3.543255 11697996
8.901234 9.418443 3.905435 11697996
9.906458 9.096327 3.448572 11697996
9.941648 9.622545 2.134678 11697996
8.902514 9.963304 2.452869 11697996
9.633594 9.913841 3.734970 11697996
9.945241 10.914112 2.624133 11697996
10.923079 11.149296 0.825345 11697996
9.333555 9.077631 0.066101 11697996
9.675258 10.883022 0.160314 11697996
10.172918 10.340288 3.548152 11697996
10.916756 9.048413 0.963257 11697996
9.274590 11.037413 1.751314 11697996
10.149784 9.236862 2.188863 11697996
8.782973 10.008203 0.771219 11697996
9.738960 9.893757 3.977064 11697996
9.940864 11.202399 2.386998 11697996
9.389698 10.900975 2.954252 11697996
10.654804 9.649849 2.228095 11697996
10.902032 9.065218 2.744438 11697996
10.898751 10.858775 1.812986 11697996
11.220559 9.869952 2.247259 11697996
9.660741 9.343085 2.517873 11697996
9.339966 8.842750 2.950152 11697996
11.036145 8.968974 2.690094 11697996
9.829371 8.795630 0.604876 11697996
9.851665 9.039422 3.562908 11697996
11.004154 9.775661 0.865651 11697996
11.141503 9.043464 3.672208 11697996
10.469365 9.115952 2.282979 11697996
10.761079 10.420815 1.402518 11697996
9.344557 10.560231 0.173502 11697996
9.343329 10.719929 2.727335 11697996
9.548471 9.307916 3.934038 11697996
9.039672 10.971206 2.194884 11697996
9.776830 9.954605 0.535524 11697996
10.527821 10.114620 1.806466 11697996
11.176545 11.032924 0.299714 11697996
8.939499 10.479197 2.797958 11697996
10.402925 10.072206 1.539641 11697996
10.590145 10.313133 0.797594 11697996
10.572236 9.674961 3.539982 11697996
11.045351 8.875940 0.291586 11697996
11.006783 11.226561 0.011116 11697996
10.751230 9.764514 3.575318 11697996
9.692668 10.802133 3.366460 11697996
9.526446 9.426129 2.226565 11697996
10.525705 9.594355 1.566810 11697996
11.034135 9.496613 1.971533 11697996
10.414295 10.003791 0.530303 11697996
9.802238 11.145624 2.402538 11697996
11.101796 8.889134 2.308326 11697996
10.986270 9.622048 2.558867 11697996
9.751173 10.918257 2.633364 11697996
9.142173 10.346743 0.880308 11697996
9.302802 8.824125 2.180621 11697996
11.058064 9.875126 3.034793 11697996
9.425157 10.857953 1.298466 11697996
10.257912 9.270482 1.485057 11697996
9.635359 10.445766 1.981560 11697996
9.725011 9.144346 2.252577 11697996
9.233037 9.113867 0.645685 11697996
10.513792 11.083474 3.436761 11697996
9.850407 9.804660 2.140975 11697996
10.141027 9.152642 3.323519 11697996
10.433157 10.118119 1.554846 11697996
9.231535 10.857091 1.171188 11697996
9.625051 10.244829 3.964179 11697996
9.768769 8.991124 3.518236 11697996
8.955385 9.488414 0.280115 11697996
10.640621 10.445336 0.144030 11697996
9.314010 10.485566 1.879331 11697996
10.534613 8.969997 2.425928 11697996
10.488080 10.345778 0.617349 11697996
9.955153 10.089168 3.644532 11697996
9.749278 9.739437 0.609316 11697996
11.207140 10.502522 2.800964 11697996
9.660539 10.625780 1.977713 11697996
9.139055 10.840448 3.776977 11697996
9.241580 11.068802 1.247915 11697996
11.106531 11.143046 3.805096 11697996
10.402596 10.198836 2.408685 11697996
9.891865 10.062616 3.623978 11697996
9.103900 9.122468 1.810310 11697996
9.577071 9.945548 3.277263 11697996
10.931332 9.298598 0.137719 11697996
11.071905 9.193953 0.641776 11697996
9.792427 11.091691 2.584207 11697996
11.022229 9.335437 1.459357 11697996
9.281165 9.883452 2.551243 11697996
11.210858 11.137174 0.861322 11697996
11.191002 10.556961 1.815004 11697996
10.348238 8.826124 3.717947 11697996
9.308263 9.744370 3.137932 11697996
10.334968 9.020761 0.878779 11697996
9.570706 9.452975 0.081191 11697996
10.067050 8.875446 3.155435 11697996
10.805554 10.408609 3.064320 11697996
8.740077 9.099954 3.478745 11697996
10.011016 9.577192 1.110942 11697996
10.373182 9.431099 2.311887 11697996
11.155708 9.607834 3.433807 11697996
9.858770 11.161249 3.216545 11697996
11.010078 10.561588 2.632015 11697996
10.698287 10.382482 0.611602 11697996
9.038588 9.129645 2.276863 11697996
10.180124 9.498167 3.771351 11697996
10.820034 10.717491 0.706926 11697996
11.253000 8.821652 0.935285 11697996
9.295411 9.578086 3.771957 11697996
11.254891 10.249808 1.616120 11697996
10.928897 9.412779 1.651820 11697996
11.012651 10.173143 2.427888 11697996
8.890589 10.808701 1.231579 11697996
9.618392 9.865057 0.348058 11697996
10.317660 8.983307 3.269542 11697996
9.552780 8.833222 1.259993 11697996
11.034060 9.091732 1.163250 11697996
10.319258 8.810752 0.418027 11697996
9.888675 9.698181 2.843838 11697996
10.877840 9.751495 3.964566 11697996
9.052666 9.309926 3.414069 11697996
10.027509 10.857692 0.734165 11697996
10.144808 8.777380 3.079365 11697996
10.842242 9.281528 3.616560 11697996
9.496356 9.759122 3.411369 11697996
9.484758 8.905280 3.459752 11697996
10.145597 9.197160 1.295364 11697996
10.572544 9.064669 1.786044 11697996
9.818710 10.884216 3.633315 11697996
11.100676 9.675791 3.519261 11697996
9.778057 10.921980 3.270334 11697996
10.050858 9.518491 0.533632 11697996
9.187809 9.281620 2.895369 11697996
10.448168 8.972859 3.130121 11697996
9.863904 9.564852 0.403453 11697996
8.788321 10.877818 3.303598 11697996
10.325916 9.615953 0.696014 11697996
10.465512 10.883621 1.665545 11697996
9.765408 10.716698 1.965623 11697996
9.263594 10.203790 2.055968 11697996
10.559294 10.697070 3.648049 11697996
10.106552 9.888559 3.127069 11697996
9.978451 9.673094 1.617420 11697996
9.303183 9.873967 3.424918 11697996
9.934612 11.162027 3.832566 11697996
9.018072 11.163726 0.993412 11697996
10.573545 10.106931 0.159973 11697996
10.508162 10.291162 1.757753 11697996
10.075953 9.102603 0.797010 11697996
9.434537 9.554536 2.588223 11697996
11.126912 10.977440 1.005451 11697996
10.633183 11.136180 1.061202 11697996
9.628038 10.400659 0.979351 11697996
8.842288 11.211407 1.658797 11697996
10.200133 10.060582 2.958927 11697996
8.939516 9.271992 1.986212 11697996
11.051479 9.019132 0.651463 11697996
9.791213 8.756192 0.767097 11697996
9.133505 10.440094 1.673456 11697996
10.859335 9.239027 0.565134 11697996
9.857794 9.592148 2.827057 11697996
9.749378 10.234470 0.243900 11697996
10.999210 10.470118 0.370441 11697996
