# .PCD v0.7 - Point Cloud Data file format
VERSION 0.7
FIELDS x y z rgb
SIZE 4 4 4 4
TYPE F F F U
COUNT 1 1 1 1
WIDTH 1291
HEIGHT 1
VIEWPOINT 0 0 0 1 0 0 0
POINTS 1291
DATA ascii
10.363791 10.658556 1.012374 11697996
10.280617 10.126730 0.930707 11697996
11.138670 11.124081 3.605652 11697996
9.441900 11.020588 3.409163 11697996
10.473299 9.499097 2.822028 11697996
11.153486 9.681919 0.674090 11697996
9.993475 9.149360 2.481581 11697996
10.809787 9.837751 0.127569 11697996
10.440665 11.134023 0.659899 11697996
9.239768 9.424665 2.065319 11697996
10.746201 11.028476 0.787616 11697996
9.740441 8.863564 1.928558 11697996
11.128200 9.092383 2.905953 11697996
10.943818 9.804254 0.451321 11697996
10.656138 11.222273 2.722333 11697996
9.253667 10.972872 0.339860 11697996
9.026307 9.504562 0.727046 11697996
10.232580 9.431477 1.679267 11697996
9.932646 8.975513 -0.002895 11697996
9.704693 9.056664 0.703674 11697996
10.805715 8.980903 0.534718 11697996
9.786966 11.070894 0.909243 11697996
11.146963 10.943628 1.836231 11697996
10.048539 8.792100 3.400847 11697996
8.932685 10.706059 2.191959 11697996
10.103833 8.886902 1.563005 11697996
10.586195 10.212723 2.176764 11697996
10.579505 10.135759 2.128925 11697996
10.937024 9.594471 3.894927 11697996
10.552386 10.758532 3.868401 11697996
9.003359 9.580036 2.348460 11697996
9.888123 10.235460 2.260684 11697996
9.947773 10.863529 2.869713 11697996
10.338912 9.306787 0.034629 11697996
9.769030 8.764893 3.441705 11697996
9.889980 8.806824 1.809172 11697996
10.552405 9.411603 0.969073 11697996
10.394562 10.254818 1.380397 11697996
9.864008 10.621087 0.909236 11697996
10.798583 8.889298 2.562193 11697996
10.828909 11.265057 3.674373 11697996
11.017311 10.726757 1.307033 11697996
10.554296 11.042098 3.519603 11697996
11.181666 10.867942 3.810222 11697996
10.870403 10.147329 2.230155 11697996
9.792543 10.579203 0.146917 11697996
10.682443 9.681819 3.082589 11697996
9.103088 10.204607 3.402933 11697996
11.182860 10.444778 3.710178 11697996
10.102138 10.834908 0.160444 11697996
9.472869 9.459025 0.173368 11697996
10.475368 10.223192 0.753112 11697996
10.228537 10.703848 0.019668 11697996
8.989673 11.077489 1.842339 11697996
9.348825 9.669406 0.108509 11697996
9.508377 8.814411 3.854661 11697996
10.320577 10.230256 3.785744 11697996
9.611675 11.003879 3.376105 11697996
11.169154 9.791474 0.808719 11697996
9.536779 9.757329 0.770695 11697996
10.574036 10.527768 2.055087 11697996
10.207879 8.845009 2.188467 11697996
10.020638 10.684473 1.636986 11697996
10.378908 9.818862 0.687262 11697996
9.841233 11.195679 0.430005 11697996
10.710337 9.763274 1.115334 11697996
10.479795 9.683449 3.575684 11697996
9.847144 10.548865 2.308048 11697996
11.212463 9.881044 0.316195 11697996
9.745314 9.279736 1.406870 11697996
8.990798 10.378289 3.609993 11697996
9.933956 9.071159 2.204463 11697996
11.198560 9.532114 1.046888 11697996
8.993855 9.912851 1.588968 11697996
11.193699 10.004887 0.281767 11697996
9.178203 11.128841 2.507507 11697996
10.819761 9.648992 1.798548 11697996
10.512095 10.569282 0.256950 11697996
10.733492 10.722777 2.392666 11697996
10.546954 10.060341 1.758219 11697996
11.221019 9.047694 0.950847 11697996
9.623350 11.133076 0.178229 11697996
9.585719 10.083007 3.721193 11697996
10.139417 9.727951 2.385363 11697996
9.409894 10.804392 2.736973 11697996
11.044325 10.528921 1.301739 11697996
9.060713 9.057091 0.946100 11697996
8.999528 10.341806 2.583265 11697996
10.794739 9.312217 0.037814 11697996
10.233529 10.621593 2.720675 11697996
9.633116 8.784438 3.579118 11697996
10.623890 10.474668 0.596456 11697996
10.672873 8.921204 2.192936 11697996
9.759972 10.096371 1.068750 11697996
10.093138 9.189726 2.331649 11697996
9.517435 9.700724 1.449660 11697996
8.984514 9.290771 0.221224 11697996
10.282205 9.851562 2.260978 11697996
10.802696 10.543733 3.746282 11697996
9.571530 9.245987 0.137889 11697996
9.587694 10.261380 0.525803 11697996
10.490794 9.278943 1.167104 11697996
9.481525 9.287267 2.774743 11697996
10.077983 9.156576 3.878148 11697996
11.143734 9.992469 2.714555 11697996
10.848809 9.598739 1.445233 11697996
10.113290 10.692023 3.806316 11697996
10.299526 10.785540 1.981743 11697996
10.983393 10.451460 1.441543 11697996
11.139832 10.844028 0.673802 11697996
9.735457 10.507974 1.130058 11697996
8.953894 9.859564 3.437596 11697996
11.066275 9.498059 3.178660 11697996
9.452386 10.718608 2.736269 11697996
10.208962 9.596117 1.951767 11697996
10.453996 9.182723 2.821424 11697996
11.239660 8.792072 3.313735 11697996
11.202227 9.963306 1.422425 11697996
10.384645 10.983387 0.410310 11697996
9.706595 11.136214 3.059433 11697996
9.632344 10.614628 1.491865 11697996
10.714605 9.496623 2.480443 11697996
10.202804 10.473051 3.912967 11697996
10.158715 10.874951 3.571654 11697996
9.195838 10.199659 2.120803 11697996
11.171095 10.979616 0.421504 11697996
10.300638 9.400131 3.714204 11697996
11.220492 9.644062 1.478748 11697996
10.339886 11.232582 3.769059 11697996
9.991293 9.613339 3.595858 11697996
11.110197 9.900108 0.658734 11697996
9.396656 9.083933 1.068254 11697996
10.149288 10.748753 0.422086 11697996
11.245223 10.335248 0.750551 11697996
9.686368 9.517479 1.448889 11697996
10.697284 9.049891 0.812406 11697996
9.318191 9.889500 3.617989 11697996
11.045212 9.643371 0.741565 11697996
9.548313 8.773746 3.787083 11697996
10.504447 9.209988 0.846549 11697996
9.003208 9.930177 3.913962 11697996
8.801412 11.176245 3.390749 11697996
8.816475 11.079275 0.989735 11697996
9.823784 10.012966 3.274860 11697996
9.868306 9.806744 1.690354 11697996
11.125841 10.769275 2.537018 11697996
9.146379 9.798820 2.291766 11697996
10.561065 9.326128 0.154421 11697996
10.931609 9.443135 0.023987 11697996
9.317562 9.384756 2.520650 11697996
11.154544 10.404065 1.018954 11697996
10.919187 10.204021 3.642922 11697996
10.474696 10.240841 3.492633 11697996
10.986895 9.470407 3.238171 11697996
9.939407 9.454005 3.828322 11697996
10.328139 10.585811 1.386213 11697996
9.011572 9.181739 2.731106 11697996
10.724967 9.351656 3.034425 11697996
10.881327 9.938029 1.379695 11697996
10.439244 8.835383 1.158042 11697996
10.702971 10.057896 1.366731 11697996
9.793165 9.830865 2.791247 11697996
11.091023 9.170588 0.674725 11697996
10.990721 11.251726 0.851089 11697996
9.153965 8.783910 1.609442 11697996
9.503162 11.149032 2.113112 11697996
10.752033 9.488122 1.072029 11697996
9.022127 9.335137 2.108398 11697996
10.379399 8.986904 1.312926 11697996
9.603720 9.621611 0.062144 11697996
10.380773 10.128928 1.579928 11697996
10.494097 9.526821 2.809188 11697996
11.083675 10.873321 1.710855 11697996
10.796274 11.135048 3.533448 11697996
9.424445 9.086150 0.062803 11697996
9.581607 8.995701 2.081898 11697996
10.043155 9.768795 3.304525 11697996
9.318357 10.294229 1.491594 11697996
8.894914 11.194861 2.838506 11697996
9.736805 9.336329 1.663295 11697996
9.264712 9.558961 3.868606 11697996
9.671216 8.885575 3.197452 11697996
10.317029 10.896833 2.043736 11697996
9.801447 9.420678 0.843176 11697996
9.367357 11.183962 2.006176 11697996
10.925975 9.256130 3.383000 11697996
9.558652 9.677947 3.056935 11697996
9.348372 9.855557 1.931113 11697996
9.004878 9.393396 1.679583 11697996
8.874803 10.359160 3.467157 11697996
9.021258 9.339824 2.440151 11697996
9.347337 9.909550 3.707014 11697996
10.491694 10.917239 3.677718 11697996
10.044107 10.351988 2.911466 11697996
10.088431 10.686809 0.088393 11697996
10.559272 9.215425 2.084467 11697996
8.731812 11.190264 0.397482 11697996
9.690021 10.806050 0.064654 11697996
10.943782 9.055037 0.968448 11697996
9.319853 8.943705 1.211473 11697996
10.913054 9.075596 3.786687 11697996
10.924438 10.865629 1.195253 11697996
9.872932 9.139963 3.942256 11697996
8.768264 9.327084 3.100373 11697996
10.414944 9.264676 0.776506 11697996
10.248821 9.306520 1.168283 11697996
10.947964 9.124836 0.364414 11697996
9.084423 9.914148 1.507677 11697996
9.799626 11.169481 2.237116 11697996
10.493321 10.905330 2.315679 11697996
9.537968 10.637637 1.257984 11697996
10.235103 9.753968 3.920611 11697996
9.490233 10.168126 1.378244 11697996
9.882314 10.718904 0.384956 11697996
10.098696 9.262948 3.649828 11697996
11.037844 9.976837 1.069312 11697996
10.696458 10.119922 2.433298 11697996
9.527048 9.992254 1.715769 11697996
11.013560 9.838617 2.197549 11697996
11.215573 11.103589 1.054024 11697996
11.132879 11.099819 3.719996 11697996
11.149896 10.906687 3.070921 11697996
9.333641 9.628638 2.977931 11697996
8.856121 10.259494 2.742087 11697996
10.579888 8.956277 1.528393 11697996
11.125824 11.099048 2.257617 11697996
8.787195 10.804550 1.931921 11697996
10.451521 9.473341 1.457032 11697996
9.817333 10.195471 0.142685 11697996
8.881804 10.769408 3.847308 11697996
10.484920 9.104234 3.251039 11697996
10.968208 10.187282 3.559102 11697996
11.198266 8.841504 1.531370 11697996
10.965818 11.032818 0.769517 11697996
10.984336 9.690854 3.080635 11697996
10.539597 10.385941 3.625340 11697996
10.803954 10.260516 3.870575 11697996
9.521753 9.629991 0.645087 11697996
10.173558 10.567712 2.054527 11697996
10.007378 9.229084 0.633978 11697996
9.842173 8.918221 1.356208 11697996
8.755011 10.341637 1.008723 11697996
9.245391 11.115125 2.099759 11697996
10.455878 9.926371 1.984947 11697996
9.746963 9.830836 0.719960 11697996
9.441627 9.857521 2.371855 11697996
10.659334 9.458750 0.332675 11697996
10.588802 9.341132 1.853392 11697996
10.335446 11.127777 2.704521 11697996
10.397201 10.987087 2.440726 11697996
10.019101 10.247665 2.996171 11697996
9.658703 9.925142 1.230358 11697996
9.526822 10.636314 1.513223 11697996
9.043230 9.844623 2.687197 11697996
10.159885 9.538203 0.831590 11697996
10.819971 10.623089 2.003347 11697996
11.135128 10.614765 1.196342 11697996
10.208737 10.630774 3.672277 11697996
9.485554 9.374936 3.648168 11697996
10.473543 8.804963 2.578879 11697996
9.054770 10.172798 3.885734 11697996
10.919451 10.109187 3.891299 11697996
10.437433 10.827645 0.092725 11697996
11.033372 9.417618 3.892040 11697996
10.436056 10.271037 0.821930 11697996
11.173875 10.581141 3.736125 11697996
10.612947 9.427712 3.012285 11697996
10.732197 8.912395 3.488771 11697996
11.013708 9.809024 1.023034 11697996
9.316009 10.803751 0.604771 11697996
9.853940 9.947124 3.144337 11697996
8.973870 8.788398 3.655415 11697996
11.235550 10.303893 2.789427 11697996
9.669158 10.986323 2.388273 11697996
10.482106 9.860312 2.684944 11697996
10.255002 10.733987 2.977522 11697996
8.827143 8.826954 2.766092 11697996
10.650909 11.064966 1.900281 11697996
8.762552 9.069498 2.704221 11697996
9.289253 10.465660 2.106391 11697996
9.413058 9.016053 0.711956 11697996
9.203916 9.263852 2.202148 11697996
10.814211 9.220178 3.699779 11697996
11.164712 9.638160 0.258046 11697996
9.953056 10.386654 3.574683 11697996
9.286452 10.384933 2.203383 11697996
9.599687 9.111415 2.220181 11697996
10.629117 10.665582 0.039553 11697996
11.071339 11.166311 2.777673 11697996
10.691840 11.213438 0.055170 11697996
10.796121 9.991099 3.964973 11697996
10.176970 10.753727 3.810182 11697996
9.925749 8.814993 1.243367 11697996
10.931613 8.998156 3.178661 11697996
8.820506 9.510974 1.478581 11697996
9.963850 8.938206 1.288170 11697996
9.071568 10.328415 0.484217 11697996
10.794868 9.145787 3.313402 11697996
10.146213 9.574158 2.052234 11697996
9.677537 10.069086 3.968853 11697996
11.219943 11.204725 3.996044 11697996
9.840008 9.250655 3.482044 11697996
11.133985 9.718777 1.339347 11697996
9.060031 9.864909 2.909456 11697996
8.798553 10.490972 3.201200 11697996
10.366114 9.249899 3.425492 11697996
10.673490 9.525002 1.737910 11697996
10.406707 8.787841 1.745347 11697996
10.676912 9.886320 2.270572 11697996
8.850534 9.326578 2.986116 11697996
9.815636 10.858651 3.086410 11697996
9.525239 9.610068 3.526788 11697996
9.944054 9.757112 1.467502 11697996
8.847976 11.121803 3.025832 11697996
9.026846 10.321918 1.925678 11697996
8.759531 10.687538 0.139320 11697996
9.801935 9.337105 2.528417 11697996
11.202768 9.317518 1.276642 11697996
9.234683 9.858413 2.005885 11697996
8.954254 11.021040 0.567323 11697996
10.085530 9.997357 2.215059 11697996
9.801690 10.272079 3.033170 11697996
11.035867 10.582056 3.579669 11697996
8.840700 9.036864 1.977623 11697996
9.779448 8.922737 0.522390 11697996
10.363710 8.989814 3.372545 11697996
9.922816 10.249970 1.549170 11697996
10.274755 8.887396 1.456726 11697996
11.014154 9.276353 1.345587 11697996
10.246566 10.233091 3.153646 11697996
9.924289 9.215367 2.540126 11697996
10.456536 10.336434 1.324942 11697996
11.036051 10.935976 1.353640 11697996
9.007637 10.407464 0.701852 11697996
9.124934 10.265542 1.676679 11697996
9.017209 9.307293 0.133977 11697996
10.829981 9.174947 1.151827 11697996
10.423675 10.181952 2.222830 11697996
9.430373 10.826796 1.032748 11697996
8.914351 10.680357 1.371073 11697996
10.991831 10.749309 0.376371 11697996
10.016184 10.157946 2.645203 11697996
9.331139 10.671768 2.805018 11697996
10.843785 8.978784 3.832694 11697996
10.909311 10.040140 2.574380 11697996
9.764144 9.896937 3.941494 11697996
11.172976 11.040659 2.161163 11697996
10.498487 10.310581 1.331557 11697996
10.547430 9.286764 1.181631 11697996
10.792448 9.170314 2.775515 11697996
8.895666 10.807340 0.597331 11697996
10.371654 8.946362 2.975048 11697996
9.527509 9.904515 1.436875 11697996
9.341182 9.582655 0.402199 11697996
10.842900 10.474344 3.650260 11697996
10.604099 9.781898 3.885602 11697996
8.816616 10.890476 2.200637 11697996
9.696366 9.776309 3.006446 11697996
9.044184 8.811154 2.573769 11697996
11.046253 9.666209 1.584558 11697996
10.687518 10.858400 0.130028 11697996
9.380901 11.118917 2.719883 11697996
10.320998 10.161303 2.534788 11697996
9.547311 9.540954 2.069942 11697996
8.886366 9.997878 1.955114 11697996
9.138170 10.743929 0.853563 11697996
8.836018 10.818212 1.700877 11697996
9.780839 9.988914 2.035620 11697996
10.319930 8.971489 1.716280 11697996
9.507879 9.878169 0.544572 11697996
9.333690 9.640723 0.700105 11697996
8.794813 10.260612 3.112469 11697996
10.474387 10.251634 3.706975 11697996
10.770523 10.810364 0.024996 11697996
10.273519 10.139627 0.483214 11697996
11.029457 9.865686 1.894582 11697996
9.824150 9.229221 2.250870 11697996
10.081163 9.024478 0.097265 11697996
9.711772 10.050091 0.969497 11697996
10.571982 10.076508 1.576648 11697996
9.264946 11.098803 2.433589 11697996
9.660916 10.094034 0.757090 11697996
9.885443 10.906436 0.151681 11697996
10.380009 10.483665 2.074704 11697996
9.135534 10.041713 0.506480 11697996
8.851224 11.023342 0.872370 11697996
11.112490 9.324554 0.809991 11697996
10.131151 9.226667 2.591173 11697996
10.945029 10.839669 0.483610 11697996
10.438163 11.016701 2.144042 11697996
8.993093 10.311684 3.528394 11697996
9.444067 9.596234 0.129129 11697996
11.077559 9.004414 3.018905 11697996
11.104210 8.967033 3.878641 11697996
8.848269 10.517351 0.437504 11697996
8.896160 9.476629 0.735234 11697996
10.270258 11.154136 3.008884 11697996
8.774121 10.177430 0.842891 11697996
8.767096 8.792868 3.829035 11697996
11.253518 10.610091 2.136589 11697996
10.403052 9.005607 3.164800 11697996
9.337455 9.194673 0.534199 11697996
10.944065 9.713731 3.356780 11697996
10.644882 10.402181 0.454094 11697996
9.798505 8.944023 3.741029 11697996
9.304241 9.417704 2.410389 11697996
9.086285 9.206547 3.874642 11697996
9.811865 9.772596 2.033050 11697996
10.460251 10.539972 0.015250 11697996
9.536237 10.858160 1.257312 11697996
10.346430 10.423794 2.607392 11697996
11.014856 10.935152 0.636975 11697996
9.246564 9.445430 1.112893 11697996
9.568767 9.291677 2.850124 11697996
9.688076 10.349481 1.357785 11697996
10.062796 10.921333 3.149161 11697996
11.163685 9.781223 0.031331 11697996
9.481936 9.553288 0.970277 11697996
8.961712 10.686648 1.228717 11697996
9.095616 9.101408 3.672042 11697996
10.862663 9.844238 2.421641 11697996
11.211059 8.928311 4.005509 11697996
9.963963 10.825083 1.866691 11697996
8.913059 9.009212 0.979373 11697996
9.676944 10.200247 1.047964 11697996
10.308529 9.557549 1.537665 11697996
10.831758 10.369259 1.366970 11697996
10.249333 9.347670 3.940736 11697996
10.093261 9.571399 3.298138 11697996
8.993595 10.428330 0.908968 11697996
9.865343 9.238542 3.728572 11697996
11.129524 8.977957 2.107052 11697996
10.807026 10.766751 0.402550 11697996
9.188482 10.338522 0.875932 11697996
9.358407 11.093869 3.176483 11697996
9.794294 9.017749 0.128413 11697996
10.035171 9.634151 0.425806 11697996
8.843950 10.046352 2.473559 11697996
9.943062 11.141353 0.873833 11697996
10.444688 9.959671 0.073717 11697996
10.313585 9.639671 2.984548 11697996
10.038513 9.217574 3.352862 11697996
10.297817 9.819729 3.845739 11697996
9.321856 11.112377 1.593981 11697996
9.083163 10.511396 1.391704 11697996
8.864740 9.939969 2.255027 11697996
9.837392 10.236395 2.367029 11697996
10.826113 10.581326 1.394870 11697996
10.932755 9.905552 3.731077 11697996
10.278679 10.016528 2.675639 11697996
8.882829 9.648972 2.019622 11697996
10.943061 10.766130 1.436408 11697996
10.809476 8.865726 3.015579 11697996
9.052705 10.250417 3.203588 11697996
10.816118 8.936266 1.560181 11697996
9.232232 10.932930 0.511413 11697996
10.809134 9.964573 0.045518 11697996
10.703531 10.379632 3.562008 11697996
10.853298 10.972429 2.306866 11697996
10.034636 9.567822 3.364583 11697996
11.003917 10.254196 0.273713 11697996
8.907550 9.282621 2.639756 11697996
9.415767 8.812840 2.981002 11697996
9.372390 10.143991 1.943768 11697996
10.746721 10.806978 3.221697 11697996
8.968109 8.940266 0.505704 11697996
10.825208 10.655054 3.111652 11697996
9.937051 10.073616 3.290524 11697996
11.169562 10.631477 2.876035 11697996
11.051353 10.066993 1.959504 11697996
9.216440 10.002083 2.784542 11697996
10.613396 10.819501 3.182053 11697996
9.380592 10.741891 1.763302 11697996
11.198579 9.422790 3.528639 11697996
10.994408 9.594229 1.024284 11697996
8.924915 11.017549 0.447685 11697996
8.809816 10.926551 0.122422 11697996
10.178334 10.023844 1.341345 11697996
10.629050 10.260160 1.461428 11697996
8.935554 9.993909 3.780108 11697996
10.451244 10.625661 1.804703 11697996
9.621513 11.144376 2.697902 11697996
10.887253 9.673682 3.113788 11697996
8.856456 10.923409 3.923309 11697996
10.873959 10.447140 1.847971 11697996
10.724142 9.650558 1.111805 11697996
9.785839 9.415159 0.402521 11697996
10.064995 10.048704 2.749156 11697996
9.779617 11.167597 0.765894 11697996
8.975670 10.023647 3.946495 11697996
10.480983 9.817060 3.131955 11697996
9.379732 9.747863 0.703064 11697996
8.933736 11.155583 3.060638 11697996
9.260798 9.064146 3.714459 11697996
11.118752 9.017797 2.128793 11697996
11.216342 10.792871 0.927618 11697996
10.841304 10.581917 3.686596 11697996
9.139153 9.659856 3.983632 11697996
10.752127 10.603619 2.190025 11697996
10.622870 10.571323 0.437294 11697996
9.206358 9.036761 1.657129 11697996
9.334188 9.945977 3.783080 11697996
8.900581 9.630492 1.845151 11697996
10.672251 8.957048 1.593284 11697996
10.678963 10.498385 2.309891 11697996
10.638417 9.811420 1.858717 11697996
10.885674 10.094916 4.006633 11697996
9.013876 9.480157 2.781990 11697996
10.435705 9.730597 3.188345 11697996
10.780040 9.003290 2.180923 11697996
9.122745 10.798824 0.114714 11697996
9.256256 11.072165 3.191973 11697996
9.904227 10.945719 0.807580 11697996
10.864166 10.748014 0.842378 11697996
9.194165 9.454761 1.046554 11697996
10.445983 9.679010 3.640955 11697996
10.880223 11.186151 0.775826 11697996
9.232859 11.131019 2.156850 11697996
9.592668 10.663821 1.781798 11697996
10.069006 9.923935 3.949112 11697996
9.356339 10.927849 2.697975 11697996
10.855674 10.510064 3.167439 11697996
10.811623 10.889346 3.089482 11697996
9.731972 10.539311 1.358162 11697996
10.807728 9.309182 1.169394 11697996
9.972180 9.342464 0.568038 11697996
9.019750 9.591778 1.054695 11697996
9.161616 9.189961 0.221457 11697996
9.342191 10.315800 3.845967 11697996
9.731181 8.954888 0.457757 11697996
9.214691 8.772406 2.270126 11697996
10.880625 9.166244 2.956047 11697996
8.918206 9.653717 3.887068 11697996
9.586522 10.136052 3.678220 11697996
11.063021 9.205703 0.928407 11697996
10.708665 9.490718 1.253775 11697996
9.840395 9.583521 1.601444 11697996
8.769698 11.184269 2.192269 11697996
11.149140 10.280467 2.361067 11697996
11.197723 9.580941 1.171849 11697996
11.199563 9.770442 0.726314 11697996
9.152581 9.773241 2.525387 11697996
9.121386 10.300570 3.237792 11697996
9.511315 9.421008 2.871919 11697996
8.792585 9.554697 3.756118 11697996
10.153996 10.836775 2.590417 11697996
10.601122 10.278518 3.817313 11697996
10.006462 10.104253 3.929041 11697996
8.812556 8.908426 1.716849 11697996
10.239028 8.960851 0.242368 11697996
9.137700 10.987959 0.757980 11697996
8.784573 8.912271 3.089989 11697996
9.903612 8.922310 3.142231 11697996
11.151719 10.964069 2.214968 11697996
9.274140 8.762174 0.912940 11697996
8.995128 9.110201 1.585266 11697996
9.318460 10.238158 1.395723 11697996
10.486262 8.779833 3.258665 11697996
10.733144 9.811394 3.710340 11697996
9.621632 9.693909 0.391860 11697996
9.358536 8.837745 3.335252 11697996
10.697134 9.544761 2.447837 11697996
10.142210 9.503558 3.989024 11697996
9.583688 9.810493 1.670900 11697996
9.818381 10.151287 3.041183 11697996
10.017227 9.396502 1.854246 11697996
10.736890 10.941901 1.432409 11697996
9.969122 8.828067 1.492114 11697996
9.187218 10.437497 1.935229 11697996
9.129430 11.037139 2.057549 11697996
9.992524 9.799325 3.633944 11697996
11.006188 10.092875 0.173984 11697996
9.334975 10.978787 1.405022 11697996
9.878717 10.156878 3.412797 11697996
11.220349 10.704401 0.228382 11697996
10.072787 9.589836 1.292690 11697996
10.903017 9.376120 2.364595 11697996
10.604402 8.761065 1.637662 11697996
8.872346 10.815271 2.387501 11697996
9.023290 9.455078 1.784087 11697996
9.192207 8.854577 3.765719 11697996
9.797013 9.064745 1.090988 11697996
9.600013 8.828450 3.043544 11697996
10.596064 8.784819 2.836074 11697996
11.170465 9.440786 0.263867 11697996
11.205591 9.884939 2.871966 11697996
10.162009 11.196473 0.642074 11697996
10.035678 10.779638 1.980583 11697996
9.777927 10.519798 1.109796 11697996
10.709219 9.842960 2.545461 11697996
10.763940 8.843339 1.738251 11697996
10.677647 9.168968 0.582960 11697996
10.406278 10.755196 0.668845 11697996
8.751285 9.257918 3.423950 11697996
9.929040 10.389738 1.024867 11697996
10.038052 10.803333 1.668990 11697996
8.874454 10.284635 3.890413 11697996
9.438366 10.030005 1.583573 11697996
10.818206 9.833068 1.588664 11697996
8.800975 8.886658 1.046306 11697996
9.412558 11.099590 1.676604 11697996
10.867101 9.464138 1.641102 11697996
8.824971 11.218585 2.955205 11697996
8.911870 10.096160 0.892914 11697996
10.599960 10.727741 0.851448 11697996
9.107735 8.844402 2.640373 11697996
10.037960 9.537184 2.590622 11697996
8.817277 10.093529 3.341049 11697996
10.594523 9.464166 2.528061 11697996
8.898921 9.829390 0.489705 11697996
9.570112 10.156537 3.934213 11697996
8.802660 9.917708 1.327899 11697996
9.191924 10.340375 3.143110 11697996
11.230897 11.023354 0.861141 11697996
9.790716 9.896624 0.360401 11697996
9.681041 9.875821 0.265754 11697996
10.995212 9.942413 1.372254 11697996
9.245260 11.154204 0.638619 11697996
11.086345 11.128448 2.980665 11697996
11.092973 10.692044 1.311764 11697996
10.462290 10.500431 0.231111 11697996
10.031717 11.194733 1.484386 11697996
10.512839 10.219032 3.817473 11697996
9.391781 10.520603 0.577247 11697996
10.597704 9.409399 3.142407 11697996
10.249495 10.708959 0.758581 11697996
8.848343 10.042380 1.646945 11697996
11.147056 9.745891 1.521048 11697996
8.966675 9.294743 3.444464 11697996
10.316427 8.840127 3.571267 11697996
10.433002 8.821805 3.920776 11697996
9.292741 9.121891 2.106701 11697996
10.435184 10.804479 0.606035 11697996
10.680903 9.726796 0.432250 11697996
10.643322 9.869799 1.882061 11697996
9.392138 9.807880 3.627550 11697996
8.906984 9.157158 2.861365 11697996
10.337364 9.211820 2.844897 11697996
10.044576 11.039131 3.059515 11697996
10.357371 10.598903 3.491266 11697996
10.101703 10.117941 0.860183 11697996
9.934035 9.582544 0.410029 11697996
9.514147 10.996558 1.461958 11697996
10.123093 8.915753 1.168506 11697996
10.081750 11.177971 2.627505 11697996
10.089401 9.368328 2.235817 11697996
9.009815 8.859109 0.216814 11697996
9.276589 9.246257 2.054492 11697996
9.314881 10.883007 0.861975 11697996
11.169240 9.688844 1.987591 11697996
10.527741 11.219267 1.992752 11697996
9.189240 11.038021 0.622448 11697996
8.776211 11.238738 0.084393 11697996
9.412477 10.084373 0.751501 11697996
10.611418 10.540783 2.657414 11697996
10.750985 10.363905 1.019260 11697996
9.560266 10.957826 1.506179 11697996
9.043540 9.006245 1.578322 11697996
9.715498 11.001775 1.291963 11697996
9.750924 9.086810 0.611538 11697996
9.253743 9.004931 2.016872 11697996
10.947371 10.399787 0.056304 11697996
10.590071 9.248541 1.792997 11697996
10.019128 9.947557 1.134099 11697996
10.298128 10.496734 3.150556 11697996
9.951111 10.988823 0.387615 11697996
9.097025 10.545878 3.425847 11697996
9.650259 11.192402 3.376864 11697996
8.981947 10.565296 0.485573 11697996
10.118254 8.878068 3.236018 11697996
10.782829 10.290586 0.759893 11697996
10.095178 8.858545 2.442878 11697996
11.279147 9.065483 0.468297 11697996
9.519571 9.221055 0.642032 11697996
11.237062 9.025840 3.292786 11697996
9.166096 9.707454 0.770171 11697996
9.343128 9.229528 3.972547 11697996
10.474603 9.274570 2.538528 11697996
9.802213 9.396442 1.011851 11697996
10.026064 11.203090 2.920842 11697996
11.116413 10.395427 0.279403 11697996
10.811501 9.279822 1.027170 11697996
10.580739 10.693734 3.125450 11697996
10.592188 10.920016 1.469261 11697996
9.937001 9.041590 0.770956 11697996
10.705461 9.766466 0.186294 11697996
9.041727 9.983777 0.447610 11697996
10.807371 9.652681 1.403094 11697996
10.596466 11.262140 3.956646 11697996
10.655279 9.633450 3.793754 11697996
11.174795 9.902685 2.959528 11697996
11.098580 9.970247 3.048710 11697996
8.825736 10.902146 2.813625 11697996
11.070156 9.852183 2.738971 11697996
9.280971 9.773190 3.437464 11697996
9.303997 9.018824 3.448710 11697996
9.876859 10.710878 2.548033 11697996
10.927078 9.235825 0.173352 11697996
10.725025 10.488349 1.272650 11697996
9.921039 10.695576 2.350523 11697996
9.123985 10.441347 1.806944 11697996
10.208903 9.320037 2.193769 11697996
11.036642 10.179195 0.219951 11697996
10.062561 11.175502 2.981013 11697996
10.609560 11.011939 3.846691 11697996
9.737087 8.804590 1.520169 11697996
9.598382 9.481123 1.411373 11697996
10.669284 10.730174 1.595235 11697996
9.608567 10.450826 2.724473 11697996
10.220138 11.213949 0.280383 11697996
9.616922 8.859008 3.277351 11697996
9.513228 10.279421 3.128845 11697996
10.339320 9.097288 3.324808 11697996
9.388358 10.350235 2.982234 11697996
9.593495 10.644211 1.739170 11697996
9.116188 10.784139 2.148207 11697996
10.815933 10.516940 0.902127 11697996
10.817315 10.973676 3.703278 11697996
10.716502 10.961948 1.694618 11697996
11.228108 9.272851 3.274926 11697996
9.876273 11.229539 1.748272 11697996
8.835598 8.775082 2.458817 11697996
9.159590 10.099454 3.133530 11697996
10.563934 10.048349 0.222568 11697996
8.844945 10.204958 3.413847 11697996
10.290188 9.532954 0.813933 11697996
10.224816 8.983106 1.397590 11697996
9.617108 8.897912 3.605218 11697996
9.776142 9.810906 1.581326 11697996
10.893421 9.934323 3.047015 11697996
10.645749 10.317568 3.272503 11697996
10.794125 10.478752 0.664950 11697996
10.736502 10.236602 3.855699 11697996
11.088096 9.493590 1.664288 11697996
9.510919 10.834726 2.615188 11697996
10.227320 8.764643 3.117642 11697996
11.153093 9.494210 2.683389 11697996
10.305621 10.056960 2.080716 11697996
10.364967 10.057151 1.012078 11697996
8.874885 11.001409 3.405339 11697996
10.657643 9.890418 1.703425 11697996
9.488305 10.018359 2.174952 11697996
10.122365 10.693669 3.246542 11697996
9.263807 10.497062 1.872873 11697996
9.250794 9.722327 2.723100 11697996
9.795960 9.152413 3.524201 11697996
9.626254 11.045609 2.026919 11697996
10.592539 8.906441 1.286652 11697996
8.931557 11.125844 0.002702 11697996
11.035508 10.378933 2.077082 11697996
8.879539 11.162169 0.030061 11697996
9.291039 11.110202 1.622280 11697996
10.143744 9.171433 1.458993 11697996
9.180750 10.571261 0.513264 11697996
10.810362 10.959901 3.774928 11697996
10.173624 9.798491 2.629925 11697996
10.981833 10.473013 2.310779 11697996
11.149451 9.895913 2.136352 11697996
9.974065 10.229321 2.216250 11697996
10.012279 10.216930 2.041863 11697996
8.913785 9.520056 0.965441 11697996
10.389795 11.008253 2.164923 11697996
10.988643 10.961917 1.669380 11697996
9.929009 8.846150 0.516261 11697996
9.325024 10.357972 3.301336 11697996
11.151391 9.192124 3.195208 11697996
11.127692 10.648402 2.373124 11697996
10.842280 11.163754 1.207743 11697996
10.740760 9.570567 2.700127 11697996
9.997082 10.805573 1.100692 11697996
11.069577 10.017795 1.239992 11697996
8.982177 10.053867 2.554746 11697996
10.114873 10.389513 0.438919 11697996
10.823653 9.934630 3.391015 11697996
9.819427 10.379858 3.081580 11697996
10.101501 11.165782 1.592455 11697996
9.564594 9.942820 1.558281 11697996
10.303215 10.209711 3.248698 11697996
10.914091 10.671959 3.142588 11697996
10.703672 10.674238 0.875586 11697996
10.688664 10.062515 1.570597 11697996
9.699395 10.685656 4.007987 11697996
10.838122 9.559694 1.391260 11697996
9.090563 10.161462 3.891210 11697996
9.148792 9.563177 0.250395 11697996
10.964853 10.911040 1.640081 11697996
10.135058 10.264769 2.374794 11697996
9.513261 10.957701 1.839548 11697996
10.148052 10.705844 0.197870 11697996
10.880582 8.881844 0.757972 11697996
9.118726 10.869156 0.679920 11697996
11.045098 10.969161 0.512053 11697996
10.063304 10.178022 3.178811 11697996
10.390062 9.989028 0.226900 11697996
10.244000 8.924312 1.556540 11697996
9.316237 8.915377 1.482931 11697996
8.953871 10.330811 3.098139 11697996
10.524611 9.340357 1.556297 11697996
9.166045 9.319311 3.714643 11697996
9.477078 9.217272 0.587901 11697996
10.351807 11.081762 1.177416 11697996
10.485315 9.174038 1.484824 11697996
11.150297 10.379622 1.881349 11697996
10.615389 8.998562 3.654341 11697996
10.933549 10.812234 0.828350 11697996
10.846598 9.186603 1.479979 11697996
9.570170 11.172384 1.818732 11697996
8.929344 10.199731 1.807004 11697996
11.241642 10.148326 0.225491 11697996
10.008538 10.999993 3.614231 11697996
10.607877 10.325069 0.252494 11697996
8.874117 10.550129 0.611790 11697996
8.978857 8.866418 1.472296 11697996
10.900385 9.451518 0.195826 11697996
10.379706 9.471602 3.709462 11697996
10.226489 10.443737 0.751912 11697996
10.398316 10.749484 0.145119 11697996
10.782978 9.159787 1.213022 11697996
10.973385 9.802022 3.759405 11697996
10.459611 9.573795 1.584624 11697996
8.858390 8.978105 0.553560 11697996
10.157007 10.265254 3.700226 11697996
9.241626 10.991022 0.666715 11697996
10.764279 8.801233 0.548901 11697996
8.990362 10.696814 2.561810 11697996
10.750424 9.505138 3.112639 11697996
9.547859 9.754267 0.848277 11697996
10.992817 11.169773 2.349990 11697996
9.620868 10.557616 2.857171 11697996
9.685854 11.134743 1.286677 11697996
9.813222 11.160299 2.741241 11697996
10.329865 10.306566 3.028545 11697996
10.419628 10.647439 3.507014 11697996
10.904401 10.704256 1.471547 11697996
9.096636 10.858586 2.646724 11697996
10.860142 9.642425 0.377164 11697996
10.977746 10.543301 3.110590 11697996
8.793817 9.081348 3.985274 11697996
9.484927 9.440495 2.526909 11697996
10.748684 10.218840 2.451903 11697996
8.823234 9.473762 0.675859 11697996
10.252090 9.241289 3.730973 11697996
10.153366 9.097101 2.558397 11697996
10.350008 11.042063 2.574381 11697996
9.088520 9.507487 1.941711 11697996
10.072680 9.365170 2.230479 11697996
9.162897 9.388465 0.674856 11697996
11.024654 9.619280 3.962826 11697996
10.259620 10.748831 1.848117 11697996
11.035839 10.030288 2.410304 11697996
10.269773 10.896712 1.682676 11697996
9.634056 9.807906 3.319592 11697996
10.581526 8.884938 1.956781 11697996
9.285031 10.730988 1.552666 11697996
9.375438 9.231579 2.082585 11697996
9.122737 9.092595 3.236349 11697996
9.371950 10.497879 2.043288 11697996
11.082926 9.058524 2.281560 11697996
11.133035 9.866831 2.431369 11697996
9.306890 11.132804 2.928545 11697996
9.586027 11.226602 1.208381 11697996
9.069580 9.556746 3.187663 11697996
11.171031 8.949265 1.381299 11697996
10.242133 9.982647 1.690900 11697996
10.076191 10.465405 2.688217 11697996
9.339673 9.112844 0.730787 11697996
9.951037 9.438841 0.390518 11697996
9.053871 8.909163 1.396045 11697996
8.826862 10.323519 2.412634 11697996
9.777172 8.968928 2.955002 11697996
10.153001 11.011777 0.883294 11697996
11.062797 9.211717 4.002808 11697996
10.796458 8.993367 1.243968 11697996
9.636357 9.910181 2.824160 11697996
10.079262 9.355220 2.839669 11697996
10.082892 11.117918 3.083169 11697996
11.043230 10.876111 3.205947 11697996
9.401390 10.940515 1.013890 11697996
9.536797 10.771917 1.088399 11697996
8.759562 9.316991 0.081056 11697996
10.489676 10.796027 2.040386 11697996
10.475198 10.654382 2.436710 11697996
10.192638 9.096935 2.932337 11697996
10.336029 9.646566 3.733179 11697996
9.159180 10.704077 3.712252 11697996
9.693901 10.854514 2.579053 11697996
10.957318 9.917233 0.449576 11697996
10.579725 10.857221 3.359499 11697996
10.776324 10.273976 2.082456 11697996
10.366668 10.430476 0.345041 11697996
10.990824 10.464571 2.642873 11697996
9.682144 9.687366 2.626619 11697996
11.111795 10.951387 1.334098 11697996
9.381410 9.476628 3.146601 11697996
10.908152 8.942234 3.588579 11697996
11.197021 9.836642 1.974573 11697996
10.439610 10.333743 2.642250 11697996
9.657107 9.092782 0.425467 11697996
11.260194 10.406310 0.277483 11697996
9.969875 9.281665 0.985778 11697996
10.401905 10.370572 2.419987 11697996
10.784369 8.774833 1.181342 11697996
9.974742 9.072368 0.562637 11697996
9.742987 11.179642 0.814685 11697996
10.134338 9.133378 1.193637 11697996
8.903308 9.515389 1.540982 11697996
9.729478 8.876019 1.708035 11697996
9.811614 9.858793 1.045519 11697996
10.119883 10.854817 3.417758 11697996
10.298862 8.943109 1.087397 11697996
9.066638 10.189377 1.319636 11697996
11.116074 8.847942 2.020648 11697996
11.044772 9.328230 2.189881 11697996
11.060781 9.173355 3.975078 11697996
8.887311 10.408299 2.249121 11697996
8.893487 10.435502 0.501062 11697996
9.085752 11.082874 3.752909 11697996
9.179249 9.680415 0.826093 11697996
9.204431 10.752069 1.411760 11697996
9.349457 10.711731 1.320893 11697996
10.990893 10.235741 1.954617 11697996
10.384700 10.509376 2.556787 11697996
8.848029 10.223065 3.295534 11697996
9.457304 10.207205 3.557641 11697996
9.084482 10.911576 3.187511 11697996
11.161428 10.299677 0.724302 11697996
9.405372 9.071538 2.407499 11697996
9.167150 10.084229 1.060813 11697996
11.065419 9.512971 2.036587 11697996
10.801596 9.515144 0.276115 11697996
9.815145 10.395483 1.836878 11697996
10.252559 10.095160 1.189687 11697996
8.737092 10.429710 3.104123 11697996
10.335857 9.235168 1.380659 11697996
9.776429 9.296327 0.015367 11697996
9.271236 9.956773 2.860338 11697996
10.535333 9.514789 0.894738 11697996
10.207617 10.211827 3.543287 11697996
8.941154 11.094440 1.887208 11697996
11.032772 9.200208 1.321307 11697996
9.221183 9.766178 2.967170 11697996
8.910188 9.075105 2.155596 11697996
9.418137 10.283800 1.043654 11697996
11.067157 9.634586 3.492075 11697996
9.631996 10.097176 1.957028 11697996
10.570106 11.182016 0.069436 11697996
9.661378 9.619648 1.378842 11697996
10.773333 8.912429 3.661825 11697996
9.603449 10.422657 0.310636 11697996
10.804863 10.006198 2.885365 11697996
9.144073 10.064951 3.791152 11697996
8.997638 10.800269 3.495472 11697996
10.689690 8.931069 1.575835 11697996
9.128426 10.559266 2.739414 11697996
9.965081 10.015831 3.952080 11697996
10.153211 10.936840 2.286024 11697996
9.868550 10.112290 0.311364 11697996
8.886456 8.917239 2.160567 11697996
10.235698 9.802240 3.839694 11697996
10.631086 11.167167 2.193355 11697996
9.299552 10.107138 3.167832 11697996
9.865582 9.915724 2.629350 11697996
8.947880 10.244272 0.200631 11697996
10.763054 10.489296 1.921687 11697996
10.176435 9.662036 3.344910 11697996
10.955188 10.169664 3.382442 11697996
8.960601 9.198960 3.938653 11697996
9.299623 10.852516 3.328121 11697996
10.290141 10.747900 0.974270 11697996
10.806414 9.874962 2.299376 11697996
10.491302 8.775541 3.488615 11697996
10.819014 8.954589 0.876297 11697996
9.399394 10.236847 2.548739 11697996
9.090005 10.852072 1.157265 11697996
10.354872 8.828322 3.293687 11697996
9.686942 10.808575 2.913985 11697996
9.868194 10.552845 1.173101 11697996
11.169828 11.001587 1.449155 11697996
9.593615 8.836620 3.892893 11697996
10.768167 9.879444 2.307854 11697996
8.768455 9.315324 1.167002 11697996
10.836247 11.103065 3.731596 11697996
10.691565 10.949801 2.528501 11697996
9.500367 9.760703 1.193081 11697996
10.222466 9.265689 2.002901 11697996
9.755738 9.999918 2.735561 11697996
10.025144 9.680226 0.814935 11697996
10.307200 11.193089 1.906339 11697996
10.653868 9.173060 0.211289 11697996
9.525829 10.703185 1.181543 11697996
11.183389 11.041095 2.553830 11697996
10.520092 9.733404 2.092270 11697996
8.992180 10.383652 3.925848 11697996
9.187845 10.602485 0.186424 11697996
10.313619 10.026852 3.648043 11697996
10.766287 10.651835 3.084692 11697996
9.582130 11.254737 3.649064 11697996
9.372466 9.212732 2.989422 11697996
10.012074 9.272026 1.219615 11697996
9.160269 8.971135 0.837028 11697996
10.364799 9.638951 3.087468 11697996
10.570799 11.076638 2.259344 11697996
10.192270 8.912365 0.549528 11697996
10.734004 10.099826 3.469239 11697996
9.141759 10.960111 2.165635 11697996
10.997950 10.114791 1.557214 11697996
10.632262 10.384767 0.581272 11697996
8.851087 10.830756 2.829414 11697996
8.803522 10.480116 0.243386 11697996
9.354938 10.180882 3.521272 11697996
9.079398 9.295742 2.117546 11697996
9.650061 9.770112 2.094774 11697996
10.306840 10.030652 1.870876 11697996
9.249402 9.357277 2.347842 11697996
9.541812 10.843134 3.350695 11697996
10.061188 9.994284 3.345303 11697996
10.669695 8.806195 0.843440 11697996
9.190825 11.252273 3.933388 11697996
9.440898 9.871636 0.974835 11697996
8.856100 11.194246 2.711099 11697996
10.141717 9.583815 3.435791 11697996
11.239438 10.363436 0.206586 11697996
9.315634 9.038576 2.747908 11697996
8.947999 9.328832 1.318345 11697996
9.030031 9.780776 1.619094 11697996
8.902578 9.680643 2.171898 11697996
11.074809 11.090091 3.617785 11697996
10.383481 9.891333 3.013507 11697996
8.759022 9.728197 3.498192 11697996
10.282113 9.598687 0.332515 11697996
10.443131 10.589299 1.894772 11697996
10.748321 9.631680 0.107293 11697996
11.146969 8.930527 3.993976 11697996
10.535976 10.454411 2.003129 11697996
10.214758 10.223432 0.713736 11697996
10.004601 9.149778 1.445019 11697996
11.115062 9.268278 2.187685 11697996
9.059669 11.166469 0.952754 11697996
9.022152 9.460943 3.319548 11697996
10.498153 9.960546 2.746693 11697996
8.791866 11.199589 1.126897 11697996
10.547359 9.784280 3.055644 11697996
9.117405 10.656651 3.369049 11697996
9.115392 10.186372 4.026008 11697996
10.970415 10.249608 1.951029 11697996
10.927620 9.656829 1.038200 11697996
9.363359 8.938886 3.883389 11697996
8.752241 9.853068 2.440915 11697996
10.240643 10.414400 1.855988 11697996
11.062793 10.905779 3.589827 11697996
8.832267 9.455298 3.912380 11697996
9.885217 9.089432 3.460336 11697996
9.963549 9.618991 2.119582 11697996
8.930495 9.965114 2.458868 11697996
9.652592 9.938738 3.681977 11697996
9.948409 10.910989 2.650199 11697996
10.937331 11.112408 0.857424 11697996
9.332109 9.099758 0.070903 11697996
9.662209 10.897390 0.139207 11697996
10.152608 10.307195 3.550106 11697996
10.921505 9.054493 0.921488 11697996
9.315897 11.031778 1.771072 11697996
10.171626 9.226659 2.208619 11697996
8.768482 10.014626 0.782536 11697996
9.754613 9.892701 3.943563 11697996
9.996624 11.194919 2.373997 11697996
9.342381 10.888819 2.975972 11697996
10.671803 9.647201 2.201254 11697996
10.931695 9.052551 2.741795 11697996
10.895404 10.867063 1.776687 11697996
11.223248 9.882730 2.206299 11697996
9.664968 9.310773 2.468048 11697996
9.326057 8.826804 2.969553 11697996
10.992580 8.951669 2.683554 11697996
9.855901 8.830819 0.571805 11697996
9.808519 9.038209 3.554018 11697996
10.979505 9.771976 0.863906 11697996
11.128522 9.040977 3.671238 11697996
10.463139 9.144395 2.278788 11697996
10.759488 10.394478 1.412842 11697996
9.395223 10.574219 0.123596 11697996
9.397076 10.724181 2.760035 11697996
9.543385 9.328238 3.914683 11697996
9.035529 10.986442 2.210080 11697996
9.776877 9.931783 0.479382 11697996
10.554780 10.102916 1.775901 11697996
11.193110 11.058925 0.295178 11697996
8.921660 10.451134 2.811788 11697996
10.361957 10.043817 1.557629 11697996
10.602946 10.335474 0.800619 11697996
10.590597 9.682356 3.561200 11697996
11.081913 8.842433 0.296932 11697996
11.001253 11.210275 0.014322 11697996
10.755472 9.740877 3.573454 11697996
9.656908 10.842643 3.370179 11697996
9.515778 9.419894 2.211728 11697996
10.511117 9.570695 1.561369 11697996
11.038705 9.443948 1.948950 11697996
10.425639 10.000438 0.547788 11697996
9.789734 11.166502 2.365434 11697996
11.157279 8.932267 2.326006 11697996
10.963267 9.639369 2.520031 11697996
9.714472 10.907767 2.666065 11697996
9.164433 10.340933 0.884250 11697996
9.297779 8.844686 2.230646 11697996
11.074540 9.847324 3.018268 11697996
9.430643 10.891021 1.250962 11697996
10.242954 9.280508 1.505816 11697996
9.594396 10.436035 1.946321 11697996
9.697075 9.172043 2.242109 11697996
9.224759 9.113788 0.642730 11697996
10.546363 11.068460 3.426895 11697996
9.877519 9.816669 2.159935 11697996
10.178392 9.155085 3.339194 11697996
10.417158 10.110245 1.513814 11697996
9.237228 10.863884 1.176425 11697996
9.618000 10.250874 3.947059 11697996
9.747402 8.963449 3.517582 11697996
8.962922 9.531530 0.282086 11697996
10.617210 10.433217 0.162169 11697996
9.325876 10.454757 1.885020 11697996
10.512622 8.953178 2.422617 11697996
10.486443 10.307877 0.638232 11697996
9.933193 10.112866 3.672489 11697996
9.753764 9.710264 0.626082 11697996
11.234418 10.516197 2.821826 11697996
9.663707 10.631927 1.972884 11697996
9.121538 10.844543 3.783681 11697996
9.248679 11.092743 1.237423 11697996
11.098893 11.143195 3.827639 11697996
10.363701 10.194714 2.413234 11697996
9.870461 10.111714 3.609622 11697996
9.101917 9.104939 1.795210 11697996
9.559142 9.905086 3.295099 11697996
10.917596 9.293859 0.122709 11697996
11.056236 9.192465 0.658679 11697996
9.780688 11.127273 2.587125 11697996
11.027495 9.345763 1.473909 11697996
9.297730 9.889350 2.528878 11697996
11.209284 11.076679 0.885708 11697996
11.184697 10.575517 1.827820 11697996
10.333566 8.837811 3.747426 11697996
9.311898 9.731578 3.143003 11697996
10.327188 9.027699 0.870747 11697996
9.566174 9.441886 0.034237 11697996
10.045501 8.865601 3.145878 11697996
10.801802 10.385261 3.024167 11697996
8.740659 9.104450 3.505841 11697996
10.002201 9.588988 1.134771 11697996
10.333578 9.448044 2.341609 11697996
11.118794 9.614999 3.459681 11697996
9.885099 11.166160 3.237787 11697996
11.001377 10.586907 2.614489 11697996
10.695436 10.397615 0.610397 11697996
8.981888 9.136905 2.268753 11697996
10.158114 9.519265 3.775151 11697996
10.816564 10.739565 0.714386 11697996
11.248895 8.828107 0.905243 11697996
9.279250 9.581127 3.797430 11697996
11.243828 10.253123 1.593139 11697996
10.936899 9.384346 1.634895 11697996
11.007247 10.182203 2.407273 11697996
8.883331 10.762474 1.252852 11697996
9.604471 9.843172 0.344742 11697996
10.325952 9.007333 3.225866 11697996
9.545445 8.822398 1.271687 11697996
11.035769 9.142252 1.125165 11697996
10.344687 8.812745 0.437655 11697996
9.860064 9.667299 2.828408 11697996
10.842784 9.736753 3.984307 11697996
9.086562 9.332663 3.381622 11697996
10.043523 10.879505 0.740060 11697996
10.104873 8.796813 3.063495 11697996
10.887052 9.264771 3.625294 11697996
9.522913 9.775714 3.434016 11697996
9.473558 8.959154 3.453876 11697996
10.147812 9.219799 1.289132 11697996
10.581125 9.053824 1.762769 11697996
9.813350 10.865051 3.636646 11697996
11.088512 9.661583 3.522683 11697996
9.745422 10.913480 3.283941 11697996
10.059800 9.510280 0.532653 11697996
9.216339 9.258152 2.891510 11697996
10.464532 8.944636 3.131107 11697996
9.853468 9.565961 0.422645 11697996
8.791772 10.862454 3.287914 11697996
10.335476 9.631878 0.696691 11697996
10.526963 10.899010 1.662722 11697996
9.761574 10.723504 1.920970 11697996
9.249030 10.188213 2.054162 11697996
10.523115 10.698193 3.676312 11697996
10.090479 9.884468 3.162105 11697996
9.980330 9.645885 1.601944 11697996
9.313446 9.852967 3.462952 11697996
9.916068 11.140329 3.827557 11697996
8.965817 11.195513 1.005503 11697996
10.589635 10.094831 0.177268 11697996
10.524003 10.311421 1.776340 11697996
10.067472 9.102718 0.812476 11697996
9.397225 9.553069 2.576986 11697996
11.100911 10.953610 1.006783 11697996
10.626566 11.133758 1.050097 11697996
9.572806 10.434301 0.982912 11697996
8.827209 11.203378 1.585438 11697996
10.184299 10.062014 2.949412 11697996
8.969488 9.274903 1.994920 11697996
11.036176 9.024059 0.634696 11697996
9.817856 8.747304 0.751811 11697996
9.160604 10.414606 1.644642 11697996
10.843101 9.236538 0.541791 11697996
9.821811 9.603289 2.800465 11697996
9.751913 10.223416 0.236769 11697996
10.998666 10.447692 0.395144 11697996
9.501378 10.111954 1.518093 11697996
8.766929 11.105670 2.492388 11697996
10.333395 9.487260 0.536017 11697996
10.664770 8.839424 0.206789 11697996
11.242979 9.404070 2.640984 11697996
9.511190 10.739418 1.190861 11697996
10.205457 9.012836 1.032263 11697996
10.726303 10.849934 1.707422 11697996
9.488888 9.976750 2.355773 11697996
10.371710 9.140116 0.460476 11697996
10.627619 9.031610 2.454811 11697996
10.727218 10.133578 1.183218 11697996
9.350228 9.200706 1.772041 11697996
9.852272 10.251477 2.032353 11697996
9.150663 9.073376 1.628167 11697996
9.613801 8.976420 2.454341 11697996
9.471559 11.210045 1.612663 11697996
11.178722 9.624644 1.530001 11697996
9.651938 8.854154 0.395239 11697996
10.293143 10.662104 2.649858 11697996
10.996066 8.756836 2.014065 11697996
9.523658 9.032454 0.078341 11697996
10.005562 10.325735 2.689401 11697996
9.430875 9.631457 1.586540 11697996
9.397622 10.734551 2.881414 11697996
9.927127 9.742846 1.033950 11697996
9.135489 10.266859 2.861662 11697996
9.398652 10.664968 0.815515 11697996
10.062475 9.734623 3.918110 11697996
9.107169 10.576413 2.225373 11697996
8.783414 8.951381 1.157362 11697996
10.611959 9.167768 1.333780 11697996
10.080455 9.713098 2.251368 11697996
11.139012 10.352714 0.223564 11697996
11.088221 10.298042 3.535481 11697996
9.085413 10.195724 1.799068 11697996
9.899551 10.857100 3.210137 11697996
10.720702 10.684257 1.178632 11697996
11.172463 10.108330 1.915246 11697996
10.929382 11.216003 1.331940 11697996
10.735980 11.068742 3.790856 11697996
9.865866 10.270213 1.951010 11697996
11.242950 10.384892 0.469369 11697996
10.502085 10.025192 2.080903 11697996
10.066557 9.778337 3.663453 11697996
9.401321 10.688585 2.043564 11697996
9.612150 10.320120 2.661683 11697996
9.787438 9.640417 0.952494 11697996
9.122681 8.882817 3.348266 11697996
9.526327 8.978060 0.046284 11697996
10.745622 10.055820 2.245036 11697996
9.503652 9.167509 3.815128 11697996
9.943070 9.884016 2.139633 11697996
9.377125 10.525745 0.406828 11697996
9.666284 10.198848 2.091416 11697996
9.353718 11.130494 3.842683 11697996
9.924241 9.930152 2.212579 11697996
8.960345 10.274237 0.934501 11697996
9.613417 9.612243 2.357419 11697996
11.114792 10.449898 1.169017 11697996
10.872808 10.448627 1.600045 11697996
9.366721 9.379102 0.084128 11697996
9.904124 10.052890 1.261601 11697996
11.152848 9.839973 1.125168 11697996
9.744777 9.269614 0.014614 11697996
9.021420 9.515472 1.813904 11697996
10.849260 9.441584 0.631301 11697996
9.649909 10.041842 1.440217 11697996
9.710065 10.834834 0.266217 11697996
11.240506 10.282283 3.971672 11697996
8.750704 9.698395 2.573053 11697996
9.993168 10.775643 3.163614 11697996
10.113317 9.970360 2.274197 11697996
11.155238 9.861203 2.114278 11697996
9.790982 10.178487 3.475901 11697996
8.959340 9.196712 2.383844 11697996
9.667123 10.402450 2.826370 11697996
10.532319 9.853583 3.814325 11697996
