# .PCD v0.7 - Point Cloud Data file format
VERSION 0.7
FIELDS x y z rgb
SIZE 4 4 4 4
TYPE F F F U
COUNT 1 1 1 1
WIDTH 1291
HEIGHT 1
VIEWPOINT 0 0 0 1 0 0 0
POINTS 1291
DATA ascii
10.450694 11.205004 0.605388 11697996
11.116219 10.056111 1.924751 11697996
11.154613 9.740309 2.423091 11697996
10.585636 8.800400 1.206152 11697996
10.426716 11.016228 1.761827 11697996
11.206288 9.335027 0.410512 11697996
10.596869 10.629043 1.904420 11697996
9.721607 9.588008 1.401739 11697996
10.621202 9.753565 0.490257 11697996
10.781477 9.727225 0.241223 11697996
9.531953 11.239374 2.477700 11697996
9.577606 11.013308 2.393571 11697996
9.362430 8.743312 3.155318 11697996
10.883499 9.806896 1.087372 11697996
9.840211 10.608570 1.575258 11697996
9.913630 9.202360 3.309215 11697996
10.421893 10.949993 0.859165 11697996
8.755262 11.084170 0.091062 11697996
10.599915 8.958686 1.463220 11697996
10.588372 8.959509 2.468995 11697996
9.762890 9.292004 3.642300 11697996
11.078937 10.198147 2.030945 11697996
11.039204 11.075925 -0.016565 11697996
11.104795 9.072260 2.003793 11697996
10.245875 9.771200 2.059314 11697996
9.989621 9.277998 0.171489 11697996
8.879667 9.174993 2.080406 11697996
9.675759 9.660741 0.201296 11697996
8.811364 9.525650 1.879572 11697996
10.502179 8.817311 1.764596 11697996
9.111039 9.609121 0.292204 11697996
11.035521 8.791308 3.755785 11697996
10.545981 8.966466 1.863446 11697996
10.137435 9.203534 2.559970 11697996
9.291399 8.970905 0.189118 11697996
9.876685 10.697002 2.440110 11697996
9.203504 10.553986 3.011136 11697996
9.894434 10.422640 1.860846 11697996
9.087433 9.704781 1.747879 11697996
9.698429 10.394746 0.398395 11697996
10.042905 10.878068 2.405674 11697996
10.707540 9.934530 2.182198 11697996
9.722788 10.408422 3.660045 11697996
9.556673 10.280832 3.961537 11697996
8.854169 10.722781 1.043789 11697996
10.066721 10.814795 1.507370 11697996
8.790918 9.698609 0.340280 11697996
8.920693 9.893102 1.363020 11697996
10.427766 8.969125 2.594844 11697996
10.616487 10.812845 0.076564 11697996
11.181667 10.232259 1.786386 11697996
10.695228 10.166636 0.556406 11697996
11.197639 8.756268 2.305243 11697996
10.924487 9.297971 0.431575 11697996
8.992968 10.442178 1.648665 11697996
10.569878 10.664700 1.002846 11697996
10.754089 10.016537 2.764482 11697996
10.761673 10.121606 1.614180 11697996
10.259426 10.694865 3.560494 11697996
10.235801 11.095908 3.124249 11697996
9.233573 10.740031 1.147228 11697996
11.197233 9.509687 0.034230 11697996
10.408045 8.795321 0.680783 11697996
9.886656 10.081298 3.763092 11697996
9.815033 9.994253 3.304086 11697996
10.821816 11.131758 1.429658 11697996
10.111248 8.921477 0.111753 11697996
10.168769 10.606533 1.214844 11697996
10.578350 9.329938 2.016568 11697996
10.905914 9.817820 1.279156 11697996
8.763275 10.606709 1.214037 11697996
10.668349 9.675759 1.817552 11697996
10.872066 9.690415 3.602087 11697996
9.716713 9.165069 3.485709 11697996
9.740470 8.890998 3.187811 11697996
11.236392 9.059179 3.896719 11697996
9.275723 9.157695 2.710850 11697996
10.328436 10.652879 1.030556 11697996
10.286448 10.123924 0.919062 11697996
11.122260 11.110743 3.614635 11697996
9.464117 11.025565 3.370092 11697996
10.459430 9.522864 2.793960 11697996
11.136427 9.661041 0.666514 11697996
10.008842 9.173369 2.440748 11697996
10.796835 9.833957 0.127693 11697996
10.436637 11.127998 0.722537 11697996
9.272988 9.403007 2.058459 11697996
10.723685 11.038415 0.783656 11697996
9.715003 8.902326 1.928700 11697996
11.114650 9.065052 2.946966 11697996
10.968743 9.799233 0.445362 11697996
10.662041 11.225269 2.761600 11697996
9.253811 10.950970 0.346703 11697996
9.027355 9.502386 0.711148 11697996
10.230352 9.443862 1.664598 11697996
9.934996 8.990703 0.019419 11697996
9.724883 9.032115 0.706242 11697996
10.776194 8.955228 0.553784 11697996
9.765025 11.075746 0.922964 11697996
11.121794 10.961847 1.833920 11697996
10.036895 8.821983 3.410233 11697996
8.901816 10.699710 2.171515 11697996
10.131186 8.925317 1.564220 11697996
10.578449 10.223442 2.176841 11697996
10.588243 10.149587 2.123634 11697996
10.962177 9.593931 3.895660 11697996
10.570957 10.746922 3.877500 11697996
8.987341 9.607497 2.355464 11697996
9.904759 10.251506 2.272470 11697996
9.919999 10.855053 2.861847 11697996
10.297366 9.285419 0.038213 11697996
9.797340 8.801454 3.469040 11697996
9.914934 8.774891 1.805570 11697996
10.600699 9.410514 0.959940 11697996
10.358050 10.225315 1.391811 11697996
9.884196 10.624956 0.915903 11697996
10.772471 8.893161 2.516053 11697996
10.826785 11.232934 3.668872 11697996
11.036520 10.714880 1.338028 11697996
10.587203 11.014427 3.518945 11697996
11.209157 10.872257 3.827166 11697996
10.902220 10.158792 2.214137 11697996
9.802814 10.602807 0.128814 11697996
10.660480 9.664787 3.057977 11697996
9.106471 10.190601 3.395316 11697996
11.156165 10.473399 3.705389 11697996
10.084194 10.798732 0.168882 11697996
9.416132 9.446768 0.200492 11697996
10.448986 10.203701 0.770243 11697996
10.222695 10.702131 -0.003803 11697996
9.000700 11.050271 1.869872 11697996
9.333838 9.682954 0.130021 11697996
9.506570 8.841313 3.859009 11697996
10.323459 10.221727 3.787277 11697996
9.606371 10.998531 3.378361 11697996
11.159383 9.795371 0.832821 11697996
9.522377 9.746118 0.806293 11697996
10.569300 10.532268 2.023269 11697996
10.172552 8.864886 2.215996 11697996
10.014065 10.686274 1.615376 11697996
10.370600 9.822270 0.683209 11697996
9.826396 11.197211 0.442825 11697996
10.707008 9.765307 1.109167 11697996
10.452564 9.699392 3.563229 11697996
9.858083 10.565145 2.298147 11697996
11.243609 9.888783 0.317334 11697996
9.703028 9.255660 1.400697 11697996
8.978258 10.379799 3.619985 11697996
9.898756 9.054700 2.203731 11697996
11.233820 9.561668 1.001176 11697996
9.026392 9.914260 1.583588 11697996
11.202915 9.991907 0.265986 11697996
9.213656 11.113304 2.531880 11697996
10.793951 9.630397 1.801060 11697996
10.524120 10.550011 0.273512 11697996
10.701000 10.744006 2.425111 11697996
10.521699 10.067516 1.759041 11697996
11.190773 9.054402 0.974973 11697996
9.639580 11.128501 0.143645 11697996
9.581735 10.122760 3.730796 11697996
10.121314 9.721260 2.418144 11697996
9.394057 10.827412 2.730004 11697996
11.061718 10.502072 1.299810 11697996
9.027361 9.080351 0.981504 11697996
9.029535 10.335774 2.546716 11697996
10.795629 9.284701 0.059981 11697996
10.241514 10.665510 2.726246 11697996
9.635956 8.815114 3.547698 11697996
10.642090 10.454984 0.589060 11697996
10.655772 8.917337 2.183355 11697996
9.753645 10.118475 1.079434 11697996
10.099024 9.170310 2.322835 11697996
9.493015 9.702949 1.442372 11697996
8.986253 9.269807 0.230439 11697996
10.307291 9.881216 2.265498 11697996
10.829403 10.564534 3.739695 11697996
9.583965 9.253684 0.101953 11697996
9.577106 10.269254 0.530014 11697996
10.468978 9.255071 1.124355 11697996
9.460896 9.287372 2.784030 11697996
10.059490 9.189565 3.871165 11697996
11.152064 9.982293 2.684470 11697996
10.856492 9.591417 1.456409 11697996
10.121705 10.678535 3.802939 11697996
10.309843 10.772930 1.983745 11697996
10.954079 10.459145 1.422311 11697996
11.140373 10.833347 0.669824 11697996
9.734950 10.507751 1.095676 11697996
8.964207 9.871682 3.445269 11697996
11.086503 9.480371 3.173561 11697996
9.454317 10.721565 2.748911 11697996
10.189881 9.619147 1.959565 11697996
10.441449 9.212615 2.824558 11697996
11.254095 8.788983 3.276996 11697996
11.212381 9.924539 1.390118 11697996
10.407234 10.994791 0.391415 11697996
9.716336 11.130893 3.072630 11697996
9.631969 10.608648 1.468155 11697996
10.717503 9.462893 2.471002 11697996
10.210002 10.481739 3.925372 11697996
10.144053 10.867868 3.574192 11697996
9.204463 10.213931 2.115909 11697996
11.192288 10.995040 0.414063 11697996
10.309394 9.398549 3.729324 11697996
11.250964 9.629577 1.469956 11697996
10.348952 11.224337 3.798475 11697996
9.962478 9.583679 3.575708 11697996
11.138199 9.875288 0.659046 11697996
9.381554 9.092756 1.059904 11697996
10.188541 10.750760 0.443364 11697996
11.234084 10.323416 0.730321 11697996
9.690816 9.503380 1.463683 11697996
10.645412 9.075517 0.846122 11697996
9.314012 9.884553 3.634226 11697996
11.052826 9.631198 0.742264 11697996
9.506903 8.789797 3.787602 11697996
10.502542 9.242467 0.822290 11697996
8.996099 9.950041 3.944376 11697996
8.790128 11.197328 3.344627 11697996
8.808293 11.061817 0.978706 11697996
9.865784 10.030169 3.263287 11697996
9.865907 9.760917 1.712098 11697996
11.159646 10.769363 2.534470 11697996
9.106561 9.782826 2.272977 11697996
10.598646 9.281572 0.183106 11697996
10.943050 9.438053 0.014680 11697996
9.310953 9.387062 2.536942 11697996
11.167448 10.392347 1.046168 11697996
10.915850 10.169827 3.645617 11697996
10.467874 10.239578 3.514335 11697996
10.974575 9.498019 3.216731 11697996
9.936755 9.433904 3.837772 11697996
10.345170 10.584179 1.407152 11697996
9.006256 9.228436 2.711831 11697996
10.703562 9.394039 3.025905 11697996
10.883066 9.940125 1.382360 11697996
10.460196 8.806111 1.165475 11697996
10.702562 10.076468 1.331845 11697996
9.779831 9.860186 2.781336 11697996
11.114106 9.178621 0.652764 11697996
11.003502 11.250171 0.882197 11697996
9.140708 8.770429 1.659413 11697996
9.495866 11.171424 2.143583 11697996
10.738358 9.487882 1.091076 11697996
9.041028 9.327072 2.123771 11697996
10.401787 9.012568 1.294815 11697996
9.604384 9.617322 0.086886 11697996
10.372355 10.109953 1.578619 11697996
10.533690 9.541897 2.824016 11697996
11.069559 10.894842 1.704194 11697996
10.834588 11.102067 3.533243 11697996
9.464688 9.089710 0.043105 11697996
9.595581 9.004415 2.092790 11697996
10.035718 9.803573 3.295740 11697996
9.319820 10.304955 1.512645 11697996
8.883391 11.200835 2.820570 11697996
9.700765 9.351924 1.648847 11697996
9.257854 9.555775 3.890521 11697996
9.652245 8.907306 3.219102 11697996
10.330473 10.884939 2.012850 11697996
9.804303 9.388077 0.790960 11697996
9.359189 11.147179 1.995937 11697996
10.946033 9.273549 3.358303 11697996
9.597914 9.680882 3.045038 11697996
9.337626 9.831599 1.947466 11697996
9.016488 9.369395 1.654669 11697996
8.871414 10.351826 3.471419 11697996
9.013656 9.334435 2.438492 11697996
9.344905 9.905110 3.715281 11697996
10.506315 10.916600 3.679926 11697996
10.067403 10.372253 2.953413 11697996
10.080654 10.732044 0.064918 11697996
10.548610 9.233275 2.104971 11697996
8.721357 11.222429 0.411042 11697996
9.707605 10.795720 0.045265 11697996
10.952627 9.058949 1.009798 11697996
9.335375 8.944548 1.190887 11697996
10.918484 9.061820 3.753457 11697996
10.906219 10.878734 1.188049 11697996
9.864503 9.105037 3.925534 11697996
8.798955 9.300220 3.136804 11697996
10.455507 9.282180 0.762540 11697996
10.299300 9.312943 1.157585 11697996
10.929313 9.148172 0.422517 11697996
9.103270 9.939265 1.494963 11697996
9.834246 11.171758 2.220153 11697996
10.499531 10.882448 2.267942 11697996
9.536484 10.625366 1.240496 11697996
10.230291 9.772347 3.937006 11697996
9.502717 10.163955 1.363702 11697996
9.904128 10.705417 0.370682 11697996
10.106799 9.298457 3.635264 11697996
11.016794 9.966589 1.050214 11697996
10.704627 10.093177 2.435784 11697996
9.505967 10.025453 1.742751 11697996
11.035675 9.841678 2.158799 11697996
11.240525 11.119051 1.088098 11697996
11.138605 11.083872 3.705441 11697996
11.130359 10.928967 3.089127 11697996
9.338366 9.655050 2.984702 11697996
8.860556 10.288704 2.757091 11697996
10.566907 8.991638 1.539499 11697996
11.126841 11.097330 2.258536 11697996
8.803600 10.787249 1.941429 11697996
10.461639 9.460859 1.472844 11697996
9.820409 10.210407 0.150516 11697996
8.846491 10.777762 3.857728 11697996
10.464175 9.105907 3.258644 11697996
10.974398 10.201167 3.562081 11697996
11.214007 8.876584 1.545880 11697996
10.953696 11.083973 0.763228 11697996
10.945559 9.704625 3.096998 11697996
10.573096 10.374134 3.620670 11697996
10.781762 10.272005 3.875912 11697996
9.520922 9.651345 0.630150 11697996
10.194664 10.516395 2.074461 11697996
10.009938 9.263570 0.628155 11697996
9.823512 8.934319 1.370901 11697996
8.740048 10.320114 1.045037 11697996
9.241479 11.075671 2.051821 11697996
10.460655 9.932936 1.992402 11697996
9.735327 9.781006 0.731649 11697996
9.470548 9.873047 2.379591 11697996
10.648821 9.481670 0.325723 11697996
10.551999 9.366782 1.874075 11697996
10.365484 11.155179 2.701615 11697996
10.367896 11.000388 2.445675 11697996
10.042261 10.268353 2.999004 11697996
9.684457 9.911716 1.243438 11697996
9.504576 10.663721 1.516137 11697996
9.042274 9.869157 2.699722 11697996
10.150692 9.521231 0.867553 11697996
10.842443 10.623999 1.996716 11697996
11.126652 10.602711 1.208084 11697996
10.222077 10.667053 3.693366 11697996
9.486042 9.410649 3.638049 11697996
10.461977 8.801648 2.610701 11697996
9.050471 10.142340 3.905226 11697996
10.912603 10.106185 3.900047 11697996
10.445778 10.795485 0.095486 11697996
11.026913 9.396969 3.877124 11697996
10.447927 10.273934 0.825405 11697996
11.156469 10.589240 3.725767 11697996
10.614251 9.432760 3.039965 11697996
10.735414 8.894763 3.491748 11697996
10.999581 9.789888 1.018061 11697996
9.296883 10.844519 0.561744 11697996
9.868824 9.976718 3.166537 11697996
8.993066 8.805274 3.653569 11697996
11.223415 10.301925 2.829111 11697996
9.675550 10.982093 2.422298 11697996
10.451650 9.840796 2.699725 11697996
10.285260 10.739561 2.957210 11697996
8.850368 8.833235 2.735348 11697996
10.658506 11.063386 1.909133 11697996
8.752053 9.038016 2.701252 11697996
9.291012 10.443744 2.159681 11697996
9.423540 9.003329 0.725145 11697996
9.167968 9.249119 2.207647 11697996
10.795509 9.205293 3.694738 11697996
11.142229 9.638714 0.257557 11697996
9.937655 10.399742 3.521019 11697996
9.288357 10.407825 2.207746 11697996
9.577638 9.106277 2.213582 11697996
10.639536 10.685969 0.021810 11697996
11.042571 11.145643 2.811487 11697996
10.676350 11.213490 0.054978 11697996
10.773636 9.980136 3.962140 11697996
10.176708 10.745054 3.857843 11697996
9.935708 8.789154 1.254081 11697996
10.889568 9.014596 3.169749 11697996
8.822759 9.502291 1.471176 11697996
9.957131 8.961867 1.299583 11697996
9.066415 10.306661 0.457546 11697996
10.778497 9.153363 3.317519 11697996
10.153012 9.535912 2.056639 11697996
9.696084 10.069782 3.957927 11697996
11.188704 11.192371 3.958766 11697996
9.799754 9.212890 3.447901 11697996
11.106949 9.751140 1.381037 11697996
9.063313 9.897481 2.924405 11697996
8.799112 10.471062 3.234722 11697996
10.351017 9.280241 3.413529 11697996
10.675277 9.561573 1.768364 11697996
10.419743 8.799169 1.752769 11697996
10.693049 9.914217 2.274329 11697996
8.841893 9.335985 2.970579 11697996
9.806155 10.879787 3.090576 11697996
9.530241 9.608290 3.530457 11697996
9.927071 9.768981 1.453247 11697996
8.866511 11.131623 2.992251 11697996
9.025467 10.319703 1.960287 11697996
8.747252 10.692067 0.111670 11697996
9.845074 9.312501 2.531867 11697996
11.174778 9.365158 1.265964 11697996
9.263671 9.880503 2.031915 11697996
8.951447 11.002746 0.550762 11697996
10.066664 10.011089 2.205496 11697996
9.825106 10.267873 3.031915 11697996
11.025257 10.617186 3.594251 11697996
8.794545 9.067842 1.996844 11697996
9.804074 8.917548 0.516833 11697996
10.382292 8.961245 3.372647 11697996
9.892093 10.229180 1.536124 11697996
10.281159 8.899842 1.457187 11697996
11.030183 9.267573 1.366647 11697996
10.213506 10.244308 3.172351 11697996
9.950047 9.234014 2.481843 11697996
10.483470 10.335193 1.345980 11697996
11.028113 10.942311 1.357619 11697996
9.005164 10.394815 0.686669 11697996
9.115576 10.253972 1.662965 11697996
9.023488 9.311657 0.089661 11697996
10.816149 9.152022 1.138473 11697996
10.405621 10.200871 2.224477 11697996
9.428045 10.843679 1.032149 11697996
8.920644 10.667448 1.400043 11697996
11.019135 10.748416 0.380185 11697996
9.968089 10.165822 2.675349 11697996
9.337028 10.670762 2.821744 11697996
10.863770 8.987988 3.845291 11697996
10.883043 10.083353 2.547173 11697996
9.768504 9.923725 3.932810 11697996
11.168382 11.032452 2.122448 11697996
10.501975 10.311182 1.332750 11697996
10.548035 9.269423 1.171105 11697996
10.796105 9.188763 2.787342 11697996
8.893600 10.797939 0.580034 11697996
10.376016 8.907529 2.999520 11697996
9.507932 9.899486 1.427720 11697996
9.346098 9.594844 0.394986 11697996
10.852657 10.488109 3.670388 11697996
10.624471 9.804297 3.901366 11697996
8.851880 10.882660 2.182322 11697996
9.671015 9.794634 2.982734 11697996
9.055473 8.785209 2.575243 11697996
11.040270 9.674732 1.592798 11697996
10.723814 10.819080 0.143332 11697996
9.380659 11.104124 2.735014 11697996
10.338834 10.127989 2.543480 11697996
9.566359 9.520659 2.046747 11697996
8.892654 9.993907 1.964082 11697996
9.107637 10.715572 0.874615 11697996
8.809033 10.814731 1.714005 11697996
9.784666 9.976658 2.063130 11697996
10.288490 9.002466 1.704439 11697996
9.536496 9.911778 0.554829 11697996
9.321261 9.649220 0.723354 11697996
8.806191 10.257224 3.142415 11697996
10.435357 10.292109 3.714901 11697996
10.780494 10.770947 0.039717 11697996
10.256973 10.158447 0.521798 11697996
11.033011 9.858355 1.886083 11697996
9.802649 9.270674 2.227988 11697996
10.075386 9.052845 0.095067 11697996
9.674943 10.045115 0.950735 11697996
10.569599 10.069451 1.582417 11697996
9.266035 11.113931 2.435518 11697996
9.702370 10.112002 0.765999 11697996
9.882629 10.863846 0.172660 11697996
10.397648 10.489862 2.048810 11697996
9.150809 10.026206 0.488001 11697996
8.848632 10.994209 0.864403 11697996
11.093980 9.341958 0.812683 11697996
10.134181 9.248213 2.601151 11697996
10.981302 10.837050 0.516516 11697996
10.445160 11.005942 2.149839 11697996
9.016132 10.279588 3.560340 11697996
9.404154 9.566420 0.153000 11697996
11.107605 9.008647 3.004288 11697996
11.116783 8.994613 3.867294 11697996
8.859162 10.529971 0.383577 11697996
8.870267 9.489719 0.765904 11697996
10.281379 11.135484 2.999729 11697996
8.792829 10.196889 0.885550 11697996
8.749411 8.812846 3.781779 11697996
11.232330 10.585571 2.110815 11697996
10.382265 9.035285 3.209162 11697996
9.348054 9.191548 0.534936 11697996
10.966593 9.711521 3.319799 11697996
10.619003 10.430275 0.437430 11697996
9.778295 8.972647 3.759976 11697996
9.317228 9.420605 2.424834 11697996
9.095416 9.237824 3.877801 11697996
9.802855 9.751113 1.998141 11697996
10.480234 10.561951 0.021172 11697996
9.537948 10.836342 1.251780 11697996
10.340951 10.415260 2.612951 11697996
11.017535 10.960975 0.609006 11697996
9.258437 9.496655 1.088310 11697996
9.574588 9.304968 2.852112 11697996
9.645481 10.372701 1.355714 11697996
10.079129 10.905254 3.154846 11697996
11.169066 9.780980 0.006523 11697996
9.468268 9.526120 0.953738 11697996
8.952229 10.660762 1.245297 11697996
9.102822 9.096260 3.649051 11697996
10.848600 9.833600 2.445153 11697996
11.204372 8.920550 3.988782 11697996
9.978992 10.804931 1.871072 11697996
8.908802 9.009481 1.008639 11697996
9.656946 10.213826 1.017164 11697996
10.307500 9.585067 1.545974 11697996
10.802900 10.352591 1.332962 11697996
10.245655 9.346942 3.933422 11697996
10.090895 9.557785 3.270601 11697996
9.006605 10.405012 0.919660 11697996
9.867629 9.222023 3.716127 11697996
11.124979 8.974259 2.099139 11697996
10.804251 10.809077 0.414989 11697996
9.169872 10.336346 0.829188 11697996
9.373546 11.109706 3.171801 11697996
9.781501 9.008959 0.134973 11697996
10.021182 9.632609 0.406989 11697996
8.839743 10.016654 2.489846 11697996
9.949146 11.096816 0.889529 11697996
10.428119 9.962845 0.034810 11697996
10.301895 9.611665 2.991983 11697996
10.054241 9.205769 3.341522 11697996
10.303680 9.812524 3.815817 11697996
9.316382 11.110917 1.621704 11697996
9.098099 10.508169 1.417012 11697996
8.873675 9.923401 2.262622 11697996
9.850010 10.254087 2.350470 11697996
10.827822 10.544738 1.382760 11697996
10.938042 9.906301 3.711321 11697996
10.282417 10.034022 2.634785 11697996
8.898848 9.612107 1.996927 11697996
10.923220 10.796192 1.430190 11697996
10.801628 8.845942 3.050085 11697996
9.041307 10.248968 3.213735 11697996
10.803427 8.943560 1.563078 11697996
9.227334 10.901611 0.476581 11697996
10.780341 9.932426 0.039792 11697996
10.716568 10.343755 3.578283 11697996
10.873473 10.952436 2.306185 11697996
10.028007 9.537272 3.330461 11697996
10.979078 10.255410 0.203871 11697996
8.888571 9.301355 2.634034 11697996
9.419861 8.807912 2.979617 11697996
9.372082 10.137528 1.948736 11697996
10.792027 10.830942 3.202376 11697996
8.941816 8.941725 0.494364 11697996
10.832947 10.681528 3.094600 11697996
9.955529 10.071526 3.262907 11697996
11.198636 10.625823 2.867936 11697996
11.074218 10.065555 1.979400 11697996
9.172082 9.984887 2.803459 11697996
10.589926 10.785826 3.168297 11697996
9.368763 10.745708 1.736387 11697996
11.198885 9.439972 3.550478 11697996
10.963487 9.548962 1.000635 11697996
8.931408 11.032939 0.423543 11697996
8.837997 10.916594 0.122059 11697996
10.221429 10.020506 1.335727 11697996
10.630216 10.273602 1.464407 11697996
8.942470 9.984386 3.777601 11697996
10.433259 10.597878 1.822050 11697996
9.634439 11.142700 2.699773 11697996
10.889246 9.681158 3.164674 11697996
8.849231 10.885565 3.918059 11697996
10.888208 10.423301 1.887904 11697996
10.729148 9.682878 1.105111 11697996
9.814169 9.400930 0.389158 11697996
10.089410 10.061500 2.734978 11697996
9.797245 11.161962 0.751225 11697996
8.979319 10.014372 3.944939 11697996
10.460135 9.827262 3.145355 11697996
9.386586 9.780720 0.665599 11697996
8.946461 11.160337 3.089646 11697996
9.253760 9.080563 3.730092 11697996
11.104077 9.030849 2.146025 11697996
11.209844 10.810122 0.931389 11697996
10.868080 10.587475 3.706568 11697996
9.094337 9.621606 3.969052 11697996
10.777672 10.618853 2.177977 11697996
10.653148 10.543710 0.428853 11697996
9.210500 9.011817 1.661271 11697996
9.297554 9.957356 3.781839 11697996
8.865127 9.624846 1.855115 11697996
10.651020 8.938054 1.616884 11697996
10.686275 10.491943 2.355727 11697996
10.620549 9.821061 1.874418 11697996
10.890373 10.085226 4.005508 11697996
9.037488 9.449123 2.797980 11697996
10.454535 9.720407 3.162004 11697996
10.771369 9.002731 2.149004 11697996
9.084042 10.808490 0.124076 11697996
9.272798 11.076860 3.242745 11697996
9.901190 10.932695 0.793392 11697996
10.895890 10.757343 0.846396 11697996
9.222133 9.488174 1.072788 11697996
10.448915 9.711176 3.635520 11697996
10.886336 11.214891 0.733856 11697996
9.225283 11.148046 2.135683 11697996
9.622354 10.671786 1.811242 11697996
10.091960 9.917748 3.945873 11697996
9.377327 10.943936 2.690234 11697996
10.855951 10.514568 3.169000 11697996
10.796009 10.884618 3.096122 11697996
9.750136 10.534063 1.326005 11697996
10.799473 9.327422 1.136293 11697996
9.990124 9.366123 0.575079 11697996
9.008747 9.527184 1.064464 11697996
9.153222 9.168093 0.228749 11697996
9.293766 10.318302 3.837940 11697996
9.726384 8.889830 0.451135 11697996
9.214475 8.743464 2.310186 11697996
10.874456 9.187765 2.982271 11697996
8.870911 9.654945 3.902748 11697996
9.545914 10.140446 3.672715 11697996
11.033638 9.195616 0.894896 11697996
10.709692 9.453742 1.245002 11697996
9.850809 9.590534 1.575275 11697996
8.773498 11.151503 2.168977 11697996
11.145679 10.272650 2.379472 11697996
11.196458 9.591683 1.179904 11697996
11.169429 9.781093 0.714750 11697996
9.137258 9.776557 2.488496 11697996
9.129524 10.323701 3.259902 11697996
9.535106 9.411941 2.871534 11697996
8.832960 9.534409 3.755169 11697996
10.169995 10.855998 2.587526 11697996
10.587279 10.299124 3.807359 11697996
9.996240 10.094852 3.895395 11697996
8.834366 8.902013 1.687194 11697996
10.232126 8.970978 0.259530 11697996
9.116093 10.992808 0.782783 11697996
8.773136 8.883369 3.126038 11697996
9.940076 8.925862 3.156348 11697996
11.154037 10.951600 2.196264 11697996
9.269949 8.779866 0.896559 11697996
8.992237 9.102246 1.599376 11697996
9.319213 10.212999 1.382391 11697996
10.509644 8.769286 3.294658 11697996
10.713647 9.811016 3.725880 11697996
9.599806 9.733582 0.398250 11697996
9.362983 8.788557 3.304143 11697996
10.670639 9.573378 2.401479 11697996
10.147937 9.501182 3.979848 11697996
9.588450 9.813724 1.663576 11697996
9.797561 10.175898 3.021796 11697996
10.014207 9.399047 1.848292 11697996
10.724821 10.951434 1.415349 11697996
9.967582 8.834296 1.483077 11697996
9.189741 10.412252 1.892260 11697996
9.177122 11.033613 2.047835 11697996
9.966003 9.785220 3.667600 11697996
11.045980 10.102934 0.180786 11697996
9.345014 10.966393 1.390145 11697996
9.853254 10.189035 3.394756 11697996
11.238981 10.695478 0.223001 11697996
10.024595 9.607866 1.276360 11697996
10.897146 9.394346 2.336592 11697996
10.598159 8.781390 1.632907 11697996
8.876647 10.829938 2.377706 11697996
9.035988 9.449978 1.783673 11697996
9.215127 8.840614 3.811029 11697996
9.794542 9.084496 1.114063 11697996
9.597942 8.813582 3.049270 11697996
10.619236 8.784823 2.803589 11697996
11.187474 9.452406 0.259430 11697996
11.229086 9.880885 2.898328 11697996
10.175428 11.221241 0.655015 11697996
10.019033 10.783095 2.001255 11697996
9.791551 10.504654 1.076334 11697996
10.701222 9.843563 2.491557 11697996
10.748661 8.859017 1.742318 11697996
10.654149 9.182842 0.596816 11697996
10.429245 10.744001 0.650216 11697996
8.761493 9.245517 3.443566 11697996
9.955429 10.374654 1.007801 11697996
10.033885 10.834228 1.656671 11697996
8.861548 10.278957 3.875745 11697996
9.441345 10.059955 1.586792 11697996
10.840446 9.815356 1.616199 11697996
8.790654 8.884830 1.050177 11697996
9.420193 11.088660 1.689097 11697996
10.919206 9.461667 1.647049 11697996
8.803306 11.218536 2.968913 11697996
8.874374 10.079119 0.906043 11697996
10.591057 10.730450 0.870182 11697996
9.082227 8.820089 2.633512 11697996
10.021061 9.549649 2.598135 11697996
8.807577 10.125377 3.359028 11697996
10.567158 9.492899 2.530082 11697996
8.893055 9.833696 0.534321 11697996
9.556512 10.172536 3.947971 11697996
8.831045 9.932138 1.294689 11697996
9.236480 10.336680 3.156168 11697996
11.214644 11.044502 0.860134 11697996
9.796927 9.909567 0.346279 11697996
9.662495 9.880689 0.265040 11697996
10.991256 9.936886 1.359208 11697996
9.240381 11.187507 0.628170 11697996
11.043535 11.116260 2.965189 11697996
11.063656 10.672882 1.311622 11697996
10.458187 10.530755 0.231802 11697996
10.003046 11.179157 1.519438 11697996
10.527088 10.255092 3.802840 11697996
9.388956 10.501070 0.569636 11697996
10.629792 9.388091 3.117618 11697996
10.279581 10.705293 0.759415 11697996
8.803674 10.066911 1.639512 11697996
11.154813 9.731331 1.522563 11697996
8.942401 9.315809 3.460574 11697996
10.309992 8.840610 3.599400 11697996
10.475144 8.830352 3.948501 11697996
9.292785 9.113766 2.128024 11697996
10.472618 10.819225 0.622517 11697996
10.656192 9.724256 0.420997 11697996
10.652069 9.866280 1.923380 11697996
9.430322 9.800480 3.625723 11697996
8.931763 9.160400 2.882224 11697996
10.315115 9.192096 2.863965 11697996
10.030848 11.057864 3.077136 11697996
10.352700 10.585537 3.478504 11697996
10.094306 10.077690 0.866605 11697996
9.944293 9.600006 0.427916 11697996
9.489155 10.968502 1.449264 11697996
10.124175 8.910608 1.154983 11697996
10.083028 11.143270 2.652043 11697996
10.073187 9.378174 2.254976 11697996
9.013175 8.864803 0.226603 11697996
9.275477 9.234763 2.052088 11697996
9.311574 10.901960 0.817187 11697996
11.182677 9.656446 1.963076 11697996
10.537728 11.225912 1.990855 11697996
9.202586 11.067610 0.625863 11697996
8.791658 11.234689 0.066525 11697996
9.408853 10.107110 0.740207 11697996
10.598089 10.512911 2.648071 11697996
10.782827 10.357481 1.070168 11697996
9.571795 10.957246 1.486026 11697996
9.048347 9.019351 1.557457 11697996
9.734198 10.957647 1.275558 11697996
9.750442 9.055837 0.592228 11697996
9.235383 8.978521 2.033769 11697996
10.945307 10.387483 0.055092 11697996
10.597690 9.241179 1.802783 11697996
10.031776 9.961923 1.121840 11697996
10.316413 10.483794 3.147794 11697996
9.934299 10.980639 0.356857 11697996
9.106375 10.555458 3.457570 11697996
9.620983 11.202399 3.397364 11697996
8.998301 10.529298 0.463261 11697996
10.146285 8.884774 3.239779 11697996
10.780248 10.328651 0.773278 11697996
10.109046 8.836954 2.446055 11697996
11.251082 9.073140 0.470017 11697996
9.515944 9.196453 0.627045 11697996
11.239426 9.006351 3.292967 11697996
9.186872 9.740907 0.780300 11697996
9.364355 9.240125 3.999391 11697996
10.476988 9.229280 2.551679 11697996
9.834117 9.381191 1.004791 11697996
10.033212 11.178563 2.938628 11697996
11.112968 10.369416 0.296796 11697996
10.824360 9.262741 1.019889 11697996
10.623913 10.665637 3.167788 11697996
10.575763 10.909964 1.448938 11697996
9.957942 9.061495 0.764731 11697996
10.725064 9.773595 0.191086 11697996
9.013027 9.971558 0.491538 11697996
10.834786 9.633414 1.414610 11697996
10.616515 11.220490 3.951097 11697996
10.635448 9.628683 3.776724 11697996
11.169391 9.920874 2.947629 11697996
11.098957 10.004046 3.055500 11697996
8.807037 10.899744 2.768573 11697996
11.063418 9.860716 2.739607 11697996
9.270858 9.755293 3.420795 11697996
9.306929 8.988173 3.433932 11697996
9.846376 10.730448 2.522370 11697996
10.905862 9.184698 0.168000 11697996
10.722045 10.499300 1.267352 11697996
9.903487 10.679351 2.343444 11697996
9.129848 10.443170 1.763077 11697996
10.227824 9.343970 2.238300 11697996
11.034385 10.165412 0.215015 11697996
10.058769 11.162365 2.977262 11697996
10.649817 10.996105 3.821965 11697996
9.727643 8.821157 1.538418 11697996
9.599864 9.478637 1.373931 11697996
10.686862 10.724753 1.616356 11697996
9.584132 10.455946 2.699055 11697996
10.222631 11.255609 0.292618 11697996
9.610425 8.858008 3.302012 11697996
9.548327 10.304408 3.169432 11697996
10.326521 9.095799 3.345510 11697996
9.396268 10.352855 2.991606 11697996
9.605503 10.640927 1.744219 11697996
9.083612 10.795392 2.191956 11697996
10.792011 10.514565 0.907485 11697996
10.849493 10.950768 3.688778 11697996
10.683507 10.950197 1.697603 11697996
11.213987 9.275375 3.299342 11697996
9.865255 11.226608 1.742224 11697996
8.841211 8.786983 2.466669 11697996
9.187391 10.104101 3.110917 11697996
10.577100 10.059354 0.197248 11697996
8.863503 10.177879 3.381752 11697996
10.302237 9.525473 0.813441 11697996
10.219549 8.978683 1.392270 11697996
9.614118 8.893144 3.592425 11697996
9.753538 9.806102 1.555914 11697996
10.882799 9.972264 3.060254 11697996
10.701680 10.355721 3.298756 11697996
10.800739 10.495399 0.661824 11697996
10.754977 10.224089 3.850983 11697996
11.085624 9.517010 1.686178 11697996
9.493949 10.789084 2.588443 11697996
10.217731 8.756197 3.131354 11697996
11.163413 9.483400 2.700003 11697996
10.285202 10.098912 2.071268 11697996
10.357530 10.023637 0.978337 11697996
8.888270 10.979000 3.436552 11697996
10.658109 9.906991 1.764071 11697996
9.463419 9.999135 2.162721 11697996
10.085118 10.694674 3.247469 11697996
9.274997 10.493304 1.850955 11697996
9.242620 9.746570 2.744431 11697996
9.777494 9.138678 3.565424 11697996
9.596660 11.033417 2.031753 11697996
10.610264 8.883631 1.281175 11697996
8.907186 11.143552 0.043501 11697996
11.026880 10.381681 2.074696 11697996
8.869105 11.180321 0.024768 11697996
9.272312 11.113582 1.560558 11697996
10.126988 9.199794 1.480172 11697996
9.213278 10.586370 0.500924 11697996
10.790425 10.952110 3.776589 11697996
10.156790 9.820589 2.638955 11697996
10.963322 10.457542 2.315882 11697996
11.152751 9.922956 2.125233 11697996
9.974136 10.241526 2.181486 11697996
10.040744 10.174484 2.064652 11697996
8.904751 9.550521 0.948961 11697996
10.407115 11.004177 2.189598 11697996
10.999125 10.955057 1.681204 11697996
9.992442 8.850237 0.555266 11697996
9.308845 10.375332 3.297842 11697996
11.161900 9.195262 3.172603 11697996
11.108585 10.635260 2.376279 11697996
10.875559 11.138099 1.206447 11697996
10.719008 9.554815 2.698959 11697996
9.992723 10.847652 1.092282 11697996
11.067204 10.009624 1.269626 11697996
8.990089 10.052600 2.574182 11697996
10.085370 10.391217 0.478839 11697996
10.831441 9.924124 3.413351 11697996
9.843741 10.369065 3.098709 11697996
10.110823 11.177480 1.571106 11697996
9.545307 9.968317 1.540199 11697996
10.317815 10.211045 3.248815 11697996
10.902309 10.692154 3.161084 11697996
10.681145 10.699521 0.894107 11697996
10.705870 10.057442 1.550011 11697996
9.732959 10.707705 3.968112 11697996
10.861607 9.554952 1.427623 11697996
9.055802 10.138570 3.935164 11697996
9.173749 9.535578 0.275514 11697996
10.951184 10.894320 1.627578 11697996
10.161647 10.236656 2.356223 11697996
9.554885 10.958815 1.807415 11697996
10.115318 10.751408 0.199805 11697996
10.895259 8.887267 0.797297 11697996
9.105905 10.842333 0.674414 11697996
11.027153 10.977139 0.530281 11697996
10.070719 10.188147 3.191283 11697996
10.375671 9.967324 0.194674 11697996
10.214730 8.945519 1.600744 11697996
9.297351 8.920545 1.467993 11697996
8.965866 10.311626 3.077861 11697996
10.511030 9.353661 1.531650 11697996
9.188377 9.328453 3.704534 11697996
9.493093 9.217423 0.589763 11697996
10.312757 11.068965 1.188700 11697996
10.512651 9.159573 1.482351 11697996
11.164896 10.395061 1.887665 11697996
10.633820 8.983393 3.679667 11697996
10.927667 10.816057 0.813318 11697996
10.876223 9.178175 1.491110 11697996
9.594510 11.173425 1.840533 11697996
8.947697 10.211512 1.821147 11697996
11.218046 10.142860 0.218499 11697996
10.033354 10.983313 3.613899 11697996
10.606141 10.310314 0.270843 11697996
8.856002 10.564693 0.641719 11697996
9.011024 8.853093 1.487576 11697996
10.927431 9.441200 0.183168 11697996
10.423503 9.474957 3.717763 11697996
10.242133 10.446924 0.725624 11697996
10.409702 10.774483 0.142724 11697996
10.780510 9.189427 1.237154 11697996
10.972359 9.796860 3.721085 11697996
10.456216 9.595805 1.561010 11697996
8.863955 8.923305 0.573242 11697996
10.171535 10.273778 3.686515 11697996
9.256455 10.996032 0.644999 11697996
10.777245 8.786753 0.557103 11697996
8.969073 10.715462 2.559906 11697996
10.721528 9.466271 3.090582 11697996
9.542042 9.786007 0.830555 11697996
10.992765 11.168685 2.358097 11697996
9.575040 10.543834 2.838718 11697996
9.648808 11.127582 1.296822 11697996
9.809927 11.141385 2.717691 11697996
10.312185 10.314096 3.027122 11697996
10.432078 10.672879 3.542079 11697996
10.940810 10.668960 1.449431 11697996
9.101108 10.883230 2.693613 11697996
10.811807 9.654346 0.382517 11697996
10.999962 10.531719 3.107212 11697996
8.786996 9.064807 3.975475 11697996
9.456406 9.431136 2.480521 11697996
10.716612 10.243007 2.463164 11697996
8.800008 9.440485 0.683886 11697996
10.279680 9.196651 3.724522 11697996
10.140609 9.126837 2.577434 11697996
10.373644 11.023069 2.564288 11697996
9.071636 9.505827 1.916579 11697996
10.078024 9.363285 2.230310 11697996
9.172184 9.390267 0.653638 11697996
11.022720 9.574659 3.971707 11697996
10.261870 10.757132 1.878786 11697996
10.982461 10.012011 2.436119 11697996
10.276313 10.937506 1.712623 11697996
9.646838 9.761651 3.336939 11697996
10.570134 8.891514 1.971164 11697996
9.262067 10.721891 1.515737 11697996
9.363577 9.263114 2.076075 11697996
9.106117 9.074010 3.251598 11697996
9.395464 10.490112 2.006428 11697996
11.091497 9.081717 2.314994 11697996
11.161900 9.919637 2.433266 11697996
9.291760 11.171271 2.958934 11697996
9.594298 11.217813 1.206717 11697996
9.092916 9.524056 3.193266 11697996
11.159817 8.944999 1.381828 11697996
10.239733 9.953156 1.693528 11697996
10.083260 10.447487 2.651786 11697996
9.354926 9.152966 0.711169 11697996
9.960457 9.406756 0.386809 11697996
9.089674 8.919140 1.409274 11697996
8.837358 10.340540 2.394113 11697996
9.764031 8.973114 2.981526 11697996
10.141483 10.946934 0.871480 11697996
11.040416 9.232763 4.012370 11697996
10.807872 8.992323 1.265429 11697996
9.626297 9.910347 2.827991 11697996
10.066996 9.342655 2.830841 11697996
10.065362 11.129119 3.089951 11697996
11.018209 10.885649 3.227392 11697996
9.411246 10.904117 0.998576 11697996
9.539794 10.773499 1.075374 11697996
8.743349 9.331768 0.095428 11697996
10.514183 10.791896 2.052462 11697996
10.465060 10.662708 2.473542 11697996
10.191401 9.064724 2.937281 11697996
10.345019 9.632154 3.728631 11697996
9.177162 10.707843 3.708401 11697996
9.695228 10.856021 2.556012 11697996
10.978941 9.924606 0.450612 11697996
10.614122 10.828113 3.384948 11697996
10.764372 10.252124 2.094593 11697996
10.353103 10.428775 0.309513 11697996
10.996427 10.458247 2.641113 11697996
9.705155 9.685780 2.607719 11697996
11.136192 10.936667 1.317388 11697996
9.404600 9.514855 3.144756 11697996
10.922602 8.908377 3.623362 11697996
11.193769 9.830749 1.941137 11697996
10.451086 10.290464 2.638765 11697996
9.653889 9.137946 0.419526 11697996
11.224552 10.403157 0.284620 11697996
9.984340 9.284019 1.010585 11697996
10.384171 10.345486 2.363722 11697996
10.802500 8.794681 1.181880 11697996
9.966585 9.028879 0.555983 11697996
9.683372 11.166095 0.814489 11697996
10.133233 9.172396 1.173237 11697996
8.913291 9.494355 1.572548 11697996
9.734878 8.893435 1.720005 11697996
9.817916 9.859962 1.048394 11697996
10.101573 10.843456 3.399410 11697996
10.235332 8.938824 1.125889 11697996
9.065351 10.185630 1.319700 11697996
11.101023 8.849349 1.983906 11697996
11.057309 9.357733 2.198322 11697996
11.069836 9.179484 3.953142 11697996
8.880490 10.418359 2.279035 11697996
8.856396 10.425005 0.505233 11697996
9.059942 11.094559 3.756436 11697996
9.187099 9.665695 0.812892 11697996
9.228898 10.767275 1.413549 11697996
9.354965 10.728997 1.330016 11697996
10.979448 10.252286 1.953985 11697996
10.385971 10.539445 2.548378 11697996
8.872186 10.246634 3.270868 11697996
9.476404 10.222168 3.617527 11697996
9.082493 10.923699 3.212045 11697996
11.142348 10.264192 0.738220 11697996
9.423784 9.051454 2.432665 11697996
9.145260 10.060588 1.086201 11697996
11.105138 9.485127 2.033163 11697996
10.811495 9.520804 0.268763 11697996
9.772367 10.400296 1.847381 11697996
10.273111 10.104166 1.221368 11697996
8.765670 10.442316 3.104072 11697996
10.316819 9.221490 1.361869 11697996
9.766747 9.291273 0.000285 11697996
9.223613 9.972612 2.858371 11697996
10.559456 9.539819 0.879942 11697996
10.200497 10.171118 3.555573 11697996
8.903810 11.077599 1.891187 11697996
11.012758 9.203714 1.333254 11697996
9.200700 9.787489 2.932327 11697996
8.921353 9.057514 2.142241 11697996
9.431526 10.247709 1.054827 11697996
11.057956 9.639100 3.499483 11697996
9.642326 10.076679 1.966690 11697996
10.591749 11.187104 0.059232 11697996
9.693932 9.627844 1.361227 11697996
10.770775 8.905070 3.665554 11697996
9.599025 10.431464 0.270783 11697996
10.780447 10.027457 2.886157 11697996
9.104554 10.061048 3.769502 11697996
9.019145 10.824305 3.443052 11697996
10.675686 8.902501 1.513399 11697996
9.116590 10.563351 2.741374 11697996
9.952459 10.057301 3.969061 11697996
10.154707 10.912327 2.339598 11697996
9.886752 10.124268 0.341227 11697996
8.905646 8.915658 2.195988 11697996
10.239037 9.802201 3.848923 11697996
10.614376 11.174273 2.219915 11697996
9.304411 10.093181 3.171462 11697996
9.874286 9.936281 2.623376 11697996
8.931065 10.245284 0.177545 11697996
10.798285 10.448679 1.925491 11697996
10.149380 9.689780 3.335247 11697996
10.959661 10.195212 3.367538 11697996
8.933989 9.204620 3.909000 11697996
9.322355 10.858812 3.332301 11697996
10.291670 10.729685 0.960801 11697996
10.776677 9.910514 2.279229 11697996
10.473535 8.780487 3.483679 11697996
10.820020 8.929275 0.839448 11697996
9.379762 10.235860 2.553491 11697996
9.119725 10.815408 1.154023 11697996
10.355168 8.805974 3.286644 11697996
9.663380 10.808290 2.937243 11697996
9.876792 10.556448 1.155448 11697996
11.148904 11.006507 1.436679 11697996
9.577075 8.810967 3.895033 11697996
10.752166 9.880191 2.310045 11697996
8.761533 9.315831 1.190471 11697996
10.850312 11.085150 3.742777 11697996
10.682701 10.943397 2.541568 11697996
9.534401 9.786995 1.215636 11697996
10.212147 9.237743 1.981034 11697996
9.784939 10.004852 2.747061 11697996
9.982481 9.710595 0.824292 11697996
10.338911 11.234637 1.884444 11697996
10.656146 9.181038 0.232037 11697996
9.512876 10.694722 1.205659 11697996
11.207012 11.026647 2.558778 11697996
10.520793 9.708068 2.094270 11697996
8.977153 10.361933 3.898110 11697996
9.212220 10.603109 0.125353 11697996
10.287701 10.026516 3.657438 11697996
10.757240 10.613653 3.092927 11697996
9.620242 11.233575 3.598622 11697996
9.399349 9.201550 2.995146 11697996
9.998752 9.296020 1.212689 11697996
9.162315 8.972803 0.840753 11697996
10.380111 9.628011 3.064912 11697996
10.577144 11.075571 2.269550 11697996
10.203801 8.928369 0.489452 11697996
10.734211 10.075964 3.507443 11697996
9.110445 10.951930 2.168613 11697996
11.010275 10.118377 1.568279 11697996
10.639036 10.396027 0.594753 11697996
8.848422 10.828894 2.852101 11697996
8.814541 10.488319 0.256519 11697996
9.372626 10.168484 3.545534 11697996
9.066045 9.314775 2.125054 11697996
9.655686 9.708016 2.064771 11697996
10.323536 10.008950 1.860059 11697996
9.231836 9.339784 2.318799 11697996
9.487901 10.880139 3.358862 11697996
10.063869 9.991942 3.315975 11697996
10.681463 8.799564 0.845308 11697996
9.187109 11.247037 3.943100 11697996
9.412663 9.870989 0.961757 11697996
8.851038 11.202903 2.696478 11697996
10.142074 9.597813 3.413156 11697996
11.251073 10.314510 0.172852 11697996
9.291927 9.022223 2.747070 11697996
8.934853 9.319080 1.277449 11697996
9.005304 9.767158 1.589433 11697996
8.918410 9.693171 2.172560 11697996
11.054978 11.084012 3.627043 11697996
10.389580 9.883396 2.993229 11697996
8.786348 9.710603 3.494172 11697996
10.254206 9.622480 0.334226 11697996
10.447832 10.587879 1.874240 11697996
10.756623 9.620500 0.085677 11697996
11.184373 8.940804 3.978972 11697996
10.563562 10.456584 2.025398 11697996
10.251701 10.175946 0.752297 11697996
9.999214 9.163620 1.469806 11697996
11.113311 9.278806 2.213482 11697996
9.038465 11.142005 0.944719 11697996
9.041362 9.463020 3.333773 11697996
10.501864 9.966940 2.762968 11697996
8.753428 11.195187 1.155884 11697996
10.547226 9.799145 3.072719 11697996
9.136173 10.673679 3.395257 11697996
9.131771 10.168290 3.972736 11697996
10.975945 10.283217 1.973807 11697996
10.889753 9.681033 1.036453 11697996
9.388577 8.927728 3.856837 11697996
8.777441 9.843085 2.469214 11697996
10.264882 10.415058 1.875042 11697996
11.064205 10.916474 3.555895 11697996
8.863249 9.437909 3.883244 11697996
9.883799 9.128366 3.476311 11697996
9.978619 9.608489 2.149817 11697996
8.934764 9.977006 2.437367 11697996
9.658590 9.938498 3.720585 11697996
9.938051 10.897894 2.626059 11697996
10.937182 11.117308 0.855662 11697996
9.316611 9.073048 0.082191 11697996
9.708495 10.859549 0.128958 11697996
10.185660 10.334902 3.538812 11697996
10.944372 9.083804 0.946116 11697996
9.318418 11.059594 1.780642 11697996
10.156108 9.225654 2.186485 11697996
8.812434 10.018224 0.744656 11697996
9.771776 9.887731 3.952403 11697996
9.977769 11.234778 2.387641 11697996
9.352142 10.900897 2.937904 11697996
10.648155 9.646025 2.211809 11697996
10.909045 9.056478 2.746455 11697996
10.881100 10.873591 1.805402 11697996
11.265536 9.895655 2.234585 11697996
9.661250 9.348118 2.513899 11697996
9.333762 8.842561 2.950752 11697996
11.015994 8.985481 2.697342 11697996
9.861317 8.798367 0.601853 11697996
9.819904 9.042774 3.573065 11697996
10.991544 9.807235 0.872031 11697996
11.121639 9.015961 3.672187 11697996
10.444929 9.179054 2.257763 11697996
10.768723 10.384828 1.388276 11697996
9.353931 10.554990 0.137390 11697996
9.353254 10.724672 2.757923 11697996
9.535711 9.329412 3.911686 11697996
9.016729 10.921396 2.208098 11697996
9.767976 9.937022 0.546406 11697996
10.551189 10.133334 1.797920 11697996
11.198974 11.057034 0.280367 11697996
8.925389 10.450056 2.822849 11697996
10.406895 10.066370 1.549343 11697996
10.619969 10.351970 0.780835 11697996
10.556917 9.657059 3.564578 11697996
11.052681 8.846096 0.311908 11697996
11.002365 11.219124 0.017557 11697996
10.739062 9.728953 3.547688 11697996
9.674519 10.819227 3.334310 11697996
9.515593 9.426941 2.245497 11697996
10.504671 9.563998 1.589930 11697996
11.032545 9.456809 1.964086 11697996
10.420947 10.022961 0.559183 11697996
9.783131 11.156319 2.387569 11697996
11.104283 8.905511 2.324780 11697996
10.977645 9.630641 2.518038 11697996
9.702082 10.907087 2.639227 11697996
9.178593 10.370696 0.904609 11697996
9.284334 8.861729 2.198613 11697996
11.091450 9.849358 3.029139 11697996
9.423766 10.897235 1.254042 11697996
10.238326 9.267653 1.494254 11697996
9.621394 10.435161 1.970047 11697996
9.733941 9.191916 2.261135 11697996
9.217065 9.127528 0.678352 11697996
10.519522 11.073274 3.432233 11697996
9.871348 9.794682 2.139928 11697996
10.167500 9.178446 3.342551 11697996
10.436075 10.084132 1.530127 11697996
9.259157 10.845429 1.191143 11697996
9.636125 10.233862 3.943598 11697996
9.766210 8.977035 3.527341 11697996
8.927422 9.511843 0.255949 11697996
10.628912 10.451052 0.141490 11697996
9.304788 10.482043 1.874285 11697996
10.531528 8.953721 2.447533 11697996
10.464458 10.321551 0.641563 11697996
9.914044 10.098940 3.648783 11697996
9.745477 9.740808 0.640471 11697996
11.203548 10.491566 2.811357 11697996
9.652990 10.635205 1.965952 11697996
9.164860 10.870846 3.760397 11697996
9.254580 11.045715 1.268357 11697996
11.091256 11.141268 3.841957 11697996
10.373304 10.173888 2.383584 11697996
9.874619 10.077292 3.629196 11697996
9.109097 9.139867 1.782687 11697996
9.561267 9.925056 3.283825 11697996
10.920648 9.278713 0.124910 11697996
11.041439 9.196240 0.639872 11697996
9.771526 11.092862 2.566025 11697996
11.008021 9.335843 1.469936 11697996
9.267713 9.927206 2.551855 11697996
11.220266 11.104528 0.914512 11697996
11.196419 10.586673 1.848334 11697996
10.358353 8.837058 3.710521 11697996
9.294400 9.754040 3.154165 11697996
10.324092 9.017980 0.881203 11697996
9.577538 9.414253 0.065574 11697996
10.080343 8.897195 3.123277 11697996
10.794611 10.401113 3.045832 11697996
8.772929 9.095113 3.453867 11697996
10.025956 9.600357 1.144910 11697996
10.340553 9.419044 2.342252 11697996
11.139218 9.617830 3.429028 11697996
9.870978 11.184032 3.228472 11697996
11.008051 10.543121 2.631331 11697996
10.680193 10.382044 0.623296 11697996
9.015286 9.130063 2.293873 11697996
10.172119 9.521579 3.780053 11697996
10.823115 10.732521 0.694049 11697996
11.260805 8.810846 0.941566 11697996
9.291316 9.601285 3.796576 11697996
11.233907 10.206179 1.604970 11697996
10.935193 9.403361 1.665937 11697996
11.007022 10.189880 2.418593 11697996
8.874810 10.799176 1.247238 11697996
9.620579 9.829071 0.325083 11697996
10.310584 9.027822 3.226246 11697996
9.564749 8.798334 1.262584 11697996
11.011661 9.106591 1.139411 11697996
10.345999 8.798832 0.403289 11697996
9.882603 9.673594 2.844889 11697996
10.852723 9.751597 3.934871 11697996
9.052640 9.295257 3.381406 11697996
10.030272 10.891069 0.766943 11697996
10.132218 8.773745 3.068482 11697996
10.820425 9.281491 3.630049 11697996
9.512264 9.812931 3.455420 11697996
9.506001 8.943394 3.447063 11697996
10.140510 9.217338 1.293654 11697996
10.574490 9.083717 1.790332 11697996
9.833330 10.872157 3.597259 11697996
11.094519 9.657771 3.533187 11697996
9.740212 10.897539 3.288548 11697996
10.081284 9.521532 0.539081 11697996
9.195118 9.250232 2.870747 11697996
10.442472 8.981197 3.109369 11697996
9.863558 9.550578 0.421537 11697996
8.795595 10.874221 3.308154 11697996
10.326818 9.640587 0.694008 11697996
10.514950 10.917069 1.663216 11697996
9.764300 10.721069 1.957481 11697996
9.271111 10.218622 2.056225 11697996
10.531777 10.659973 3.631792 11697996
10.080882 9.924662 3.151340 11697996
9.939926 9.687255 1.593216 11697996
9.326468 9.858452 3.460877 11697996
9.928082 11.160921 3.850080 11697996
8.995516 11.177522 0.975004 11697996
10.579296 10.078871 0.164804 11697996
10.532799 10.297894 1.784784 11697996
10.105870 9.116282 0.798285 11697996
9.415725 9.582454 2.602211 11697996
11.092714 10.964477 0.997440 11697996
10.628469 11.120153 1.046453 11697996
9.590567 10.411586 1.010148 11697996
8.878656 11.197602 1.650380 11697996
10.187956 10.064789 2.966439 11697996
8.957603 9.288084 1.997439 11697996
11.037328 9.024037 0.640889 11697996
9.767311 8.762986 0.762334 11697996
9.153327 10.442053 1.678033 11697996
10.840242 9.206190 0.570610 11697996
9.862999 9.607337 2.815502 11697996
9.764002 10.212796 0.234230 11697996
11.007848 10.453849 0.390101 11697996
9.483062 10.096353 1.542713 11697996
