# .PCD v0.7 - Point Cloud Data file format
VERSION 0.7
FIELDS x y z rgb
SIZE 4 4 4 4
TYPE F F F U
COUNT 1 1 1 1
WIDTH 1291
HEIGHT 1
VIEWPOINT 0 0 0 1 0 0 0
POINTS 1291
DATA ascii
9.652916 9.759338 2.300355 11697996
8.914538 8.924030 1.703017 11697996
9.635337 9.042123 2.009319 11697996
9.155181 9.387421 2.709652 11697996
9.387082 8.900876 1.415750 11697996
9.549178 8.790230 2.774991 11697996
9.649106 9.036284 2.073548 11697996
11.028728 10.361578 3.510455 11697996
9.988383 10.141830 0.497674 11697996
10.519017 10.921326 0.731999 11697996
9.962391 10.671865 1.105020 11697996
9.096038 9.535728 3.798323 11697996
8.849536 9.114958 3.404721 11697996
8.910862 8.757056 0.555266 11697996
11.080971 10.429518 2.113876 11697996
9.362761 8.742916 3.502259 11697996
10.598247 9.664643 2.089826 11697996
8.932459 11.122343 0.798234 11697996
8.821486 9.776438 3.973945 11697996
10.308084 9.638101 2.576874 11697996
10.085549 10.368245 3.402081 11697996
10.641865 10.543463 1.067469 11697996
10.555547 11.198766 0.662988 11697996
10.675079 8.930440 1.526679 11697996
10.944595 11.081256 3.286948 11697996
10.997547 10.894888 0.221651 11697996
11.153286 8.931120 0.624642 11697996
10.148566 11.070505 1.451067 11697996
8.780905 10.498227 0.766500 11697996
9.235116 8.847218 2.523356 11697996
8.989100 9.635750 0.836454 11697996
9.120307 10.834887 2.308908 11697996
9.113609 9.111673 1.498330 11697996
9.987700 9.151744 0.361548 11697996
9.810493 10.175394 1.485603 11697996
9.370706 10.395278 1.675050 11697996
11.147002 10.063343 2.762121 11697996
10.303894 9.592117 0.225732 11697996
9.347515 9.178329 0.229263 11697996
10.840885 10.738545 0.421805 11697996
11.047145 10.981893 3.492557 11697996
10.640767 9.545959 3.565507 11697996
10.565454 9.210455 3.969024 11697996
9.654793 10.459703 2.553047 11697996
10.417521 10.763325 0.986350 11697996
10.457677 9.724954 0.767820 11697996
10.855596 10.777310 0.806216 11697996
10.778096 9.689207 1.206966 11697996
10.210605 10.101627 0.833133 11697996
10.515122 9.726961 0.259043 11697996
9.053609 8.956046 3.121612 11697996
10.186887 10.786611 0.663534 11697996
9.897069 9.903482 1.956149 11697996
9.094019 11.228444 1.747827 11697996
8.776085 10.116776 2.804684 11697996
8.994385 11.185160 1.975310 11697996
9.983034 10.618561 3.849270 11697996
10.188328 9.219440 0.982135 11697996
10.427269 9.584625 1.769251 11697996
9.744197 9.072841 2.716318 11697996
10.601474 8.812134 3.772521 11697996
9.384191 10.070632 1.862258 11697996
8.931662 8.825998 0.343197 11697996
11.091778 10.727430 3.592050 11697996
9.935026 10.315959 2.303042 11697996
9.481647 10.949816 0.679625 11697996
9.234741 9.410769 1.427795 11697996
8.776009 10.398186 2.162379 11697996
9.498217 11.068432 3.398846 11697996
9.222201 9.646003 2.715488 11697996
10.765508 9.779481 1.804396 11697996
9.577936 10.802010 1.176482 11697996
11.141243 9.020313 1.295527 11697996
10.669183 9.250745 1.500085 11697996
9.791344 10.923928 2.178730 11697996
10.923853 8.828627 1.135137 11697996
10.201352 11.210612 2.049131 11697996
10.866289 9.975980 2.918587 11697996
10.280418 10.662618 3.589189 11697996
10.066324 10.425006 2.777903 11697996
8.793236 8.991650 3.200004 11697996
10.970345 10.563400 1.132323 11697996
9.638037 10.310462 3.891077 11697996
10.124697 9.658051 0.925711 11697996
10.251081 10.036799 2.896605 11697996
8.799382 10.154469 2.920208 11697996
10.861526 9.290439 1.645545 11697996
10.420353 9.624099 1.114030 11697996
9.111378 8.934386 2.758009 11697996
9.339367 8.944228 2.740590 11697996
10.107070 8.836801 1.245729 11697996
10.800268 9.307807 0.015435 11697996
10.077265 10.591242 3.283867 11697996
10.778315 10.062002 3.288773 11697996
9.878217 10.436337 2.020806 11697996
9.215027 9.235251 2.131029 11697996
8.931740 10.877978 3.930644 11697996
10.648845 9.599421 1.249926 11697996
9.218562 10.240407 1.266425 11697996
10.066078 10.795990 2.043424 11697996
11.069239 11.097616 1.229954 11697996
9.162244 10.354838 2.463758 11697996
9.553259 9.050901 1.800230 11697996
10.895404 9.542280 0.555971 11697996
9.613300 8.956691 2.811628 11697996
10.428399 11.242827 0.613233 11697996
11.126521 10.029011 1.894205 11697996
11.169950 9.754229 2.426483 11697996
10.587867 8.807611 1.193193 11697996
10.464520 11.030569 1.793368 11697996
11.191257 9.338299 0.411973 11697996
10.622607 10.634245 1.921537 11697996
9.742008 9.619212 1.455678 11697996
10.633256 9.779314 0.497666 11697996
10.764071 9.712406 0.198535 11697996
9.578539 11.239365 2.488267 11697996
9.595691 11.034958 2.385949 11697996
9.361154 8.762657 3.152444 11697996
10.871071 9.782762 1.047972 11697996
9.877243 10.626365 1.572407 11697996
9.919986 9.189385 3.313928 11697996
10.455068 10.959601 0.837427 11697996
8.763660 11.098273 0.063180 11697996
10.627345 8.942496 1.488665 11697996
10.573554 8.941363 2.438708 11697996
9.731258 9.317421 3.642414 11697996
11.066504 10.234166 2.028758 11697996
11.088371 11.051422 0.008344 11697996
11.117521 9.099730 1.983527 11697996
10.236833 9.785077 2.067144 11697996
10.030330 9.262514 0.185714 11697996
8.899600 9.182829 2.095953 11697996
9.616214 9.663938 0.188163 11697996
8.797310 9.535999 1.906307 11697996
10.527256 8.816650 1.730824 11697996
9.136934 9.585203 0.294135 11697996
10.987202 8.776137 3.764287 11697996
10.568633 8.994656 1.897063 11697996
10.181399 9.191905 2.552838 11697996
9.227480 8.977228 0.181511 11697996
9.891292 10.709273 2.452509 11697996
9.221099 10.577181 3.011556 11697996
9.911727 10.429257 1.852913 11697996
9.079782 9.704123 1.752005 11697996
9.722012 10.373770 0.382637 11697996
10.019494 10.871629 2.368078 11697996
10.691488 9.965290 2.223824 11697996
9.732645 10.376055 3.633273 11697996
9.568563 10.277276 3.961858 11697996
8.870915 10.671149 1.059906 11697996
10.021064 10.799702 1.516338 11697996
8.755484 9.678518 0.336626 11697996
8.930815 9.887731 1.396827 11697996
10.439500 8.966312 2.594414 11697996
10.642551 10.820355 0.103864 11697996
11.178349 10.220798 1.740226 11697996
10.724417 10.140705 0.566055 11697996
11.133112 8.758942 2.277784 11697996
10.979575 9.298378 0.441616 11697996
9.017890 10.411845 1.659818 11697996
10.580894 10.652749 1.003760 11697996
10.768273 9.996680 2.761882 11697996
10.735031 10.143983 1.644279 11697996
10.217886 10.690729 3.599821 11697996
10.266828 11.105697 3.132568 11697996
9.212858 10.730825 1.165052 11697996
11.188098 9.507823 0.024323 11697996
10.378313 8.780510 0.675884 11697996
9.880965 10.055651 3.784546 11697996
9.798780 9.995322 3.301797 11697996
10.848872 11.141012 1.446619 11697996
10.113359 8.871672 0.097803 11697996
10.140964 10.629258 1.206515 11697996
10.554565 9.344336 2.028589 11697996
10.894473 9.830949 1.281126 11697996
8.758127 10.593191 1.218730 11697996
10.708920 9.682122 1.825121 11697996
10.886153 9.695810 3.614972 11697996
9.664491 9.154462 3.450647 11697996
9.775190 8.866661 3.204993 11697996
11.237215 9.032323 3.904991 11697996
9.257524 9.181648 2.734629 11697996
10.332236 10.673150 1.028190 11697996
10.329819 10.138633 0.935236 11697996
11.128627 11.145463 3.633931 11697996
9.448492 11.000857 3.380333 11697996
10.471133 9.515231 2.839098 11697996
11.118958 9.697769 0.671509 11697996
9.996768 9.165404 2.445132 11697996
10.790730 9.837887 0.128090 11697996
10.415024 11.118511 0.713022 11697996
9.241093 9.371676 2.087104 11697996
10.699819 11.012767 0.801410 11697996
9.732372 8.889778 1.944491 11697996
11.110036 9.071681 2.915894 11697996
10.969835 9.839036 0.422641 11697996
10.659365 11.229821 2.737424 11697996
9.263118 10.996431 0.367849 11697996
9.031355 9.497160 0.726830 11697996
10.231771 9.440778 1.659101 11697996
9.902328 8.958718 -0.015573 11697996
9.731376 9.031059 0.720987 11697996
10.775091 8.939848 0.528743 11697996
9.781459 11.059242 0.926189 11697996
11.139519 10.932090 1.823004 11697996
10.057624 8.801535 3.397662 11697996
8.915403 10.670421 2.162911 11697996
10.150961 8.907743 1.581596 11697996
10.587244 10.204711 2.180681 11697996
10.594309 10.146865 2.100930 11697996
10.953933 9.577539 3.858066 11697996
10.585889 10.762653 3.841403 11697996
8.993990 9.554996 2.328100 11697996
9.905623 10.237727 2.255266 11697996
9.912467 10.869011 2.840779 11697996
10.321504 9.305082 0.033567 11697996
9.774842 8.775918 3.452210 11697996
9.888300 8.806383 1.814225 11697996
10.576366 9.438088 0.957127 11697996
10.385279 10.230262 1.400561 11697996
9.858239 10.599243 0.936424 11697996
10.799958 8.873731 2.525346 11697996
10.838235 11.238973 3.652921 11697996
11.036455 10.723980 1.316319 11697996
10.574454 11.033401 3.512624 11697996
11.184039 10.847983 3.812093 11697996
10.903039 10.160990 2.216861 11697996
9.838121 10.598722 0.113798 11697996
10.678966 9.679374 3.059608 11697996
9.107280 10.208959 3.407105 11697996
11.175669 10.482293 3.743353 11697996
10.086226 10.802229 0.174536 11697996
9.433994 9.453365 0.195435 11697996
10.434191 10.204196 0.777653 11697996
10.245258 10.699275 0.006537 11697996
9.001885 11.064355 1.826101 11697996
9.326495 9.679228 0.140998 11697996
9.481405 8.808358 3.868679 11697996
10.344234 10.254380 3.780636 11697996
9.614208 11.017890 3.386107 11697996
11.171181 9.799884 0.831072 11697996
9.522595 9.734994 0.784854 11697996
10.564795 10.560038 2.022373 11697996
10.195101 8.870368 2.232510 11697996
10.034327 10.657164 1.601741 11697996
10.361448 9.834561 0.683552 11697996
9.821484 11.213640 0.412491 11697996
10.700331 9.769696 1.116863 11697996
10.453479 9.678236 3.553792 11697996
9.860086 10.554375 2.286866 11697996
11.218423 9.865868 0.350966 11697996
9.729785 9.288547 1.394644 11697996
9.031102 10.408347 3.635358 11697996
9.961841 9.076436 2.220766 11697996
11.220407 9.533236 1.012530 11697996
8.998277 9.936821 1.548206 11697996
11.203763 10.003198 0.267818 11697996
9.215755 11.115300 2.553924 11697996
10.817461 9.655356 1.805272 11697996
10.527417 10.515212 0.277201 11697996
10.709296 10.753658 2.397758 11697996
10.498343 10.072371 1.793465 11697996
11.184824 9.038293 0.971451 11697996
9.615556 11.128448 0.162215 11697996
9.576264 10.088945 3.729396 11697996
10.127999 9.714308 2.392806 11697996
9.426110 10.785268 2.768612 11697996
11.056392 10.522820 1.281107 11697996
9.072449 9.058656 0.955432 11697996
8.993366 10.346839 2.546765 11697996
10.795433 9.317407 0.044154 11697996
10.222826 10.655210 2.732100 11697996
9.617377 8.801491 3.577978 11697996
10.649586 10.460615 0.588299 11697996
10.684753 8.914155 2.174162 11697996
9.767069 10.085714 1.059123 11697996
10.108739 9.167748 2.340409 11697996
9.525639 9.700955 1.434993 11697996
9.009039 9.285526 0.254062 11697996
10.303308 9.860950 2.279778 11697996
10.812233 10.578197 3.722088 11697996
9.558562 9.254479 0.107435 11697996
9.588955 10.256347 0.494981 11697996
10.450647 9.254079 1.137965 11697996
9.455594 9.261025 2.764819 11697996
10.068334 9.175344 3.876596 11697996
11.147432 9.990374 2.691565 11697996
10.859430 9.566916 1.451057 11697996
10.151814 10.665380 3.821550 11697996
10.286882 10.798862 1.996924 11697996
10.951633 10.465645 1.386702 11697996
11.139187 10.813453 0.668817 11697996
9.716715 10.506840 1.086084 11697996
9.001961 9.859641 3.440904 11697996
11.067099 9.535982 3.145340 11697996
9.490169 10.704789 2.759423 11697996
10.200914 9.636270 1.949866 11697996
10.454030 9.138800 2.813794 11697996
11.225285 8.775816 3.301060 11697996
11.180726 9.984851 1.446191 11697996
10.403285 10.980568 0.409210 11697996
9.675772 11.129752 3.026953 11697996
9.597753 10.606395 1.480498 11697996
10.687220 9.449617 2.479900 11697996
10.199226 10.495019 3.920165 11697996
10.166157 10.872149 3.599176 11697996
9.205770 10.221179 2.133582 11697996
11.172710 11.004000 0.433165 11697996
10.289834 9.392413 3.753627 11697996
11.198654 9.630354 1.489122 11697996
10.384892 11.247451 3.796534 11697996
9.985526 9.610168 3.577538 11697996
11.110929 9.901116 0.667435 11697996
9.367394 9.091378 1.077933 11697996
10.231002 10.724134 0.429278 11697996
11.239614 10.321856 0.713529 11697996
9.711191 9.528446 1.487591 11697996
10.659286 9.051254 0.826506 11697996
9.330514 9.885734 3.613696 11697996
11.033825 9.595424 0.758796 11697996
9.529272 8.777626 3.800004 11697996
10.499373 9.225873 0.853051 11697996
9.000830 9.960838 3.944366 11697996
8.816547 11.191216 3.391526 11697996
8.817551 11.078576 0.975850 11697996
9.823487 10.017822 3.288078 11697996
9.850090 9.814524 1.697598 11697996
11.147070 10.763011 2.546133 11697996
9.127824 9.802600 2.275869 11697996
10.595808 9.300688 0.162620 11697996
10.932053 9.456927 0.029405 11697996
9.334444 9.400294 2.501554 11697996
11.209974 10.381593 1.020631 11697996
10.892915 10.180497 3.625813 11697996
10.472180 10.229728 3.509726 11697996
10.978354 9.490396 3.217763 11697996
9.929428 9.465972 3.823340 11697996
10.354010 10.607098 1.412250 11697996
9.006684 9.201640 2.713820 11697996
10.735617 9.403681 3.035071 11697996
10.896612 9.946244 1.393075 11697996
10.425594 8.847641 1.185458 11697996
10.685006 10.068819 1.335770 11697996
9.792661 9.838100 2.765442 11697996
11.106086 9.200630 0.675090 11697996
10.991316 11.240391 0.869249 11697996
9.152662 8.767539 1.632198 11697996
9.473717 11.132360 2.133165 11697996
10.698407 9.481449 1.054882 11697996
9.041733 9.364896 2.115423 11697996
10.397661 8.970400 1.308229 11697996
9.580428 9.626084 0.091789 11697996
10.356112 10.118263 1.568978 11697996
10.518679 9.508733 2.805718 11697996
11.069036 10.864484 1.706989 11697996
10.782182 11.113378 3.548230 11697996
9.460508 9.108925 0.052965 11697996
9.601666 9.002158 2.109424 11697996
10.037306 9.807679 3.273801 11697996
9.299606 10.306495 1.494381 11697996
8.887484 11.187930 2.824915 11697996
9.701536 9.344569 1.650934 11697996
9.255251 9.571523 3.884252 11697996
9.658980 8.877832 3.201225 11697996
10.303535 10.899500 2.034350 11697996
9.798496 9.413136 0.849727 11697996
9.365947 11.156991 1.992350 11697996
10.924268 9.281128 3.343533 11697996
9.578937 9.692956 3.054751 11697996
9.332562 9.819489 1.929561 11697996
9.026333 9.399141 1.674902 11697996
8.890490 10.348716 3.507223 11697996
9.013250 9.329494 2.444536 11697996
9.348311 9.889641 3.713868 11697996
10.479593 10.894873 3.687838 11697996
10.065620 10.337212 2.908686 11697996
10.095410 10.723537 0.109333 11697996
10.577302 9.206861 2.093519 11697996
8.761627 11.223218 0.465761 11697996
9.675344 10.791737 0.040941 11697996
10.940207 9.062781 0.941705 11697996
9.337423 8.955014 1.181633 11697996
10.911647 9.042352 3.800242 11697996
10.913473 10.867578 1.214924 11697996
9.869310 9.127410 3.941911 11697996
8.792975 9.299303 3.104023 11697996
10.392350 9.280038 0.762944 11697996
10.247959 9.309330 1.167182 11697996
10.923717 9.127907 0.395775 11697996
9.109900 9.962568 1.553588 11697996
9.814200 11.168733 2.215800 11697996
10.475628 10.900870 2.298851 11697996
9.535461 10.618563 1.242192 11697996
10.205235 9.730783 3.919281 11697996
9.456593 10.164208 1.399362 11697996
9.878260 10.719755 0.368649 11697996
10.101656 9.269341 3.634548 11697996
11.059171 9.962133 1.026654 11697996
10.658841 10.121140 2.416377 11697996
9.502332 10.009244 1.702521 11697996
11.055057 9.844039 2.203387 11697996
11.244201 11.122862 1.057522 11697996
11.129354 11.078582 3.699208 11697996
11.124393 10.923374 3.083132 11697996
9.339648 9.664451 3.028795 11697996
8.868770 10.262638 2.742374 11697996
10.568910 8.981047 1.552775 11697996
11.112629 11.114182 2.254644 11697996
8.777220 10.786012 1.978775 11697996
10.437362 9.481159 1.511205 11697996
9.780309 10.209080 0.153589 11697996
8.868759 10.764062 3.862006 11697996
10.508771 9.106635 3.237736 11697996
10.973891 10.183888 3.543366 11697996
11.231682 8.878031 1.532872 11697996
10.961491 11.061300 0.761978 11697996
10.953832 9.731358 3.076077 11697996
10.562142 10.407425 3.616534 11697996
10.817811 10.304269 3.881619 11697996
9.529583 9.621733 0.629297 11697996
10.139626 10.557805 2.074892 11697996
10.001321 9.274652 0.623204 11697996
9.829195 8.915195 1.364966 11697996
8.785749 10.356517 1.038324 11697996
9.224615 11.078273 2.095240 11697996
10.459023 9.928181 1.995372 11697996
9.750120 9.821493 0.716463 11697996
9.468131 9.876061 2.364669 11697996
10.673654 9.459235 0.343591 11697996
10.557919 9.331429 1.867135 11697996
10.357424 11.132112 2.702898 11697996
10.357349 11.013833 2.452174 11697996
10.018978 10.279447 2.985548 11697996
9.654062 9.930460 1.233107 11697996
9.487318 10.655581 1.505034 11697996
9.049714 9.845847 2.673487 11697996
10.160805 9.526023 0.867094 11697996
10.867272 10.634789 2.008688 11697996
11.125958 10.571421 1.179822 11697996
10.206964 10.649089 3.714723 11697996
9.506692 9.422162 3.628723 11697996
10.440585 8.803626 2.604084 11697996
9.047596 10.174467 3.903400 11697996
10.928080 10.110069 3.888641 11697996
10.436589 10.834018 0.079673 11697996
11.024997 9.392254 3.903755 11697996
10.434124 10.274873 0.837734 11697996
11.195410 10.585655 3.705151 11697996
10.620587 9.439430 3.018884 11697996
10.739630 8.894597 3.485612 11697996
11.000754 9.829992 1.001251 11697996
9.334406 10.794982 0.612019 11697996
9.828237 9.963072 3.158407 11697996
8.951673 8.807971 3.646994 11697996
11.244413 10.294296 2.794598 11697996
9.653151 10.986557 2.394621 11697996
10.460362 9.842211 2.696404 11697996
10.296237 10.769772 2.973710 11697996
8.864359 8.841984 2.786007 11697996
10.628580 11.076842 1.883844 11697996
8.758250 9.065635 2.718202 11697996
9.293737 10.476455 2.134408 11697996
9.430869 9.009130 0.713555 11697996
9.178003 9.276992 2.200976 11697996
10.765921 9.235081 3.662240 11697996
11.165693 9.645844 0.277314 11697996
9.924081 10.415589 3.577118 11697996
9.305070 10.395578 2.228163 11697996
9.582067 9.076455 2.238752 11697996
10.654885 10.660982 0.043470 11697996
11.051444 11.118211 2.802257 11697996
10.696527 11.213839 0.056672 11697996
10.781088 9.989220 3.959248 11697996
10.172198 10.752069 3.850911 11697996
9.904202 8.778426 1.268900 11697996
10.905326 8.982311 3.154103 11697996
8.822606 9.518454 1.451174 11697996
9.973658 8.938848 1.306553 11697996
9.062833 10.316092 0.443902 11697996
10.781931 9.141199 3.310435 11697996
10.123414 9.593468 2.071722 11697996
9.670457 10.058985 3.971250 11697996
11.198146 11.209392 3.979158 11697996
9.812452 9.233581 3.463960 11697996
11.120614 9.733388 1.364032 11697996
9.055450 9.861571 2.943700 11697996
8.809587 10.460545 3.219987 11697996
10.381556 9.260818 3.396017 11697996
10.688066 9.569245 1.753220 11697996
10.403905 8.800258 1.757855 11697996
10.693431 9.881473 2.268484 11697996
8.849716 9.350983 3.000887 11697996
9.784500 10.879438 3.052915 11697996
9.541924 9.607546 3.520144 11697996
9.949480 9.742865 1.485104 11697996
8.884665 11.140087 3.014494 11697996
9.011738 10.317599 1.931527 11697996
8.768143 10.700730 0.131082 11697996
9.819836 9.310958 2.489253 11697996
11.161694 9.359779 1.262565 11697996
9.241255 9.878129 2.004654 11697996
8.924409 10.993107 0.561231 11697996
10.070130 10.023108 2.219565 11697996
9.813450 10.267226 3.056556 11697996
11.035867 10.614689 3.587791 11697996
8.815279 9.066587 2.000867 11697996
9.812870 8.894299 0.542528 11697996
10.390976 8.970160 3.393483 11697996
9.907685 10.252296 1.542917 11697996
10.297884 8.882813 1.444905 11697996
11.037741 9.266693 1.371537 11697996
10.207315 10.212128 3.208389 11697996
9.924406 9.204581 2.518033 11697996
10.455030 10.319720 1.338774 11697996
11.027491 10.954494 1.352768 11697996
9.012442 10.377378 0.714827 11697996
9.099322 10.267316 1.683697 11697996
8.996139 9.321960 0.142727 11697996
10.825765 9.150948 1.142556 11697996
10.368980 10.173576 2.242145 11697996
9.448446 10.824353 1.040387 11697996
8.946099 10.663062 1.395879 11697996
10.995680 10.730046 0.372411 11697996
9.997891 10.187242 2.654746 11697996
9.317545 10.651712 2.814929 11697996
10.846274 9.004356 3.864373 11697996
10.916086 10.033771 2.551048 11697996
9.773449 9.930456 3.936980 11697996
11.201314 11.038419 2.175267 11697996
10.444826 10.321025 1.341439 11697996
10.529634 9.299056 1.163765 11697996
10.785418 9.170722 2.806764 11697996
8.902718 10.806171 0.621987 11697996
10.366795 8.921422 3.003558 11697996
9.512827 9.892596 1.436567 11697996
9.363450 9.592398 0.370796 11697996
10.849396 10.465944 3.652922 11697996
10.600562 9.799990 3.877248 11697996
8.817273 10.898252 2.204589 11697996
9.646883 9.784124 2.988672 11697996
9.057470 8.774513 2.557438 11697996
11.024383 9.673202 1.599307 11697996
10.727245 10.851850 0.149439 11697996
9.402649 11.119444 2.715075 11697996
10.325654 10.161885 2.563317 11697996
9.535345 9.550218 2.049130 11697996
8.862414 9.976213 1.950364 11697996
9.116951 10.734683 0.889571 11697996
8.813999 10.829858 1.693610 11697996
9.778530 9.958669 2.045994 11697996
10.317830 8.961358 1.707787 11697996
9.514148 9.878178 0.506079 11697996
9.315654 9.657829 0.712349 11697996
8.813681 10.254276 3.127723 11697996
10.446772 10.248360 3.699518 11697996
10.799704 10.753840 0.034592 11697996
10.270181 10.157688 0.494494 11697996
11.043908 9.872198 1.879516 11697996
9.811411 9.260914 2.229988 11697996
10.057425 9.020175 0.083440 11697996
9.666606 10.070741 0.918495 11697996
10.577471 10.074138 1.585884 11697996
9.239144 11.123877 2.397751 11697996
9.701424 10.116166 0.747291 11697996
9.881202 10.910901 0.197110 11697996
10.401354 10.477447 2.066832 11697996
9.141444 10.016418 0.511768 11697996
8.860991 11.018400 0.867442 11697996
11.084507 9.388024 0.792253 11697996
10.127173 9.251377 2.605534 11697996
10.964052 10.848548 0.517030 11697996
10.424040 11.003768 2.142541 11697996
8.984546 10.308059 3.534347 11697996
9.452079 9.597838 0.157979 11697996
11.083964 9.011050 2.999785 11697996
11.110375 8.984864 3.864747 11697996
8.862918 10.528635 0.409919 11697996
8.888355 9.474117 0.736840 11697996
10.309584 11.128260 2.991932 11697996
8.810806 10.191448 0.889476 11697996
8.775539 8.815315 3.804235 11697996
11.231421 10.570918 2.121905 11697996
10.399493 9.037569 3.195660 11697996
9.347086 9.167681 0.531651 11697996
10.932187 9.726513 3.353295 11697996
10.636532 10.454011 0.420312 11697996
9.763397 8.983040 3.735742 11697996
9.302084 9.416775 2.398322 11697996
9.107951 9.252535 3.866636 11697996
9.788499 9.770274 1.988844 11697996
10.475522 10.549336 0.048304 11697996
9.526187 10.831810 1.268243 11697996
10.352052 10.425767 2.621475 11697996
11.031896 10.980947 0.635020 11697996
9.248072 9.471833 1.094932 11697996
9.570232 9.300564 2.835613 11697996
9.664322 10.369394 1.367167 11697996
10.064920 10.922170 3.144893 11697996
11.153683 9.781677 -0.001021 11697996
9.461872 9.558073 0.947951 11697996
8.931449 10.679953 1.211589 11697996
9.119398 9.106189 3.652443 11697996
10.844130 9.823384 2.397739 11697996
11.216413 8.935936 4.002286 11697996
9.977980 10.850439 1.853709 11697996
8.938611 9.002554 0.980173 11697996
9.685693 10.199877 1.008397 11697996
10.357586 9.601305 1.534711 11697996
10.824053 10.365728 1.348710 11697996
10.220244 9.350331 3.969031 11697996
10.102479 9.561603 3.298964 11697996
9.007442 10.392458 0.914726 11697996
9.867725 9.209559 3.753075 11697996
11.145468 8.943851 2.081427 11697996
10.815241 10.822669 0.386267 11697996
9.153398 10.290843 0.871462 11697996
9.382688 11.089260 3.173516 11697996
9.817155 9.036291 0.149191 11697996
10.008217 9.620973 0.387205 11697996
8.840218 10.060990 2.495493 11697996
9.955873 11.107361 0.875224 11697996
10.416216 9.940601 0.061478 11697996
10.329240 9.631337 3.036039 11697996
10.024102 9.224423 3.303653 11697996
10.332773 9.817719 3.858152 11697996
9.305822 11.108117 1.619707 11697996
9.066545 10.536792 1.404098 11697996
8.841715 9.971629 2.268085 11697996
9.848303 10.250439 2.370320 11697996
10.846778 10.582007 1.373912 11697996
10.949553 9.938464 3.732948 11697996
10.309302 10.032846 2.657620 11697996
8.878262 9.617456 2.012109 11697996
10.960133 10.806662 1.430070 11697996
10.836166 8.856081 3.023619 11697996
9.050846 10.249203 3.216406 11697996
10.807957 8.922681 1.582312 11697996
9.223530 10.916628 0.494149 11697996
10.772708 9.956207 0.037224 11697996
10.698461 10.358142 3.556571 11697996
10.868680 10.954954 2.313216 11697996
10.069994 9.543034 3.339226 11697996
10.972562 10.244238 0.235784 11697996
8.900176 9.271851 2.646135 11697996
9.419080 8.835924 2.997846 11697996
9.376102 10.116619 1.944814 11697996
10.783534 10.819247 3.186876 11697996
8.940894 8.929769 0.477337 11697996
10.813517 10.649306 3.098180 11697996
9.926973 10.089546 3.291851 11697996
11.208745 10.614073 2.865785 11697996
11.078176 10.033279 1.976075 11697996
9.226236 9.992715 2.773539 11697996
10.622539 10.776401 3.209630 11697996
9.354550 10.764436 1.765230 11697996
11.180160 9.450673 3.533092 11697996
10.956415 9.588059 1.031804 11697996
8.925205 11.007869 0.450851 11697996
8.845491 10.896515 0.115465 11697996
10.196278 10.021990 1.337614 11697996
10.614379 10.251289 1.446634 11697996
8.944500 9.967412 3.784732 11697996
10.474649 10.581965 1.785955 11697996
9.633330 11.153299 2.698203 11697996
10.868896 9.678950 3.171467 11697996
8.852867 10.927101 3.941616 11697996
10.887487 10.439551 1.881356 11697996
10.704183 9.689616 1.113726 11697996
9.801171 9.419087 0.388332 11697996
10.089295 10.056547 2.735022 11697996
9.760481 11.183113 0.749853 11697996
8.958976 10.029126 3.974064 11697996
10.484505 9.797859 3.142569 11697996
9.376056 9.775592 0.694682 11697996
8.956146 11.156199 3.061122 11697996
9.252653 9.055535 3.730640 11697996
11.130489 9.047903 2.147357 11697996
11.249179 10.814092 0.947369 11697996
10.843756 10.638375 3.679995 11697996
9.079233 9.656385 3.929913 11697996
10.750791 10.579999 2.163393 11697996
10.639407 10.572165 0.456506 11697996
9.207135 9.006717 1.656968 11697996
9.326152 9.965030 3.808115 11697996
8.870468 9.650177 1.852185 11697996
10.691519 8.962362 1.601746 11697996
10.701882 10.485712 2.334774 11697996
10.609798 9.813133 1.878668 11697996
10.879292 10.107691 3.991365 11697996
9.027895 9.449583 2.780667 11697996
10.488888 9.735967 3.211589 11697996
10.766878 8.999768 2.179742 11697996
9.100019 10.818493 0.100395 11697996
9.288710 11.070919 3.206543 11697996
9.887336 10.968564 0.801129 11697996
10.879539 10.750712 0.850744 11697996
9.216515 9.481053 1.063116 11697996
10.439759 9.678893 3.627420 11697996
10.886928 11.221057 0.726760 11697996
9.210046 11.145302 2.193832 11697996
9.612348 10.666064 1.793789 11697996
10.095221 9.917760 3.955985 11697996
9.363212 10.947524 2.691632 11697996
10.841773 10.501720 3.177762 11697996
10.802887 10.881155 3.066521 11697996
9.720559 10.530855 1.335969 11697996
10.808502 9.356900 1.166926 11697996
9.972591 9.366144 0.556998 11697996
9.024157 9.545745 1.081421 11697996
9.158735 9.169600 0.222776 11697996
9.292826 10.313445 3.812025 11697996
9.733574 8.920949 0.436520 11697996
9.174702 8.764277 2.311844 11697996
10.875690 9.170233 2.954089 11697996
8.914019 9.688218 3.854704 11697996
9.588169 10.130857 3.677014 11697996
11.084003 9.215849 0.922658 11697996
10.734924 9.451728 1.214045 11697996
9.842983 9.615989 1.589058 11697996
8.782326 11.165012 2.169955 11697996
11.136792 10.248900 2.359159 11697996
11.209711 9.544662 1.197527 11697996
11.203423 9.786352 0.686860 11697996
9.157328 9.774964 2.498971 11697996
9.153429 10.292892 3.222966 11697996
9.512702 9.424874 2.869960 11697996
8.851767 9.575810 3.731474 11697996
10.166345 10.840488 2.572581 11697996
10.630909 10.308083 3.809770 11697996
10.048405 10.118211 3.889909 11697996
8.846932 8.912236 1.710381 11697996
10.194674 8.957001 0.247769 11697996
9.130318 10.951012 0.804260 11697996
8.792480 8.897961 3.127756 11697996
9.903955 8.908450 3.177488 11697996
11.158030 10.952511 2.194216 11697996
9.278613 8.766481 0.900784 11697996
8.997583 9.090726 1.601312 11697996
9.313126 10.235933 1.381830 11697996
10.522796 8.785432 3.285781 11697996
10.757978 9.824534 3.719491 11697996
9.606301 9.724383 0.414457 11697996
9.368752 8.787678 3.312922 11697996
10.684459 9.567149 2.432721 11697996
10.167011 9.506115 3.991555 11697996
9.595078 9.843769 1.678739 11697996
9.825300 10.146447 3.015228 11697996
10.007348 9.393584 1.862630 11697996
10.756807 10.914506 1.409360 11697996
9.945648 8.826809 1.490529 11697996
9.207010 10.425621 1.910172 11697996
9.127581 11.070001 2.073227 11697996
9.988845 9.806963 3.637055 11697996
11.021726 10.085614 0.182563 11697996
9.362860 10.975669 1.393440 11697996
9.877249 10.167544 3.402691 11697996
11.209380 10.685733 0.202647 11697996
10.010138 9.586620 1.277140 11697996
10.923515 9.401704 2.343385 11697996
10.615073 8.762230 1.648143 11697996
8.880497 10.799559 2.358725 11697996
9.041311 9.439350 1.780336 11697996
9.218552 8.855106 3.767825 11697996
9.805410 9.061111 1.100776 11697996
9.604949 8.799876 3.033344 11697996
10.593909 8.774004 2.802552 11697996
11.191443 9.427584 0.270327 11697996
11.215861 9.854655 2.913000 11697996
10.188422 11.214139 0.652318 11697996
10.033180 10.792983 1.980400 11697996
9.805574 10.489679 1.088649 11697996
10.723472 9.809428 2.503731 11697996
10.737775 8.834807 1.720019 11697996
10.690034 9.176243 0.609673 11697996
10.440703 10.744116 0.661187 11697996
8.772917 9.249043 3.444215 11697996
9.934326 10.364165 1.009543 11697996
10.034923 10.822062 1.672447 11697996
8.860699 10.271606 3.873231 11697996
9.421888 10.022311 1.589822 11697996
10.855397 9.843952 1.644279 11697996
8.784592 8.904134 1.066469 11697996
9.382064 11.096869 1.664156 11697996
10.873778 9.461096 1.646158 11697996
8.814758 11.205813 2.958021 11697996
8.892486 10.116563 0.923598 11697996
10.601171 10.729472 0.837621 11697996
9.103639 8.813588 2.668672 11697996
10.043503 9.571198 2.591509 11697996
8.797359 10.112967 3.348102 11697996
10.601229 9.479239 2.509001 11697996
8.892920 9.842719 0.510010 11697996
9.573559 10.176599 3.956569 11697996
8.800161 9.913781 1.312711 11697996
9.205754 10.337089 3.155477 11697996
11.224989 11.004147 0.868363 11697996
9.791391 9.917963 0.350008 11697996
9.674824 9.900758 0.271025 11697996
11.026631 9.944533 1.359480 11697996
9.206280 11.160398 0.627966 11697996
11.074649 11.084380 2.980968 11697996
11.049448 10.682944 1.321969 11697996
10.500803 10.491952 0.227766 11697996
10.042222 11.183335 1.498519 11697996
10.552569 10.224745 3.796244 11697996
9.367719 10.498854 0.568306 11697996
10.585781 9.421445 3.115500 11697996
10.241963 10.705546 0.778671 11697996
8.849414 10.047182 1.664407 11697996
11.161267 9.733447 1.509483 11697996
8.934356 9.318782 3.446740 11697996
10.304103 8.877456 3.591825 11697996
10.475763 8.832071 3.943382 11697996
9.271006 9.101879 2.107245 11697996
10.464933 10.830082 0.600923 11697996
10.701586 9.754314 0.402834 11697996
10.648462 9.854026 1.916811 11697996
9.410007 9.799459 3.620110 11697996
8.924336 9.154421 2.854700 11697996
10.320053 9.193119 2.861684 11697996
10.072309 11.076288 3.078192 11697996
10.384811 10.576497 3.506295 11697996
10.115925 10.099939 0.863160 11697996
9.944785 9.590423 0.408598 11697996
9.477107 10.968003 1.471694 11697996
10.141014 8.891004 1.155156 11697996
10.098107 11.181244 2.655192 11697996
10.089884 9.377550 2.246054 11697996
9.005003 8.855150 0.218794 11697996
9.242446 9.239131 2.065549 11697996
9.308384 10.914547 0.828890 11697996
11.162092 9.673493 1.964139 11697996
10.515039 11.218840 1.999960 11697996
9.191090 11.028934 0.595766 11697996
8.816213 11.226394 0.057056 11697996
9.442784 10.114127 0.756376 11697996
10.624424 10.513753 2.626361 11697996
10.770667 10.337881 1.060202 11697996
9.582567 10.996581 1.483560 11697996
9.057898 9.026846 1.577093 11697996
9.677207 10.999674 1.307481 11697996
9.736788 9.091075 0.596553 11697996
9.240346 8.980289 2.011401 11697996
10.972080 10.384782 0.055730 11697996
10.613677 9.245566 1.816930 11697996
9.997520 9.944128 1.125495 11697996
10.323082 10.502768 3.131022 11697996
9.924979 10.965540 0.349530 11697996
9.089957 10.544790 3.442662 11697996
9.639477 11.187255 3.384698 11697996
8.980158 10.575970 0.468227 11697996
10.122238 8.866519 3.257764 11697996
10.800964 10.336153 0.767607 11697996
10.075505 8.885134 2.462730 11697996
11.252393 9.073247 0.468934 11697996
9.540524 9.202147 0.649509 11697996
11.228549 9.022961 3.307161 11697996
9.194358 9.743981 0.745175 11697996
9.346702 9.219015 3.985499 11697996
10.461102 9.236468 2.565887 11697996
9.808380 9.371958 1.002277 11697996
10.053858 11.200530 2.954294 11697996
11.107882 10.387354 0.284557 11697996
10.825237 9.234997 1.025854 11697996
10.573724 10.678985 3.152404 11697996
10.582273 10.905993 1.464561 11697996
9.947267 9.039246 0.787654 11697996
10.716518 9.772068 0.198602 11697996
9.018712 9.991313 0.473727 11697996
10.829773 9.633133 1.370798 11697996
10.625494 11.246316 3.971307 11697996
10.627367 9.614972 3.768005 11697996
11.154650 9.917578 2.945465 11697996
11.083961 9.985040 3.048364 11697996
8.824879 10.916142 2.785766 11697996
11.048329 9.852579 2.730103 11697996
9.278601 9.777246 3.419834 11697996
9.295305 8.987239 3.420168 11697996
9.875614 10.713036 2.532419 11697996
10.892247 9.177248 0.173631 11697996
10.734971 10.512706 1.289850 11697996
9.929229 10.718594 2.348587 11697996
9.141809 10.423914 1.808344 11697996
10.183578 9.306198 2.222677 11697996
11.045144 10.204449 0.197139 11697996
10.059282 11.173153 2.964368 11697996
10.618303 11.020874 3.863787 11697996
9.755272 8.821198 1.527750 11697996
9.610545 9.476578 1.366327 11697996
10.668840 10.734794 1.618170 11697996
9.595722 10.485649 2.707270 11697996
10.241741 11.260231 0.317599 11697996
9.609890 8.832366 3.286856 11697996
9.555233 10.273250 3.157471 11697996
10.326182 9.124619 3.336754 11697996
9.381869 10.315068 2.978670 11697996
9.587845 10.636100 1.758328 11697996
9.098399 10.804250 2.156192 11697996
10.791310 10.522939 0.922441 11697996
10.858696 10.930289 3.695789 11697996
10.704904 10.967873 1.657186 11697996
11.202862 9.263579 3.302709 11697996
9.868545 11.205607 1.763476 11697996
8.818654 8.796032 2.482270 11697996
9.169034 10.111475 3.137895 11697996
10.594041 10.059221 0.231507 11697996
8.857286 10.217670 3.402163 11697996
10.294288 9.505299 0.818620 11697996
10.247058 8.996889 1.415058 11697996
9.608258 8.860015 3.605744 11697996
9.774714 9.813624 1.576597 11697996
10.865766 9.967380 3.062134 11697996
10.684878 10.333975 3.292575 11697996
10.818051 10.478799 0.647572 11697996
10.748829 10.196885 3.852048 11697996
11.089705 9.497158 1.665754 11697996
9.505611 10.814988 2.590282 11697996
10.244861 8.782026 3.108328 11697996
11.137002 9.492282 2.711358 11697996
10.299505 10.085895 2.067118 11697996
10.376268 10.018514 0.989887 11697996
8.866857 10.997731 3.447167 11697996
10.643847 9.891624 1.743968 11697996
9.468507 10.007090 2.169380 11697996
10.123466 10.704923 3.244541 11697996
9.266694 10.479127 1.903290 11697996
9.235914 9.727393 2.711938 11697996
9.804833 9.130096 3.502723 11697996
9.594298 11.029046 1.995596 11697996
10.623028 8.854931 1.291994 11697996
8.911856 11.114823 0.015559 11697996
11.041787 10.385591 2.088074 11697996
8.895644 11.193327 0.026860 11697996
9.291455 11.103044 1.604875 11697996
10.154624 9.168227 1.466114 11697996
9.180778 10.614611 0.518555 11697996
10.840604 10.948782 3.782632 11697996
10.177255 9.800041 2.648443 11697996
10.947995 10.446359 2.347696 11697996
11.117532 9.919695 2.096014 11697996
9.986610 10.219735 2.229431 11697996
10.017657 10.174064 2.033109 11697996
8.899104 9.539584 0.981450 11697996
10.373442 11.014672 2.214322 11697996
10.993643 10.923596 1.677534 11697996
9.969177 8.841221 0.519053 11697996
9.351832 10.369947 3.312479 11697996
11.169060 9.195360 3.217941 11697996
11.099886 10.632945 2.361046 11697996
10.884105 11.171537 1.167625 11697996
10.715020 9.596022 2.731408 11697996
9.975896 10.845152 1.072697 11697996
11.067730 10.037127 1.275039 11697996
9.005569 10.092910 2.578507 11697996
10.060450 10.425897 0.494605 11697996
10.832879 9.910215 3.404732 11697996
9.838739 10.394032 3.099446 11697996
10.114439 11.160585 1.583268 11697996
9.551861 9.943512 1.540241 11697996
10.317245 10.225000 3.243399 11697996
10.891059 10.702327 3.187216 11697996
10.709664 10.683079 0.907925 11697996
10.669265 10.066927 1.580405 11697996
9.705681 10.713859 3.980034 11697996
10.831372 9.583727 1.407689 11697996
9.054978 10.154971 3.903469 11697996
9.161591 9.577346 0.241803 11697996
10.961002 10.912185 1.629568 11697996
10.128173 10.254404 2.379166 11697996
9.557546 10.954050 1.808016 11697996
10.131434 10.704185 0.228225 11697996
10.862447 8.888037 0.785070 11697996
9.111214 10.844183 0.667069 11697996
11.030596 11.007700 0.524178 11697996
10.040257 10.186670 3.202408 11697996
10.405927 9.969426 0.218651 11697996
10.200387 8.920844 1.579918 11697996
9.306858 8.885853 1.505132 11697996
8.931657 10.322141 3.091642 11697996
10.496539 9.346803 1.570480 11697996
9.149248 9.329622 3.729232 11697996
9.516343 9.213917 0.594874 11697996
10.346083 11.049590 1.192874 11697996
10.491809 9.142668 1.462097 11697996
11.124014 10.372310 1.877300 11697996
10.605733 8.997855 3.656573 11697996
10.909990 10.813247 0.837884 11697996
10.876163 9.200898 1.468369 11697996
9.571920 11.159649 1.827060 11697996
8.961569 10.196669 1.819246 11697996
11.240517 10.135265 0.221303 11697996
10.023373 10.966933 3.600053 11697996
10.606730 10.330379 0.275543 11697996
8.825487 10.574788 0.604486 11697996
8.960721 8.862957 1.470235 11697996
10.904792 9.488514 0.187673 11697996
10.391830 9.441813 3.724632 11697996
10.223203 10.435708 0.766497 11697996
10.409195 10.804870 0.129609 11697996
10.804042 9.153450 1.205075 11697996
10.956833 9.804783 3.742744 11697996
10.456850 9.570144 1.594357 11697996
8.845531 8.954510 0.543090 11697996
10.197725 10.255542 3.688051 11697996
9.277880 11.020385 0.682808 11697996
10.793834 8.799875 0.561487 11697996
8.990164 10.707376 2.527195 11697996
10.716189 9.489399 3.130647 11697996
9.562159 9.787365 0.852047 11697996
10.992414 11.182301 2.341852 11697996
9.588303 10.561445 2.843075 11697996
9.651711 11.114946 1.304614 11697996
9.815885 11.108242 2.728594 11697996
10.365392 10.294172 3.042516 11697996
10.431571 10.661769 3.519140 11697996
10.902743 10.674185 1.442539 11697996
9.086764 10.880833 2.676278 11697996
10.823896 9.658787 0.363320 11697996
10.999902 10.539169 3.105408 11697996
8.807530 9.082721 3.976193 11697996
9.467217 9.441327 2.525648 11697996
10.742746 10.256719 2.442711 11697996
8.799445 9.454819 0.684220 11697996
10.270448 9.259242 3.728087 11697996
10.159324 9.109177 2.575877 11697996
10.303356 11.006707 2.559180 11697996
9.060185 9.507272 1.923821 11697996
10.102622 9.372251 2.244163 11697996
9.168268 9.394367 0.665323 11697996
11.042880 9.599211 3.952112 11697996
10.275254 10.764267 1.842051 11697996
11.041843 10.006001 2.425393 11697996
10.274982 10.947348 1.716955 11697996
9.644750 9.770041 3.299937 11697996
10.591427 8.901788 1.994935 11697996
9.278125 10.708105 1.499812 11697996
9.402601 9.252168 2.062314 11697996
9.125632 9.097404 3.231541 11697996
9.355795 10.505525 2.014450 11697996
11.103333 9.057295 2.310235 11697996
11.137470 9.895859 2.447313 11697996
9.302317 11.191329 2.933232 11697996
9.623705 11.225952 1.214111 11697996
9.082096 9.534533 3.187770 11697996
11.165002 8.927342 1.372070 11697996
10.246888 9.967380 1.678363 11697996
10.079100 10.444083 2.666293 11697996
9.338994 9.167233 0.736460 11697996
9.959807 9.414118 0.381312 11697996
9.079983 8.936089 1.373371 11697996
8.840556 10.337672 2.389352 11697996
9.795001 8.973302 2.975104 11697996
10.118647 10.962216 0.858885 11697996
11.033060 9.252452 4.022196 11697996
10.778846 8.980495 1.258156 11697996
9.638354 9.940604 2.842540 11697996
10.102005 9.340662 2.810232 11697996
10.086377 11.127351 3.082468 11697996
10.992383 10.871919 3.195907 11697996
9.419829 10.915072 1.010725 11697996
9.542109 10.773443 1.065549 11697996
8.742449 9.333832 0.091124 11697996
10.540600 10.786738 2.036664 11697996
10.447877 10.670735 2.446516 11697996
10.229341 9.099978 2.940066 11697996
10.298768 9.643972 3.739676 11697996
9.188621 10.719582 3.713824 11697996
9.701781 10.877333 2.554540 11697996
10.985978 9.904147 0.471027 11697996
10.609999 10.830655 3.342822 11697996
10.759422 10.270812 2.093424 11697996
10.372297 10.413613 0.319142 11697996
10.994153 10.456161 2.667950 11697996
9.703088 9.673529 2.617693 11697996
11.151312 10.949089 1.303545 11697996
9.368976 9.485627 3.157755 11697996
10.925697 8.935231 3.565190 11697996
11.191652 9.805638 1.959826 11697996
10.422323 10.313602 2.634627 11697996
9.693164 9.124225 0.422252 11697996
11.246223 10.395777 0.263727 11697996
9.964696 9.299007 0.994497 11697996
10.402580 10.362184 2.399754 11697996
10.809239 8.809672 1.203661 11697996
9.990695 9.037411 0.521145 11697996
9.721871 11.184980 0.816181 11697996
10.118627 9.173509 1.206026 11697996
8.869904 9.527580 1.555769 11697996
9.749504 8.886156 1.699100 11697996
9.855875 9.861488 1.054238 11697996
10.131165 10.812605 3.372610 11697996
10.268184 8.933472 1.140289 11697996
9.051206 10.208089 1.303754 11697996
11.130659 8.847857 2.023771 11697996
11.091267 9.341363 2.221701 11697996
11.105409 9.196216 3.945484 11697996
8.871796 10.395356 2.299993 11697996
8.901835 10.410460 0.497816 11697996
9.055625 11.097161 3.739927 11697996
9.185615 9.670053 0.821982 11697996
9.219707 10.799930 1.395987 11697996
9.354300 10.755170 1.339337 11697996
10.993954 10.249660 1.954252 11697996
10.378881 10.528313 2.570858 11697996
8.837553 10.238855 3.271631 11697996
9.476402 10.208961 3.575358 11697996
9.075840 10.916500 3.169289 11697996
11.140648 10.283435 0.716946 11697996
9.425569 9.055231 2.452158 11697996
9.153703 10.100192 1.032471 11697996
11.070726 9.505661 2.040083 11697996
10.773508 9.501744 0.281212 11697996
9.798847 10.391528 1.846750 11697996
10.229528 10.121826 1.200485 11697996
8.742629 10.444648 3.093786 11697996
10.320395 9.237488 1.396721 11697996
9.764372 9.291997 0.043857 11697996
9.250409 9.973140 2.847201 11697996
10.567796 9.546306 0.861558 11697996
10.198010 10.179562 3.554836 11697996
8.915130 11.114326 1.886282 11697996
11.038904 9.222673 1.342461 11697996
9.190847 9.803552 2.949944 11697996
8.895875 9.055450 2.144514 11697996
9.443013 10.243134 1.048108 11697996
11.053967 9.655615 3.510790 11697996
9.642170 10.081615 1.952311 11697996
10.610730 11.195455 0.097981 11697996
9.683597 9.651732 1.364660 11697996
10.797051 8.915855 3.678632 11697996
9.614378 10.431358 0.288021 11697996
10.793593 10.018563 2.864117 11697996
9.107355 10.069365 3.798720 11697996
8.986163 10.806141 3.465290 11697996
10.717624 8.921806 1.545586 11697996
9.160338 10.564816 2.763746 11697996
9.958879 10.053645 3.985689 11697996
10.123531 10.935709 2.287780 11697996
9.879054 10.142920 0.335445 11697996
8.882287 8.916093 2.163785 11697996
10.191198 9.769729 3.834506 11697996
10.595723 11.164783 2.234127 11697996
9.301373 10.119683 3.170873 11697996
9.861629 9.919622 2.611461 11697996
8.904145 10.245060 0.204460 11697996
10.805914 10.501115 1.911246 11697996
10.147369 9.696869 3.332892 11697996
10.960224 10.179469 3.391074 11697996
8.921742 9.208055 3.949614 11697996
9.342896 10.812550 3.354280 11697996
10.306192 10.737388 0.977760 11697996
10.783546 9.895149 2.267586 11697996
10.479650 8.760544 3.475282 11697996
10.827898 8.961069 0.844281 11697996
9.385082 10.231594 2.547411 11697996
9.106835 10.848834 1.136863 11697996
10.384912 8.850768 3.293543 11697996
9.646025 10.821526 2.929498 11697996
9.873895 10.563266 1.162527 11697996
11.129472 11.002779 1.462898 11697996
9.594662 8.838973 3.891263 11697996
10.753238 9.861489 2.266698 11697996
8.774717 9.355469 1.148080 11697996
10.858396 11.110934 3.698149 11697996
10.679998 10.918167 2.508937 11697996
9.555353 9.757264 1.216217 11697996
10.202374 9.262945 2.023585 11697996
9.737875 9.986706 2.704542 11697996
10.014978 9.687219 0.825460 11697996
10.318726 11.246546 1.902889 11697996
10.648620 9.171194 0.183512 11697996
9.502377 10.699362 1.200347 11697996
11.190585 11.009379 2.574551 11697996
10.503958 9.726029 2.075547 11697996
8.979532 10.357261 3.870184 11697996
9.209376 10.620753 0.114524 11697996
10.292394 10.040107 3.666297 11697996
10.777529 10.620214 3.103405 11697996
9.593749 11.245816 3.643511 11697996
9.375806 9.199981 2.986628 11697996
10.008183 9.262936 1.199271 11697996
9.191198 8.940791 0.839775 11697996
10.364536 9.664006 3.076893 11697996
10.569400 11.113791 2.281205 11697996
10.160400 8.908836 0.503950 11697996
10.727975 10.076434 3.477565 11697996
9.092882 10.954266 2.163295 11697996
11.021549 10.120625 1.561542 11697996
10.653250 10.395933 0.600172 11697996
8.836404 10.826663 2.875514 11697996
8.804698 10.497295 0.259905 11697996
9.366044 10.170287 3.506594 11697996
9.036734 9.308754 2.115377 11697996
9.657012 9.733561 2.084685 11697996
10.349282 10.024496 1.864351 11697996
9.237561 9.345982 2.327096 11697996
9.538554 10.882295 3.380886 11697996
10.032542 10.009787 3.328785 11697996
10.645501 8.799175 0.838487 11697996
9.184781 11.237947 3.912992 11697996
9.420027 9.886777 0.995227 11697996
8.887619 11.199327 2.723289 11697996
10.174033 9.589755 3.433908 11697996
11.229859 10.338609 0.180046 11697996
9.295104 9.010446 2.753517 11697996
8.933290 9.304995 1.305111 11697996
9.035881 9.784888 1.617148 11697996
8.902464 9.693999 2.167451 11697996
11.065283 11.077038 3.584579 11697996
10.355205 9.891132 2.978858 11697996
8.775165 9.730872 3.465265 11697996
10.283006 9.608531 0.355650 11697996
10.465918 10.581367 1.914944 11697996
10.736748 9.632750 0.081776 11697996
11.165815 8.953505 3.993767 11697996
10.572997 10.422171 2.037946 11697996
10.222088 10.224787 0.743013 11697996
10.012742 9.162936 1.456014 11697996
11.137235 9.261658 2.183135 11697996
9.053370 11.185657 0.948403 11697996
9.036989 9.490765 3.328732 11697996
10.500210 9.975198 2.752315 11697996
8.793541 11.226903 1.138947 11697996
10.561166 9.804376 3.057433 11697996
9.160465 10.646277 3.385793 11697996
9.107348 10.172869 4.004206 11697996
10.951550 10.248638 1.970233 11697996
10.894124 9.654368 1.030822 11697996
9.393122 8.918159 3.846984 11697996
8.753590 9.825553 2.479077 11697996
10.270023 10.438730 1.873242 11697996
11.063881 10.899129 3.580340 11697996
8.870436 9.452847 3.880894 11697996
9.903491 9.113561 3.471688 11697996
9.963072 9.623393 2.134291 11697996
8.933061 9.977714 2.441737 11697996
9.620843 9.900718 3.733183 11697996
9.942291 10.894735 2.656386 11697996
10.912990 11.083176 0.845419 11697996
9.349879 9.087462 0.086677 11697996
9.675930 10.883252 0.128485 11697996
10.152507 10.358479 3.551479 11697996
10.934044 9.058191 0.945783 11697996
9.315828 11.042647 1.780727 11697996
10.179278 9.217031 2.200446 11697996
8.774035 10.036687 0.782836 11697996
9.736447 9.899433 3.943929 11697996
9.944274 11.202738 2.347360 11697996
9.359520 10.922846 2.946354 11697996
10.683253 9.609287 2.180237 11697996
10.901843 9.077168 2.746932 11697996
10.914286 10.848857 1.790976 11697996
11.208282 9.864106 2.210243 11697996
9.673901 9.336040 2.471581 11697996
9.335176 8.865555 2.942763 11697996
11.021442 8.984469 2.706263 11697996
9.866678 8.814782 0.609133 11697996
9.784436 9.033733 3.570134 11697996
11.003080 9.787236 0.858394 11697996
11.113194 9.034388 3.672503 11697996
10.467734 9.201831 2.270794 11697996
10.755151 10.406068 1.396982 11697996
9.373227 10.578637 0.152271 11697996
9.380538 10.717915 2.756181 11697996
9.561819 9.297455 3.917568 11697996
9.041769 10.930495 2.183053 11697996
9.743100 9.936076 0.517358 11697996
10.492842 10.115276 1.812297 11697996
11.181408 11.057042 0.289681 11697996
8.930058 10.476793 2.845511 11697996
10.378545 10.068597 1.547900 11697996
10.614732 10.335909 0.807944 11697996
10.565877 9.676531 3.563417 11697996
11.069495 8.834822 0.322852 11697996
11.005202 11.203245 -0.001513 11697996
10.764350 9.747372 3.564362 11697996
9.660939 10.829350 3.377899 11697996
9.508938 9.432920 2.197942 11697996
10.495354 9.541750 1.582134 11697996
11.047538 9.415953 1.962817 11697996
10.419165 9.975456 0.559305 11697996
9.762547 11.181444 2.396161 11697996
11.096416 8.902707 2.339389 11697996
10.961985 9.643274 2.522151 11697996
9.732821 10.914165 2.647344 11697996
9.133375 10.334373 0.881857 11697996
9.283269 8.856178 2.209669 11697996
11.053557 9.865163 3.026859 11697996
9.413897 10.883736 1.276796 11697996
10.270737 9.289671 1.523924 11697996
9.610231 10.455407 1.997562 11697996
