# .PCD v0.7 - Point Cloud Data file format
VERSION 0.7
FIELDS x y z rgb
SIZE 4 4 4 4
TYPE F F F U
COUNT 1 1 1 1
WIDTH 1290
HEIGHT 1
VIEWPOINT 0 0 0 1 0 0 0
POINTS 1290
DATA ascii
11.021502 10.004645 2.401857 11697996
10.279284 10.925931 1.710124 11697996
9.642006 9.761550 3.326467 11697996
10.565564 8.900004 1.944999 11697996
9.293931 10.733959 1.514836 11697996
9.382115 9.261507 2.048959 11697996
9.086682 9.104136 3.221631 11697996
9.367661 10.494432 2.026824 11697996
11.110721 9.060937 2.306007 11697996
11.121884 9.888941 2.442223 11697996
9.332359 11.172992 2.961974 11697996
9.595267 11.215193 1.192183 11697996
9.073039 9.534717 3.193841 11697996
11.141899 8.940441 1.383554 11697996
10.201744 9.966826 1.684095 11697996
10.075995 10.447723 2.648652 11697996
9.374000 9.151011 0.725645 11697996
9.957594 9.411813 0.383569 11697996
9.073274 8.939371 1.414486 11697996
8.808373 10.323557 2.403619 11697996
9.801459 8.974386 2.955736 11697996
10.157487 10.982575 0.869997 11697996
11.028104 9.250547 4.024326 11697996
10.793996 8.985023 1.260373 11697996
9.656980 9.924581 2.858510 11697996
10.076481 9.389250 2.818331 11697996
10.072893 11.108638 3.079705 11697996
11.048817 10.874920 3.226703 11697996
9.425068 10.905844 0.985545 11697996
9.534659 10.762974 1.097917 11697996
8.763824 9.335614 0.082137 11697996
10.532822 10.789512 2.040000 11697996
10.476645 10.680273 2.456052 11697996
10.184900 9.077176 2.912859 11697996
10.312841 9.608115 3.722599 11697996
9.186693 10.718639 3.717356 11697996
9.693916 10.853146 2.565372 11697996
10.978046 9.897619 0.454431 11697996
10.612644 10.825954 3.351340 11697996
10.774757 10.295898 2.104064 11697996
10.375579 10.419907 0.331799 11697996
11.013783 10.452131 2.675456 11697996
9.692893 9.682110 2.612077 11697996
11.122864 10.926100 1.301807 11697996
9.395829 9.481382 3.148870 11697996
10.891130 8.920072 3.593593 11697996
11.212601 9.828170 1.946776 11697996
10.443069 10.331204 2.650946 11697996
9.663845 9.129611 0.435787 11697996
11.234169 10.423890 0.297596 11697996
9.960543 9.260417 1.004384 11697996
10.396973 10.338132 2.377424 11697996
10.790936 8.785691 1.193155 11697996
9.983759 9.044762 0.548463 11697996
9.709155 11.178699 0.843877 11697996
10.133164 9.147427 1.165512 11697996
8.897440 9.499349 1.549968 11697996
9.741921 8.908094 1.715864 11697996
9.823321 9.863406 1.058372 11697996
10.115243 10.827404 3.389509 11697996
10.276809 8.927526 1.116064 11697996
9.046276 10.182040 1.313829 11697996
11.085284 8.855312 2.013176 11697996
11.056707 9.330411 2.209587 11697996
11.083285 9.200382 3.961296 11697996
8.910231 10.397508 2.301116 11697996
8.888148 10.444653 0.502870 11697996
9.055837 11.092297 3.724818 11697996
9.227884 9.676652 0.817756 11697996
9.200885 10.767303 1.412055 11697996
9.331874 10.770680 1.320420 11697996
10.981104 10.257186 1.951416 11697996
10.361135 10.511750 2.565395 11697996
8.851777 10.233562 3.287566 11697996
9.468577 10.211434 3.586568 11697996
9.075019 10.916197 3.186505 11697996
11.137181 10.266016 0.744028 11697996
9.402426 9.076362 2.399096 11697996
9.172789 10.051633 1.050190 11697996
11.118707 9.468518 2.034930 11697996
10.778638 9.477880 0.281109 11697996
9.811666 10.391229 1.824149 11697996
10.255470 10.111944 1.199310 11697996
8.777312 10.428383 3.078961 11697996
10.300519 9.216106 1.379690 11697996
9.785829 9.286297 0.003783 11697996
9.238263 9.954198 2.853157 11697996
10.546410 9.544158 0.895229 11697996
10.197837 10.191335 3.593679 11697996
8.946910 11.075203 1.887511 11697996
11.008593 9.235985 1.337872 11697996
9.202477 9.791681 2.975254 11697996
8.940456 9.085711 2.160741 11697996
9.440431 10.265923 1.043220 11697996
11.084263 9.616956 3.496009 11697996
9.624864 10.081204 1.927617 11697996
10.631854 11.218729 0.087669 11697996
9.662452 9.639375 1.378464 11697996
10.781570 8.894465 3.660183 11697996
9.567732 10.423024 0.300609 11697996
10.789608 10.004783 2.885746 11697996
9.100544 10.050217 3.783982 11697996
8.994621 10.784042 3.487371 11697996
10.649106 8.917747 1.521258 11697996
9.152930 10.554246 2.778490 11697996
9.984071 10.048837 3.979651 11697996
10.156501 10.910191 2.308474 11697996
9.884271 10.156305 0.322794 11697996
8.898016 8.934904 2.148190 11697996
10.222506 9.795027 3.828360 11697996
10.636429 11.171214 2.226731 11697996
9.310406 10.114009 3.201437 11697996
9.884018 9.931180 2.621310 11697996
8.903799 10.253658 0.187629 11697996
10.756375 10.508811 1.920213 11697996
10.146668 9.673224 3.308584 11697996
10.983918 10.176206 3.397925 11697996
8.938453 9.223606 3.890831 11697996
9.305130 10.820763 3.322384 11697996
10.297573 10.733477 0.985851 11697996
10.801364 9.885496 2.267062 11697996
10.472716 8.745735 3.476684 11697996
10.839744 8.919017 0.853840 11697996
9.383280 10.222793 2.521011 11697996
9.114606 10.855555 1.133381 11697996
10.322027 8.849516 3.267208 11697996
9.680163 10.810217 2.933485 11697996
9.890036 10.553364 1.156146 11697996
11.128679 11.006773 1.453579 11697996
9.553818 8.812531 3.860246 11697996
10.761243 9.864753 2.292071 11697996
8.789076 9.358398 1.146973 11697996
10.853146 11.098932 3.748446 11697996
10.670260 10.948009 2.542633 11697996
9.527026 9.765796 1.191217 11697996
10.182230 9.270322 1.997283 11697996
9.745083 10.012558 2.743549 11697996
10.019862 9.710792 0.837831 11697996
10.324140 11.242377 1.911675 11697996
10.668235 9.164838 0.218814 11697996
9.498217 10.708563 1.174285 11697996
11.176840 11.020082 2.569116 11697996
10.489444 9.738795 2.095231 11697996
8.990242 10.371747 3.886354 11697996
9.220297 10.586808 0.154979 11697996
10.289530 10.041626 3.661360 11697996
10.758978 10.611106 3.101513 11697996
9.580285 11.232037 3.658909 11697996
9.390075 9.223498 2.985339 11697996
10.006305 9.287212 1.215688 11697996
9.142844 8.968906 0.823630 11697996
10.396325 9.649900 3.104377 11697996
10.554427 11.071575 2.256633 11697996
10.218677 8.913918 0.557510 11697996
10.714761 10.068617 3.462802 11697996
9.105456 10.976333 2.164585 11697996
11.001145 10.134341 1.577947 11697996
10.636296 10.391327 0.597525 11697996
8.841965 10.830138 2.864205 11697996
8.814343 10.457376 0.261987 11697996
9.346557 10.172460 3.542856 11697996
9.055107 9.312038 2.125534 11697996
9.663110 9.741904 2.077156 11697996
10.340839 10.000728 1.860130 11697996
9.235049 9.309473 2.300637 11697996
9.511831 10.891303 3.368539 11697996
10.073241 10.007466 3.327195 11697996
10.692808 8.843756 0.839158 11697996
9.220160 11.231400 3.914718 11697996
9.438789 9.901356 0.992628 11697996
8.864254 11.184167 2.737988 11697996
10.139979 9.584248 3.431322 11697996
11.261892 10.350718 0.205231 11697996
9.310153 9.016257 2.699405 11697996
8.937101 9.326146 1.311746 11697996
9.030338 9.793848 1.645475 11697996
8.891518 9.658335 2.186890 11697996
11.054166 11.089370 3.591068 11697996
10.395205 9.881826 3.008459 11697996
8.791372 9.713428 3.483411 11697996
10.284785 9.613140 0.329145 11697996
10.458686 10.582429 1.885972 11697996
10.722221 9.654650 0.096019 11697996
11.153875 8.910926 3.963918 11697996
10.545735 10.469692 2.028959 11697996
10.253684 10.202043 0.731318 11697996
9.993821 9.164732 1.468692 11697996
11.115774 9.301145 2.204589 11697996
9.050258 11.173267 0.937506 11697996
9.032516 9.447581 3.314342 11697996
10.475233 10.001014 2.755300 11697996
8.749843 11.186692 1.157092 11697996
10.541301 9.785913 3.047378 11697996
9.157434 10.692641 3.419159 11697996
9.128582 10.149474 3.983630 11697996
10.942936 10.262340 1.925291 11697996
10.907781 9.652682 1.044796 11697996
9.369614 8.963371 3.879166 11697996
8.783545 9.832172 2.464512 11697996
10.274569 10.455015 1.899776 11697996
11.088683 10.904707 3.536042 11697996
8.876079 9.446646 3.871799 11697996
9.936585 9.109718 3.449608 11697996
9.966129 9.629249 2.109317 11697996
8.925022 9.983951 2.433267 11697996
9.649387 9.937315 3.764130 11697996
9.958144 10.896856 2.630353 11697996
10.921373 11.100801 0.857545 11697996
9.322209 9.046454 0.078188 11697996
9.668172 10.908487 0.154237 11697996
10.148061 10.338290 3.543490 11697996
10.946644 9.036851 0.967093 11697996
9.299909 11.045959 1.785012 11697996
10.137989 9.222809 2.174001 11697996
8.748139 10.009764 0.755049 11697996
9.773706 9.912858 3.952622 11697996
9.943151 11.193430 2.382586 11697996
9.346270 10.900360 2.957010 11697996
10.676848 9.601757 2.261863 11697996
10.903249 9.041011 2.761103 11697996
10.922532 10.861622 1.802345 11697996
11.264875 9.897075 2.216166 11697996
9.641996 9.323056 2.479973 11697996
9.315799 8.866308 2.938490 11697996
11.038794 8.978783 2.687360 11697996
9.864301 8.807893 0.588074 11697996
9.799321 9.059314 3.571104 11697996
10.967338 9.829997 0.877319 11697996
11.116631 9.037965 3.672671 11697996
10.455912 9.156136 2.267051 11697996
10.758596 10.426703 1.391148 11697996
9.379470 10.580854 0.154463 11697996
9.410511 10.740206 2.740654 11697996
9.588902 9.298452 3.906412 11697996
9.057474 10.966421 2.185947 11697996
9.784211 9.913920 0.533389 11697996
10.516235 10.139544 1.779565 11697996
11.214964 11.066014 0.290268 11697996
8.920204 10.467187 2.851168 11697996
10.381240 10.072372 1.561129 11697996
10.591342 10.345065 0.795114 11697996
10.573939 9.682258 3.575794 11697996
11.075791 8.819112 0.322849 11697996
11.002719 11.238213 0.008031 11697996
10.756778 9.733694 3.552664 11697996
9.682134 10.810501 3.337945 11697996
9.512293 9.419680 2.216721 11697996
10.513466 9.559005 1.570867 11697996
11.022873 9.455901 1.954829 11697996
10.432213 10.035913 0.563504 11697996
9.756511 11.185560 2.359385 11697996
11.083883 8.880287 2.320932 11697996
11.002939 9.613317 2.556164 11697996
9.718909 10.892487 2.638945 11697996
9.181176 10.324784 0.906390 11697996
9.280309 8.849987 2.198186 11697996
11.086466 9.843315 3.022881 11697996
9.401073 10.910909 1.275708 11697996
10.288567 9.273129 1.536037 11697996
9.612349 10.433530 1.968545 11697996
9.695107 9.166662 2.259224 11697996
9.238209 9.111952 0.633058 11697996
10.549107 11.088562 3.429945 11697996
9.902474 9.795230 2.140844 11697996
10.163193 9.147448 3.324485 11697996
10.413501 10.088760 1.521598 11697996
9.204729 10.868757 1.180088 11697996
9.641423 10.223302 3.944075 11697996
9.778240 8.968210 3.510486 11697996
8.963460 9.479753 0.273464 11697996
10.598165 10.419408 0.142771 11697996
9.306213 10.474889 1.867323 11697996
10.529872 8.981174 2.455260 11697996
10.486012 10.309162 0.609891 11697996
9.932597 10.071746 3.695014 11697996
9.756976 9.725559 0.641400 11697996
11.218740 10.514004 2.810030 11697996
9.662509 10.599377 1.946051 11697996
9.143600 10.855495 3.760605 11697996
9.263652 11.087690 1.256079 11697996
11.119167 11.115689 3.848290 11697996
10.396529 10.179789 2.427263 11697996
9.888624 10.064748 3.598599 11697996
9.099874 9.091171 1.801998 11697996
9.574509 9.939645 3.265830 11697996
10.933072 9.278187 0.144458 11697996
11.056766 9.182317 0.654123 11697996
9.781038 11.106028 2.574731 11697996
11.010854 9.336386 1.478614 11697996
9.271049 9.868805 2.542868 11697996
11.228036 11.127279 0.860142 11697996
11.206095 10.577994 1.839250 11697996
10.338977 8.826476 3.719897 11697996
9.302592 9.752204 3.143702 11697996
10.319170 9.006368 0.864823 11697996
9.573847 9.441925 0.047115 11697996
10.053141 8.896842 3.161873 11697996
10.782300 10.384478 3.041199 11697996
8.761741 9.115787 3.498144 11697996
9.980873 9.563087 1.081489 11697996
10.356139 9.407907 2.338754 11697996
11.143077 9.615686 3.417109 11697996
9.857046 11.157143 3.238130 11697996
11.009520 10.585922 2.641030 11697996
10.678435 10.396818 0.610004 11697996
9.026007 9.075672 2.310256 11697996
10.190020 9.517406 3.794548 11697996
10.830042 10.689713 0.742092 11697996
11.227876 8.802626 0.959917 11697996
9.294402 9.558817 3.762872 11697996
11.246703 10.255332 1.604026 11697996
10.924277 9.422540 1.657514 11697996
11.007757 10.171288 2.407714 11697996
8.851365 10.786638 1.254678 11697996
9.611045 9.851488 0.336653 11697996
10.332199 8.994094 3.246457 11697996
9.574615 8.832558 1.314558 11697996
10.992528 9.117136 1.136587 11697996
10.344250 8.838931 0.437657 11697996
9.892782 9.650872 2.818024 11697996
10.849867 9.764788 3.961100 11697996
9.073092 9.296074 3.396116 11697996
10.014660 10.875979 0.718202 11697996
10.121649 8.807178 3.088736 11697996
10.864333 9.271806 3.637028 11697996
9.522416 9.751354 3.424194 11697996
9.492647 8.964594 3.442932 11697996
10.116954 9.212820 1.269234 11697996
10.581843 9.083048 1.749983 11697996
9.831096 10.887269 3.630695 11697996
11.100159 9.680389 3.523654 11697996
9.764469 10.914566 3.247612 11697996
10.056116 9.502618 0.536833 11697996
9.189057 9.304698 2.876409 11697996
10.445448 8.962746 3.145535 11697996
9.853312 9.547499 0.421054 11697996
8.791161 10.861498 3.307166 11697996
10.305531 9.627362 0.676501 11697996
10.487484 10.908653 1.673998 11697996
9.768093 10.741676 1.940662 11697996
9.215584 10.183651 2.044932 11697996
10.547559 10.705741 3.639049 11697996
10.068303 9.877469 3.101881 11697996
9.945498 9.638080 1.608968 11697996
9.328349 9.864875 3.436091 11697996
9.902534 11.174337 3.844341 11697996
8.974992 11.166494 0.970041 11697996
10.550968 10.098860 0.154067 11697996
10.511058 10.285379 1.776219 11697996
10.087197 9.124188 0.829577 11697996
9.414196 9.550021 2.613539 11697996
11.106377 10.964376 1.000512 11697996
10.607153 11.129902 1.060600 11697996
9.590475 10.441043 0.989659 11697996
8.866371 11.198850 1.611877 11697996
10.193323 10.026040 2.944213 11697996
8.946210 9.293118 1.984274 11697996
11.010411 9.032360 0.650744 11697996
9.786467 8.776118 0.787442 11697996
9.166125 10.418138 1.654166 11697996
10.866646 9.226053 0.559033 11697996
9.826116 9.612183 2.821981 11697996
9.763541 10.191448 0.249087 11697996
11.034954 10.435330 0.411046 11697996
9.446288 10.104901 1.539487 11697996
8.759624 11.115705 2.488054 11697996
10.305589 9.481260 0.546179 11697996
10.666595 8.895463 0.187025 11697996
11.240231 9.408208 2.635175 11697996
9.516401 10.722288 1.238917 11697996
10.229607 9.014741 1.017751 11697996
10.737302 10.855033 1.708489 11697996
9.497614 9.983448 2.379204 11697996
10.354553 9.144067 0.495947 11697996
10.615914 9.053447 2.439101 11697996
10.715281 10.128420 1.149552 11697996
9.357859 9.214454 1.754180 11697996
9.836171 10.274843 2.012617 11697996
9.149327 9.048569 1.639282 11697996
9.618632 9.000289 2.492024 11697996
9.506348 11.213314 1.635182 11697996
11.181523 9.655125 1.561559 11697996
9.658407 8.840309 0.397042 11697996
10.320086 10.655857 2.635118 11697996
10.996933 8.764218 2.018653 11697996
9.508075 9.046758 0.089386 11697996
10.021872 10.320937 2.658286 11697996
9.442468 9.635617 1.611032 11697996
9.413542 10.715026 2.871197 11697996
9.918862 9.783763 1.026996 11697996
9.155459 10.262797 2.851619 11697996
9.437473 10.658432 0.785731 11697996
10.066249 9.743701 3.922890 11697996
9.086505 10.606305 2.239674 11697996
8.812828 8.940587 1.186861 11697996
10.606169 9.168390 1.341114 11697996
10.073203 9.701238 2.245607 11697996
11.102851 10.345888 0.262727 11697996
11.099933 10.299708 3.535767 11697996
9.076786 10.219851 1.835126 11697996
9.888111 10.847573 3.204753 11697996
10.700493 10.657808 1.184271 11697996
11.182330 10.105720 1.928123 11697996
10.940258 11.217040 1.330368 11697996
10.747814 11.059392 3.786237 11697996
9.866891 10.230813 1.962280 11697996
11.253922 10.385710 0.475304 11697996
10.511639 10.063514 2.090292 11697996
10.107335 9.802657 3.647146 11697996
9.390831 10.677415 2.032262 11697996
9.602563 10.303498 2.685004 11697996
9.818771 9.669050 0.934697 11697996
9.105617 8.866615 3.373565 11697996
9.521983 8.967125 0.039628 11697996
10.738548 10.033474 2.279476 11697996
9.511666 9.171030 3.791299 11697996
9.959752 9.904450 2.144315 11697996
9.397674 10.515838 0.426842 11697996
9.689203 10.212642 2.046659 11697996
9.390525 11.104392 3.863963 11697996
9.932074 9.947983 2.249487 11697996
8.978183 10.288256 0.939117 11697996
9.616281 9.622698 2.328295 11697996
11.141634 10.463857 1.186466 11697996
10.870981 10.417783 1.580089 11697996
9.359267 9.375695 0.059987 11697996
9.925919 10.034498 1.253141 11697996
11.159394 9.873299 1.138312 11697996
9.764740 9.294688 -0.001061 11697996
9.042940 9.510956 1.800528 11697996
10.839124 9.477261 0.604101 11697996
9.660755 10.022972 1.449053 11697996
9.707774 10.791881 0.275168 11697996
11.231497 10.298805 3.994461 11697996
8.765077 9.743814 2.598286 11697996
9.977822 10.783855 3.158459 11697996
10.087129 9.988203 2.283133 11697996
11.157480 9.843977 2.116848 11697996
9.795306 10.193207 3.507058 11697996
8.947252 9.184899 2.396487 11697996
9.689598 10.400728 2.830915 11697996
10.550282 9.875770 3.798023 11697996
10.530605 9.572146 2.840013 11697996
9.004799 9.496178 2.921663 11697996
10.843208 11.212933 2.802105 11697996
11.203758 10.707313 0.477744 11697996
11.268213 8.753708 1.755346 11697996
9.794917 9.966868 2.511478 11697996
10.454235 8.907832 3.654183 11697996
10.662687 9.616091 1.702970 11697996
10.300967 8.915735 1.253063 11697996
9.720013 10.446745 3.806082 11697996
10.614023 10.430057 1.306030 11697996
10.156554 10.295659 3.631671 11697996
10.159375 9.218946 0.624643 11697996
9.858365 9.089083 1.008604 11697996
10.572876 10.667800 1.770764 11697996
9.935569 10.174881 0.439596 11697996
10.101115 10.404273 3.734760 11697996
10.251679 9.627477 1.571429 11697996
11.042812 9.498463 3.326707 11697996
9.770575 8.730024 3.524827 11697996
9.403104 9.764644 1.300087 11697996
8.928231 8.984613 3.415125 11697996
10.497581 10.544039 1.249817 11697996
10.225336 10.117178 0.156334 11697996
9.003110 10.449221 2.984394 11697996
10.734015 8.815800 1.103096 11697996
8.984449 9.049298 3.304967 11697996
9.740787 11.128255 2.930394 11697996
9.751613 10.912035 0.187428 11697996
11.047496 9.488885 2.027522 11697996
10.502367 10.139489 3.040504 11697996
9.233396 10.595123 2.747065 11697996
11.149756 10.915153 0.158458 11697996
10.079195 9.168806 1.896821 11697996
10.643605 10.254416 2.300707 11697996
11.214332 9.830607 3.115023 11697996
9.062775 10.072597 2.474750 11697996
10.942008 9.109359 1.234729 11697996
11.132385 10.797883 0.161812 11697996
10.397979 10.949718 3.288555 11697996
10.684913 10.817503 3.043955 11697996
9.493882 9.321184 1.061027 11697996
8.891959 9.905519 2.713810 11697996
10.030156 10.556039 3.712390 11697996
10.287073 10.458154 0.923009 11697996
10.274921 9.411130 2.771972 11697996
11.159777 11.011142 2.726224 11697996
9.591708 8.812147 1.140598 11697996
9.474485 9.578799 1.493931 11697996
10.156196 11.111982 2.573712 11697996
9.122131 9.230210 1.700680 11697996
9.374722 8.943173 2.932702 11697996
9.678270 9.694234 2.041175 11697996
10.720143 11.063039 3.682284 11697996
11.082736 10.379484 3.769778 11697996
10.969531 9.200066 0.004664 11697996
11.106849 10.442437 3.195071 11697996
8.976388 9.002733 1.212786 11697996
8.899573 10.230385 3.071724 11697996
8.976809 9.507714 0.988639 11697996
9.324800 9.576786 2.664307 11697996
10.086320 9.150055 3.182143 11697996
8.795960 8.915804 0.458373 11697996
10.102855 10.329804 1.263905 11697996
8.799347 10.246411 0.884418 11697996
9.469091 10.124493 0.399879 11697996
9.596505 9.889085 1.775463 11697996
9.311021 9.155849 1.345190 11697996
9.998596 9.004835 0.938271 11697996
9.373834 9.568424 0.364283 11697996
9.281993 9.596236 0.321586 11697996
9.545555 10.360438 1.868718 11697996
9.045924 9.823602 3.698967 11697996
9.502741 10.030912 0.535977 11697996
9.774874 10.392865 0.679884 11697996
10.789734 11.178406 1.667568 11697996
10.993464 10.252913 0.746351 11697996
9.345775 9.109961 2.495199 11697996
10.049737 9.452648 1.641625 11697996
9.490050 10.062011 2.789325 11697996
10.063470 10.546107 2.630427 11697996
10.945656 9.702775 2.191508 11697996
10.830686 9.541121 0.697843 11697996
9.454360 11.226134 3.650354 11697996
11.179270 10.296156 0.544410 11697996
10.929628 10.510964 3.542014 11697996
11.009345 10.111812 2.395613 11697996
9.421075 8.814453 1.802451 11697996
10.427142 11.073347 0.519160 11697996
9.688027 9.014469 2.008132 11697996
9.673113 9.555668 2.030722 11697996
10.330583 9.601816 1.241528 11697996
9.986427 10.562778 1.356387 11697996
10.368993 9.638599 3.541198 11697996
11.251419 8.892909 0.803321 11697996
10.165298 9.154493 2.821029 11697996
9.523304 9.281399 2.097169 11697996
8.758271 9.388443 0.371087 11697996
9.703075 9.500715 0.670043 11697996
9.060991 10.143448 1.905593 11697996
11.069634 10.297838 1.578382 11697996
9.398332 10.090054 0.702433 11697996
10.114288 8.759062 0.024110 11697996
9.990248 10.489381 3.032336 11697996
9.119257 9.255783 2.537682 11697996
9.310755 9.318436 0.478098 11697996
10.786254 11.173480 3.981719 11697996
9.219644 10.308659 1.537947 11697996
9.931344 9.496317 3.539937 11697996
8.776122 9.444748 2.244800 11697996
10.327646 9.663652 2.777274 11697996
9.773150 11.214067 3.801805 11697996
10.365260 10.570259 3.032423 11697996
10.550218 11.000935 3.988326 11697996
11.209321 9.101609 2.753234 11697996
9.832883 9.350305 2.468196 11697996
10.282452 10.754485 3.266284 11697996
9.517475 10.217348 3.510731 11697996
9.251467 9.957823 0.095133 11697996
10.254508 10.813164 1.688917 11697996
10.730107 10.257716 2.006347 11697996
10.904918 10.619549 1.080261 11697996
10.105110 8.859971 1.856204 11697996
10.014947 10.313800 1.231835 11697996
11.128841 9.647537 1.916843 11697996
10.444558 9.441378 3.651328 11697996
9.972143 10.098528 0.915022 11697996
10.852552 10.922731 1.245464 11697996
10.264812 9.803887 2.553203 11697996
9.690473 9.179238 3.340754 11697996
9.706269 10.908820 2.194107 11697996
9.476522 10.390671 0.854348 11697996
10.902994 10.603441 3.411618 11697996
9.251943 9.608818 2.354239 11697996
9.018059 10.773740 0.011790 11697996
9.414633 10.922046 1.949283 11697996
9.865899 8.823792 3.074096 11697996
8.786109 9.796707 2.014620 11697996
8.961344 10.601658 0.310440 11697996
8.811997 9.249688 1.211314 11697996
10.882141 9.364615 1.043240 11697996
10.908169 10.451137 3.044751 11697996
9.089787 10.878551 3.791059 11697996
10.939820 9.492626 3.007634 11697996
10.900537 8.745372 0.336678 11697996
9.004453 10.349364 1.081705 11697996
10.438395 8.852310 1.915055 11697996
9.345674 9.329010 0.096571 11697996
9.597822 9.914389 1.245184 11697996
10.734431 8.927991 1.117670 11697996
9.097318 10.547535 1.018355 11697996
10.544946 10.167138 0.422446 11697996
11.012334 9.324184 1.861773 11697996
9.040176 9.867849 2.010105 11697996
10.121247 11.096012 2.735909 11697996
8.874866 9.211438 0.656425 11697996
9.495785 10.823127 3.739734 11697996
9.233237 9.635417 2.216886 11697996
9.241251 10.460130 0.161054 11697996
10.704020 9.886120 2.498919 11697996
9.521973 8.831526 3.776897 11697996
10.933965 10.038693 1.473429 11697996
9.068124 10.362223 1.684621 11697996
9.311120 9.387637 2.023131 11697996
10.225946 8.795763 3.914726 11697996
10.031955 9.156441 3.315053 11697996
10.724657 10.086735 3.199294 11697996
11.243849 10.627739 3.798227 11697996
9.299133 9.290130 2.133055 11697996
9.524875 10.937737 3.259715 11697996
10.039905 9.343716 0.464579 11697996
9.499618 10.442075 2.372751 11697996
10.953697 8.874198 1.153505 11697996
9.657387 10.373207 1.551447 11697996
10.519057 10.443724 1.542842 11697996
9.852983 9.083317 2.514281 11697996
9.300027 10.525234 2.120351 11697996
9.226495 10.065675 0.643953 11697996
9.644074 10.460782 3.776982 11697996
10.319424 9.831790 3.615294 11697996
10.013645 9.311705 2.025785 11697996
10.591004 9.814675 0.414885 11697996
11.233462 10.567274 3.173820 11697996
10.733229 9.611149 3.236801 11697996
10.206706 10.354232 0.767196 11697996
9.604289 10.324556 2.637986 11697996
11.022798 11.145311 3.989471 11697996
11.094736 11.202441 2.037091 11697996
9.239328 9.018961 0.271454 11697996
9.766450 9.802841 3.605594 11697996
9.330796 11.109625 1.589310 11697996
8.912299 10.577779 0.400172 11697996
11.183809 11.021529 2.692035 11697996
8.855217 10.691441 1.582685 11697996
10.638175 9.424438 1.043545 11697996
10.835928 9.568460 3.168581 11697996
10.185714 10.213664 0.954052 11697996
9.076952 9.688347 2.326141 11697996
11.084579 9.120345 0.544114 11697996
9.349982 8.811042 2.181856 11697996
10.918921 10.893422 2.314352 11697996
10.445103 10.743382 3.800172 11697996
9.475350 10.932587 0.983674 11697996
9.305419 10.247008 3.526155 11697996
10.339510 9.476026 2.917641 11697996
10.599686 10.444669 3.642438 11697996
8.876017 11.155828 1.195287 11697996
9.550220 10.215587 1.083790 11697996
9.631394 10.017511 3.146591 11697996
10.717157 10.346172 3.208771 11697996
10.121425 9.534465 0.186690 11697996
9.077122 8.886765 0.062935 11697996
9.488812 10.242474 1.403135 11697996
10.629016 9.599672 3.540548 11697996
9.086549 11.159486 0.543259 11697996
9.521577 11.129623 0.449180 11697996
10.702113 8.858324 1.564543 11697996
10.408765 10.830140 2.124755 11697996
11.212570 10.923225 3.035403 11697996
11.140833 8.914009 2.589815 11697996
9.887627 10.783408 3.938291 11697996
9.446368 10.396670 3.949065 11697996
9.090130 9.183742 3.159033 11697996
9.150338 10.553433 3.414105 11697996
10.956336 11.059731 2.829634 11697996
9.577181 10.476379 2.067777 11697996
9.375324 9.977933 3.740506 11697996
10.908225 9.700707 3.777449 11697996
9.588129 9.089348 0.384686 11697996
9.083146 9.205489 0.592773 11697996
9.512763 9.054923 1.385023 11697996
9.718755 10.350439 3.272938 11697996
10.834970 9.300149 0.755854 11697996
9.027460 10.159073 2.004249 11697996
9.504809 10.562902 1.115391 11697996
10.114371 9.233840 2.749723 11697996
9.520370 10.188335 -0.009612 11697996
9.411981 9.160895 0.218960 11697996
10.818360 9.873013 1.491711 11697996
9.831816 10.772480 0.172947 11697996
8.988097 9.690891 0.886304 11697996
10.170768 9.448866 2.069900 11697996
10.932228 9.253905 1.072909 11697996
8.851661 10.267605 1.862352 11697996
8.787492 11.015751 3.576776 11697996
10.574489 9.081560 2.337530 11697996
9.309062 10.941931 1.817999 11697996
10.574924 9.925081 0.510755 11697996
9.475451 9.135775 3.743717 11697996
10.327213 10.275708 0.044338 11697996
10.710235 8.999901 3.722594 11697996
9.102844 11.105968 3.972717 11697996
10.274507 9.307960 1.952276 11697996
8.794508 9.037033 3.675869 11697996
10.276568 9.238378 2.660532 11697996
9.725235 9.995412 3.973263 11697996
8.769161 9.798744 1.475058 11697996
9.239722 10.478882 2.130604 11697996
9.672812 10.652182 2.794192 11697996
9.288898 9.832747 2.137558 11697996
8.752126 10.263928 3.212794 11697996
9.285944 10.930029 0.106268 11697996
8.810467 9.443700 2.493330 11697996
10.843860 9.833717 1.551068 11697996
10.265288 9.769476 1.794802 11697996
10.459136 10.042488 2.364461 11697996
10.140171 9.202708 2.903417 11697996
10.116515 10.296494 3.506198 11697996
9.172885 10.115222 1.012747 11697996
9.369167 8.832249 2.593925 11697996
11.272875 11.135418 1.236098 11697996
9.083941 10.162524 2.622751 11697996
9.625342 9.732501 2.730244 11697996
9.379683 9.809321 1.703748 11697996
9.357306 10.840720 3.583619 11697996
10.713258 8.830532 2.772590 11697996
10.134300 9.352938 1.613967 11697996
10.905204 10.740978 3.844084 11697996
9.089613 9.461870 3.370152 11697996
10.081272 9.616799 0.866875 11697996
9.226119 10.946131 0.458859 11697996
9.044497 10.992082 1.955521 11697996
10.958070 10.821280 1.322442 11697996
9.890472 9.251968 3.195993 11697996
10.383415 9.812570 1.366706 11697996
10.330777 9.904045 3.903911 11697996
9.440163 9.099290 3.605337 11697996
9.784056 10.465370 3.184588 11697996
9.006695 9.820686 2.815437 11697996
10.359814 11.012539 0.436638 11697996
10.102889 10.944060 3.013434 11697996
8.998792 9.490633 0.266667 11697996
8.769179 10.200295 0.973402 11697996
9.727893 10.681028 0.569951 11697996
10.357011 10.178729 3.315557 11697996
9.127930 10.242990 3.676055 11697996
11.236684 10.280155 2.502687 11697996
10.917971 10.027326 2.844894 11697996
10.170083 9.985008 0.114914 11697996
10.553572 9.419314 1.640856 11697996
9.079590 9.108764 0.517995 11697996
8.870560 10.882400 0.496891 11697996
9.104495 10.214107 2.250607 11697996
9.815193 10.627651 2.055387 11697996
10.916698 9.401817 3.389931 11697996
9.024784 10.744789 2.033340 11697996
8.863960 10.136739 2.772818 11697996
9.763792 10.097260 0.629890 11697996
10.746305 10.718708 0.507345 11697996
9.353542 10.122217 3.244592 11697996
8.778561 8.949824 1.685983 11697996
9.602369 9.749524 1.410228 11697996
9.603368 11.130106 2.479860 11697996
11.045414 9.869971 2.821539 11697996
9.438455 9.418333 2.577192 11697996
9.327352 9.613985 1.673638 11697996
10.511797 11.208949 0.366537 11697996
9.255867 8.905405 3.432361 11697996
10.575551 9.796371 2.305358 11697996
9.979465 10.679516 1.593754 11697996
9.793375 11.146371 2.150581 11697996
10.630940 11.024258 2.274818 11697996
9.731565 11.116439 3.434676 11697996
10.121067 8.943631 0.110512 11697996
9.743111 10.462751 1.636427 11697996
8.875821 9.782598 2.798893 11697996
10.142502 9.940102 2.352801 11697996
10.935453 9.888949 1.827952 11697996
10.139661 10.666142 1.108841 11697996
9.267182 9.019281 3.192222 11697996
9.609975 9.652971 0.803015 11697996
9.798033 10.162745 1.029346 11697996
10.037683 9.910410 2.466142 11697996
11.211917 10.533584 3.323326 11697996
9.652924 9.967556 1.885391 11697996
10.660045 8.840164 0.204074 11697996
11.150190 9.364000 -0.002173 11697996
11.124556 9.347012 0.871726 11697996
9.757071 10.285897 1.541031 11697996
10.401106 8.958529 0.650925 11697996
11.089210 8.909064 2.787076 11697996
11.206368 9.440151 3.294523 11697996
11.093408 9.183906 2.101432 11697996
11.151798 10.770727 3.931415 11697996
10.566739 9.742998 2.575521 11697996
10.105487 10.163680 0.342013 11697996
10.807617 10.494100 1.377890 11697996
9.483624 8.788674 1.553862 11697996
9.316774 9.966077 3.420655 11697996
10.707435 10.532546 2.081241 11697996
10.891185 8.785122 2.291695 11697996
9.041494 8.859141 3.380955 11697996
10.236549 10.786016 0.404838 11697996
11.119110 10.943434 3.462712 11697996
10.634303 10.447426 3.068430 11697996
9.337280 9.993152 3.432709 11697996
10.381573 11.105226 0.782579 11697996
10.057023 9.390078 0.864019 11697996
10.563868 10.345253 1.696431 11697996
10.044441 10.171564 3.393183 11697996
9.597159 10.036393 2.744219 11697996
10.541404 9.120235 1.172383 11697996
9.984026 9.584580 1.778774 11697996
10.742484 10.231926 1.732702 11697996
10.666910 11.064380 0.913898 11697996
11.055492 9.816955 2.038038 11697996
10.484620 10.165391 1.537950 11697996
11.058081 9.286439 3.918373 11697996
9.166802 9.739619 2.570497 11697996
10.537623 10.288596 2.281185 11697996
9.540832 10.813581 1.737471 11697996
10.498228 9.529235 3.994374 11697996
10.287285 10.335421 1.590727 11697996
9.276443 9.791813 0.316047 11697996
9.026120 10.673479 2.510745 11697996
11.050778 11.016322 2.977118 11697996
9.289959 9.528728 0.096529 11697996
9.399422 10.522260 2.600582 11697996
9.286617 10.075746 0.010809 11697996
10.386975 9.603416 0.296535 11697996
9.908935 11.029397 1.141369 11697996
10.090242 9.873390 0.994363 11697996
9.966866 9.889435 1.795761 11697996
8.909071 9.027071 0.535028 11697996
10.199341 10.399185 3.615519 11697996
10.816003 10.454819 1.529439 11697996
9.301938 10.544006 3.035110 11697996
8.954597 9.284471 3.934562 11697996
9.304197 9.343661 3.747727 11697996
10.490368 10.315272 0.122308 11697996
11.186931 11.057879 2.774361 11697996
10.179198 10.421050 3.966701 11697996
9.059005 11.060338 2.429376 11697996
9.972303 10.579589 1.084179 11697996
10.710585 10.414295 0.959266 11697996
10.275578 9.902662 1.940536 11697996
9.249604 9.864146 3.146555 11697996
10.840400 9.973988 1.303938 11697996
11.251831 8.817284 0.152104 11697996
9.282365 9.561119 1.875623 11697996
9.437040 10.275572 3.943640 11697996
10.610537 10.933393 2.746152 11697996
9.776749 9.426612 2.237537 11697996
11.160754 10.759582 1.646354 11697996
9.131427 10.785760 0.275837 11697996
9.668221 9.682982 0.157865 11697996
9.714902 9.018508 2.278198 11697996
9.834452 11.066084 3.569079 11697996
10.650403 9.133507 3.492038 11697996
9.441972 10.152152 1.866362 11697996
9.665503 9.866728 3.419944 11697996
10.196498 9.604006 3.212392 11697996
10.921946 8.785618 0.609577 11697996
10.188802 9.797283 1.648852 11697996
9.443208 9.004272 3.424046 11697996
10.114675 10.827060 2.322994 11697996
10.143312 9.883760 3.389097 11697996
9.789483 9.060792 3.013732 11697996
11.164225 9.544805 1.172626 11697996
9.194255 9.612998 2.736648 11697996
9.124027 10.038568 1.835011 11697996
11.051501 10.257632 3.410372 11697996
9.025900 9.579868 0.191297 11697996
10.641577 9.784484 1.363083 11697996
11.010934 10.134360 0.075629 11697996
10.411366 10.169595 2.273544 11697996
10.406173 10.569658 2.589619 11697996
10.915824 9.798636 3.764417 11697996
9.421918 10.762959 3.112804 11697996
8.783944 9.814925 3.754673 11697996
10.395005 9.077477 0.437012 11697996
8.862802 9.569094 0.135240 11697996
10.952516 9.900000 1.924972 11697996
10.393425 10.350924 1.399071 11697996
9.039611 9.199948 1.547697 11697996
11.002924 8.964211 1.418843 11697996
9.227553 10.465518 1.210009 11697996
9.546519 11.043131 0.736392 11697996
10.638599 10.965703 2.834628 11697996
11.129752 10.723161 0.154007 11697996
9.159913 8.885089 0.242907 11697996
9.934470 10.001086 3.852503 11697996
10.456161 9.536956 2.683698 11697996
11.072581 10.855425 2.945132 11697996
10.006254 10.757770 0.086810 11697996
10.298759 9.046797 0.256049 11697996
10.422202 10.970277 0.966313 11697996
8.766007 9.432143 0.784059 11697996
9.334783 11.094661 1.228670 11697996
10.729694 8.994040 1.538092 11697996
9.993044 10.649411 0.390214 11697996
10.684285 9.828101 1.742281 11697996
10.253188 10.115222 3.906844 11697996
10.651472 9.407660 3.060945 11697996
10.141661 11.136725 0.279066 11697996
9.038362 9.862574 1.718743 11697996
9.551915 10.111285 3.810621 11697996
9.754570 10.785354 1.255491 11697996
11.023358 11.022895 0.411945 11697996
10.262021 9.191002 2.111712 11697996
8.744655 9.152297 1.845894 11697996
8.766882 9.213557 1.260977 11697996
8.838955 9.540780 2.075101 11697996
9.343109 10.849103 1.815138 11697996
9.011179 10.301984 2.102838 11697996
8.972894 10.659973 1.978022 11697996
9.155856 10.537717 0.306431 11697996
10.094794 11.209879 2.690489 11697996
9.278095 10.182942 3.520918 11697996
11.085371 10.544137 2.667494 11697996
10.683755 9.821331 0.661048 11697996
9.648513 8.975778 2.027767 11697996
10.389854 10.294390 3.021698 11697996
10.191694 9.198417 1.894577 11697996
11.252047 9.829991 1.978984 11697996
11.044825 9.247878 2.211556 11697996
9.966315 11.027571 1.746612 11697996
11.194471 9.526643 1.479104 11697996
9.981516 9.165367 1.388548 11697996
10.685370 10.581442 3.138503 11697996
11.072747 11.170916 3.767492 11697996
9.903114 9.175467 3.642338 11697996
11.192932 11.140883 0.603675 11697996
9.197862 9.298702 3.895494 11697996
10.806861 10.261394 2.571963 11697996
10.141190 10.162463 0.343089 11697996
9.826084 10.214943 0.599478 11697996
10.336747 8.785366 0.320272 11697996
10.450873 9.616569 2.686309 11697996
9.450225 9.165692 2.339605 11697996
8.753500 10.510685 3.920456 11697996
10.879277 10.110278 2.913095 11697996
10.575324 11.054355 3.492947 11697996
9.102575 9.738672 3.663598 11697996
8.794078 9.457838 0.878619 11697996
9.343349 10.825957 2.055274 11697996
10.167139 9.534501 2.946430 11697996
9.664433 9.833682 0.625512 11697996
11.055468 9.795792 2.124022 11697996
10.093798 10.345816 2.298315 11697996
10.757107 11.136857 1.854817 11697996
10.225450 9.689410 3.222372 11697996
8.854835 9.202150 0.254936 11697996
10.768894 9.780115 3.110198 11697996
11.206580 8.785575 1.016270 11697996
9.730281 10.500504 2.676604 11697996
10.924570 10.538595 1.841759 11697996
9.819226 10.822016 3.957055 11697996
10.681745 10.415021 0.144692 11697996
11.035038 9.002419 1.046605 11697996
10.215149 9.179463 0.982682 11697996
10.218756 11.142926 2.428361 11697996
9.517277 10.979787 0.759589 11697996
9.568965 10.609460 0.747271 11697996
9.036118 8.974229 1.489334 11697996
10.735891 9.795444 2.784411 11697996
10.424077 10.012311 2.184269 11697996
10.556757 8.856807 2.502342 11697996
9.036317 11.191083 1.062314 11697996
9.597752 10.159327 3.562339 11697996
9.637402 10.948540 2.870247 11697996
10.580434 9.143544 0.996021 11697996
8.828880 9.135711 1.168165 11697996
11.095239 10.715569 1.731779 11697996
8.932770 9.673177 3.355257 11697996
10.687490 9.137491 2.218256 11697996
10.686777 9.879572 3.876297 11697996
8.884862 9.395652 1.910407 11697996
10.014853 9.260869 1.361532 11697996
10.585723 9.921185 0.755134 11697996
9.525230 10.791012 3.133259 11697996
9.232127 9.570197 3.057880 11697996
10.172323 9.477719 2.918108 11697996
11.198075 9.874226 0.530352 11697996
10.854944 9.478662 0.521145 11697996
10.020717 11.180474 0.801694 11697996
9.617505 9.356946 0.570717 11697996
9.470103 9.585037 3.605942 11697996
9.757332 9.378778 3.491086 11697996
9.833498 9.975269 3.168072 11697996
9.227127 9.778273 2.395885 11697996
9.566731 9.354709 1.799401 11697996
8.761049 9.971129 0.780126 11697996
10.803313 10.544552 0.107966 11697996
8.864162 10.704929 0.372116 11697996
11.091345 11.215281 3.635270 11697996
10.436999 9.277988 1.161024 11697996
10.327758 8.870591 3.453649 11697996
11.157775 11.265685 3.793754 11697996
11.008907 9.782228 1.161338 11697996
11.066000 9.348264 2.882603 11697996
10.036073 10.859115 3.819028 11697996
10.004363 9.940282 2.958655 11697996
10.651219 11.013506 1.443110 11697996
9.923103 10.942656 0.938426 11697996
9.790413 9.635692 2.261651 11697996
10.762016 9.340408 3.266840 11697996
9.483745 9.670001 0.278083 11697996
10.531305 9.102205 2.422625 11697996
8.821534 9.302436 1.305132 11697996
10.566298 9.520337 3.649888 11697996
11.102378 9.092663 1.267078 11697996
10.331510 8.798877 1.692390 11697996
10.919918 10.728248 2.696244 11697996
9.613863 8.983331 1.272031 11697996
8.773721 9.689006 0.404988 11697996
8.844764 9.072253 3.142069 11697996
10.561091 10.699237 2.076888 11697996
10.425096 9.853243 1.390075 11697996
10.381651 8.971842 3.755924 11697996
10.357443 10.695484 2.368083 11697996
10.991688 8.807669 0.163388 11697996
9.029127 9.523585 2.746804 11697996
10.489751 9.743498 2.951191 11697996
10.779139 10.231041 3.114815 11697996
10.417705 8.968628 1.388784 11697996
10.122037 9.672041 2.007536 11697996
9.543324 11.054417 1.938421 11697996
9.774800 9.496427 1.366526 11697996
9.269196 10.515442 3.843601 11697996
10.907769 9.659745 0.669496 11697996
9.816132 10.593932 2.652799 11697996
8.867829 9.848305 1.599598 11697996
10.260117 10.289264 3.731160 11697996
8.749174 9.761416 1.650072 11697996
9.421001 10.167813 1.820669 11697996
9.486348 9.562590 0.053523 11697996
9.900391 10.168456 1.862287 11697996
9.453780 8.745193 2.163888 11697996
9.414465 10.097330 0.437713 11697996
9.324916 8.786969 3.943040 11697996
8.925465 10.383462 2.391600 11697996
9.605127 10.041434 1.667198 11697996
9.262451 9.877901 0.878663 11697996
10.756277 10.852857 1.362815 11697996
11.178639 9.885004 3.171266 11697996
10.528249 10.223292 1.296835 11697996
8.938918 10.587677 3.697120 11697996
10.533225 10.251161 2.769709 11697996
9.694265 9.263035 3.513300 11697996
10.955154 11.142386 0.957318 11697996
10.416741 10.664703 2.587313 11697996
10.199579 10.672400 1.225000 11697996
10.473200 9.483014 2.178366 11697996
9.904180 9.344571 0.047396 11697996
9.570907 10.684191 0.581536 11697996
10.365602 9.263250 0.260641 11697996
9.031282 10.775445 0.478741 11697996
10.422587 10.944708 2.012329 11697996
10.044856 9.065524 2.656866 11697996
10.196541 9.213005 3.753598 11697996
10.855844 9.846647 2.852517 11697996
10.356444 11.136282 1.111305 11697996
10.944364 9.073627 0.526708 11697996
11.140590 10.036722 1.438103 11697996
9.372520 10.187369 3.564201 11697996
9.044377 8.820101 1.238069 11697996
10.348319 10.517777 1.336248 11697996
8.928354 8.943716 3.251348 11697996
10.235743 9.174096 3.938469 11697996
9.097329 10.308740 2.619153 11697996
9.242686 9.797975 0.670758 11697996
9.843208 11.108231 3.357525 11697996
8.989416 10.286375 3.227579 11697996
8.802709 11.236958 2.893193 11697996
9.384242 10.276123 3.571969 11697996
11.135160 11.194782 0.524893 11697996
8.957361 9.289602 0.600419 11697996
10.231336 8.987377 3.673469 11697996
10.451639 11.108973 0.589727 11697996
8.750119 9.807931 3.637057 11697996
10.109675 10.388801 3.569977 11697996
9.561281 10.196911 1.129773 11697996
9.708590 8.765421 3.098907 11697996
10.006722 9.488912 3.121196 11697996
10.543457 9.799139 2.865585 11697996
9.347671 9.014566 1.091713 11697996
10.821893 11.054790 1.594667 11697996
9.933722 9.323306 3.109434 11697996
10.323411 9.434268 1.338915 11697996
10.401804 10.929656 3.360012 11697996
8.830699 9.674219 1.910796 11697996
9.236168 10.830158 3.058741 11697996
9.387804 10.772892 1.332782 11697996
9.328381 9.864359 2.361040 11697996
11.098155 9.042964 0.179171 11697996
10.089089 9.006122 1.867311 11697996
10.700333 9.911081 1.101803 11697996
10.359167 10.149176 0.616805 11697996
10.943748 9.679689 3.087934 11697996
8.846135 10.618723 1.588575 11697996
10.235738 9.649310 3.053967 11697996
9.047652 10.513084 3.414061 11697996
10.223429 10.490850 0.019593 11697996
9.095588 10.367419 2.127594 11697996
9.856151 10.489345 1.642300 11697996
10.080822 9.850060 1.496965 11697996
10.885895 9.924288 1.298289 11697996
9.479795 8.955370 1.813054 11697996
10.592186 9.217537 2.176371 11697996
11.159691 10.333067 3.127668 11697996
11.199317 9.379674 3.471677 11697996
9.940620 9.028523 1.544127 11697996
10.959851 9.818101 1.143521 11697996
11.234117 10.075398 0.405452 11697996
9.877199 8.785056 2.313106 11697996
10.032447 9.495236 2.389176 11697996
9.979128 10.734037 1.711673 11697996
9.920934 9.979005 2.877687 11697996
9.955779 10.744631 3.765505 11697996
10.699828 9.308604 2.500010 11697996
9.471605 8.921184 0.279449 11697996
9.347582 8.865601 0.452213 11697996
9.037269 10.605854 3.222019 11697996
8.918198 9.547611 3.311168 11697996
10.133286 10.984365 0.122877 11697996
8.763109 10.491386 3.775759 11697996
10.308805 8.825501 3.561439 11697996
9.284971 10.569316 1.809806 11697996
9.449152 10.903687 1.903462 11697996
8.938371 9.950100 0.218785 11697996
10.397854 9.455808 2.742662 11697996
10.505078 9.631366 3.270866 11697996
10.300736 9.754292 0.823869 11697996
9.260274 10.137824 0.246584 11697996
8.826627 10.310638 0.918830 11697996
10.468480 11.210623 3.555454 11697996
9.029110 8.944047 2.872056 11697996
9.527566 10.394555 3.745430 11697996
8.789079 10.046381 2.472685 11697996
10.770159 10.577628 3.410533 11697996
11.002414 11.205333 3.634380 11697996
10.489962 8.798879 0.910857 11697996
8.932278 10.286906 0.054558 11697996
9.061172 9.426121 0.727201 11697996
9.218645 8.935287 0.328223 11697996
9.609005 9.153395 0.240008 11697996
10.909717 10.318902 1.705798 11697996
9.813570 10.231609 3.624243 11697996
9.120827 9.807111 1.798550 11697996
9.902281 9.458490 1.230594 11697996
9.369681 9.193768 1.500769 11697996
10.168701 10.513596 3.104981 11697996
10.157160 9.926076 0.739093 11697996
11.062857 9.081760 1.679168 11697996
8.756522 10.486358 0.259790 11697996
10.432107 11.129996 2.028411 11697996
9.877057 9.524590 1.712369 11697996
11.232707 10.185751 0.769851 11697996
9.833872 9.160774 1.777269 11697996
9.745720 9.660036 2.918982 11697996
10.741373 9.403979 3.013112 11697996
10.565473 8.759480 2.884558 11697996
10.610806 10.557665 2.308969 11697996
9.366879 9.818755 3.227701 11697996
10.394588 10.681684 2.611187 11697996
10.370857 10.569016 2.537049 11697996
8.772840 8.862253 0.490057 11697996
10.176425 8.972795 2.603914 11697996
9.917004 10.306243 2.041559 11697996
9.787813 11.206217 2.486042 11697996
8.736362 9.461058 0.033473 11697996
10.616793 9.495170 0.335015 11697996
-9.800828 -10.478043 0.682461 6730418
-10.261553 -10.948215 1.068804 6730418
-10.544408 -9.850781 2.203702 6730418
-10.402289 -9.378909 0.353119 6730418
-9.685895 -9.552029 1.800854 6730418
-9.911834 -9.390175 2.444222 6730418
-10.006234 -10.266376 2.955284 6730418
-9.642303 -9.350666 0.191933 6730418
-9.581506 -9.679376 2.385530 6730418
-9.412121 -10.298127 0.297440 6730418
-10.724898 -9.750493 1.205023 6730418
-9.459518 -10.337128 1.980332 6730418
-9.658002 -10.845186 2.899827 6730418
-10.242183 -10.133452 1.443267 6730418
-9.483298 -10.173930 0.809812 6730418
-9.281001 -10.576504 1.760809 6730418
-10.488747 -9.787102 0.164347 6730418
-9.337834 -10.671947 1.814899 6730418
-9.569636 -10.760578 1.343004 6730418
-9.883082 -10.459911 1.582723 6730418
-9.348937 -10.536388 1.782133 6730418
-9.780675 -9.233889 1.267959 6730418
-9.862779 -9.020619 2.095310 6730418
-9.746140 -10.779523 0.098058 6730418
-10.290996 -10.061348 0.318915 6730418
-10.108243 -9.690394 0.828616 6730418
-10.284605 -10.513740 0.455555 6730418
-9.945906 -9.569404 0.899640 6730418
-10.387554 -10.469705 0.986133 6730418
-9.618607 -10.446684 2.068406 6730418
-10.244200 -10.635181 2.032724 6730418
-9.467485 -9.296619 2.815072 6730418
-9.972077 -10.879610 1.214457 6730418
-10.809151 -9.437346 1.742643 6730418
-9.605393 -9.388134 2.150770 6730418
-10.469163 -9.817608 0.358177 6730418
-9.872342 -9.757794 1.196481 6730418
-9.561530 -10.576379 1.081095 6730418
-9.745171 -10.742233 1.909013 6730418
-9.386561 -9.485179 1.110324 6730418
-9.121158 -10.291710 0.447172 6730418
-9.915744 -10.783514 0.210897 6730418
-10.032891 -9.155556 2.581520 6730418
-9.528347 -10.197980 2.732813 6730418
-9.890172 -9.428232 2.495746 6730418
-10.327104 -9.792645 1.860266 6730418
-9.832381 -10.385300 0.870614 6730418
-9.391850 -9.423764 1.252489 6730418
-10.547749 -10.491606 1.873721 6730418
-9.471663 -9.427168 2.319635 6730418
-10.783867 -10.298282 2.740526 6730418
-9.270395 -9.853080 2.674266 6730418
-10.614111 -9.996099 1.931666 6730418
-9.929037 -10.126231 1.169925 6730418
-10.376882 -10.512790 2.587434 6730418
-9.920556 -10.452849 0.716737 6730418
-9.838412 -9.808371 1.382539 6730418
-9.510627 -10.260505 2.606146 6730418
-9.808120 -9.323909 1.797597 6730418
-9.779649 -10.527734 2.920548 6730418
-10.288251 -10.256800 1.297651 6730418
-9.127368 -9.766045 1.242524 6730418
-9.369311 -9.999533 2.117599 6730418
-10.216219 -9.097583 2.094633 6730418
-9.320880 -9.715154 2.726657 6730418
-10.193218 -9.299844 1.053697 6730418
-9.698296 -9.589045 1.204039 6730418
-10.076575 -9.080602 1.164311 6730418
-9.815411 -9.914474 0.903501 6730418
-10.591492 -10.576025 0.662091 6730418
-9.234329 -10.536719 0.733629 6730418
-10.075434 -10.876646 1.808810 6730418
-10.018973 -9.613689 2.875867 6730418
-9.720292 -10.115806 0.358308 6730418
-9.994744 -10.083484 1.521166 6730418
-9.528537 -9.298904 1.895224 6730418
-9.126823 -9.568652 1.170549 6730418
-10.027864 -9.144882 0.093258 6730418
-9.582308 -9.913315 0.781191 6730418
-9.770478 -9.927269 2.316245 6730418
-9.389884 -10.731525 1.962599 6730418
-10.487324 -9.463587 1.200553 6730418
-10.364861 -9.654046 2.668297 6730418
-9.145368 -9.935116 2.769115 6730418
-9.405158 -10.354612 0.154230 6730418
-10.229545 -9.450573 1.636411 6730418
-10.759994 -9.841161 1.489170 6730418
-10.177507 -9.842702 2.200057 6730418
-10.517344 -9.427344 1.195766 6730418
-9.987903 -9.344920 0.623121 6730418
-10.838438 -10.199501 2.667561 6730418
-9.927902 -9.711279 2.310714 6730418
-10.833505 -9.888289 1.527148 6730418
-10.685949 -9.732049 0.852966 6730418
-9.691295 -10.516514 2.710196 6730418
-10.687769 -10.598645 1.392912 6730418
-10.057075 -10.339356 1.556306 6730418
-9.726069 -10.947693 0.364013 6730418
-10.007796 -10.327498 1.120296 6730418
-9.432109 -10.243971 1.092750 6730418
-9.623994 -10.232231 2.182859 6730418
-9.059546 -9.846030 0.363633 6730418
-10.627480 -10.141179 0.490906 6730418
-9.491839 -10.507664 1.564887 6730418
-9.821261 -10.400270 1.980658 6730418
-9.955495 -10.266087 2.805220 6730418
-10.010830 -10.243899 2.388951 6730418
-9.457392 -9.590198 0.734351 6730418
-9.439384 -9.908227 2.678637 6730418
-9.737480 -10.492580 2.100242 6730418
-9.452334 -10.224621 0.558327 6730418
-9.042453 -10.275187 1.074710 6730418
-9.749475 -9.073993 0.944520 6730418
-9.242945 -10.445205 2.455060 6730418
-9.696872 -9.782511 2.776494 6730418
-9.118464 -10.281904 0.135781 6730418
-9.621309 -10.406868 1.008250 6730418
-10.391519 -10.485461 2.334380 6730418
-9.647875 -9.123240 1.867815 6730418
-9.304696 -10.113821 1.519625 6730418
-9.157551 -9.540657 1.734448 6730418
-9.322298 -9.489018 2.227426 6730418
-10.372996 -10.665189 0.641355 6730418
-9.251476 -10.367796 1.009171 6730418
-9.254913 -9.455841 0.322560 6730418
